# .PCD v0.7 - Point Cloud Data file format
VERSION 0.7
FIELDS x y z intensity ring
SIZE 4 4 4 4 2
TYPE F F F F U
COUNT 1 1 1 1 1
WIDTH 1283
HEIGHT 1
VIEWPOINT 0 0 0 1 0 0 0
POINTS 1283
DATA ascii
-14.552543 -5.6357965 -1.6809955 2 5
-18.818197 -5.2435169 -1.8235627 2 6
-46.03503 -17.828093 1.1487339 12 24
-78.257301 -21.805674 0.94576824 62 22
-20.37229 -7.8896232 -1.5276668 3 8
-20.514561 -6.8123598 -1.7646328 3 7
-61.219017 -20.329266 1.1259595 27 23
-21.122963 -9.3913021 -1.4815125 5 9
-29.546467 -8.2328501 -1.7862633 6 10
-25.496466 -9.874074 1.5923116 4 27
-30.016752 -11.624657 -1.499419 6 12
-30.278414 -10.054685 -1.6720293 7 11
-46.970428 -18.190346 6.1846256 30 29
-24.727716 -10.99398 -1.1025161 6 13
-46.75721 -13.028464 -1.6949987 21 14
-33.62851 -13.023389 -0.83914804 6 16
-40.775417 -13.390507 -1.2490312 11 15
-5.6429973 -2.1638842 -1.6918551 2 1
-8.1797199 -2.6861918 -1.72191 0 2
-46.939247 -17.999493 0 18 20
-55.9384 -15.386999 -0.67541569 26 18
-10.336887 -3.9638202 -1.7223623 1 3
-13.281383 -4.3615603 -1.779372 2 4
-40.852798 -13.415919 -0.24991232 9 19
-14.600859 -5.5988979 -1.6844225 2 5
-18.877724 -5.1927032 -1.8276523 2 6
-46.990021 -18.018963 1.1710665 13 24
-78.279045 -21.532251 0.94516283 62 22
-20.480309 -7.8534532 -1.5338054 6 8
-20.567343 -6.7542443 -1.7672365 3 7
-30.185535 -13.300824 0.95998758 16 25
-64.386696 -21.144367 1.1829242 30 23
-21.219742 -9.3501759 -1.4861176 5 9
-29.654457 -8.1570644 -1.791147 6 10
-25.517887 -9.785181 1.591614 4 27
-30.219292 -11.587998 -1.5076084 6 12
-30.478577 -10.00906 -1.6812403 7 11
-47.015667 -18.028799 6.1826758 30 29
-74.549988 -24.48196 6.4056625 62 28
-25.089544 -11.055349 -1.1170079 6 13
-46.846413 -12.886063 -1.6966739 21 14
-42.979904 -16.48123 -1.071128 10 16
-30.225309 -13.192552 -0.57565016 16 17
-41.042488 -13.319676 -1.2557802 12 15
-5.6577187 -2.1469061 -1.6940117 2 1
-8.1890459 -2.6576226 -1.72191 0 2
-56.377785 -15.296376 -0.68007213 27 18
-10.343269 -3.9249084 -1.7211324 1 3
-13.319171 -4.3225217 -1.7824024 2 4
-30.233072 -13.195939 0.19172344 16 21
-41.48909 -13.464614 -0.25351569 9 19
-14.646341 -5.5577736 -1.6874212 5 5
-18.941858 -5.1392903 -1.8321137 2 6
-78.322853 -21.250496 0.94479036 62 22
-20.556093 -7.8003178 -1.5374327 6 8
-20.62492 -6.6934843 -1.7701656 3 7
-30.242773 -13.200173 0.96033669 10 25
-64.486732 -20.928125 1.1834128 30 23
-21.288834 -9.2920151 -1.4886758 5 9
-29.75983 -8.0744143 -1.7957983 6 10
-25.522018 -9.6847124 1.5897535 4 27
-30.364159 -11.522135 -1.5128199 6 12
-30.543722 -9.9124718 -1.6829152 7 11
-74.597069 -24.209272 6.4024081 62 28
-25.428345 -11.098803 -1.1303599 6 13
-42.966133 -16.304142 -1.06936 10 16
-42.048176 -13.484015 -1.2851034 12 15
-5.6651778 -2.1271453 -1.6940117 2 1
-49.190762 -18.470009 0 24 20
-56.430836 -15.099502 -0.68007213 27 18
-10.386508 -3.8998971 -1.7260518 0 3
-13.364405 -4.2856989 -1.7864429 2 4
-42.30904 -13.567668 -0.25823498 10 19
-14.691713 -5.5164037 -1.6904199 5 5
-18.96353 -5.0741735 -1.8324854 2 6
-49.15873 -18.457983 1.2218732 20 24
-78.400414 -20.97802 0.94483691 62 22
-20.624287 -7.7439499 -1.540502 6 8
-20.674734 -6.6299758 -1.7724438 3 7
-39.537109 -17.092863 1.2535694 9 25
-21.350451 -9.2303238 -1.4907224 5 9
-29.8727 -7.9931984 -1.8009144 6 10
-25.555666 -9.5955706 1.5897535 4 27
-74.589622 -23.919409 3.1912882 43 26
-30.441595 -11.430125 -1.5146812 6 12
-30.696054 -9.8436146 -1.6894048 7 11
-74.624176 -23.930489 6.3975263 62 28
-25.811771 -11.159062 -1.1456658 6 13
-42.966621 -16.132988 -1.0679642 10 16
-33.096134 -14.171355 -0.62842625 10 17
-42.899227 -13.591967 -1.3096558 13 15
-5.6689577 -2.1060154 -1.6929333 2 1
-8.2111378 -2.6015739 -1.7226944 1 2
-56.518002 -14.911609 -0.68049121 27 18
-10.425994 -3.8732524 -1.7303562 1 3
-13.379283 -4.2390218 -1.7864429 2 4
-43.206467 -13.68931 -0.26341918 10 19
-14.733249 -5.4733963 -1.6929903 2 5
-19.058146 -5.0282669 -1.839921 2 6
-95.89962 -25.301983 1.1546558 46 22
-20.688599 -7.6858063 -1.5432922 6 8
-20.754757 -6.5758286 -1.7773257 3 7
-40.0229 -17.137312 1.2670673 9 25
-74.921478 -23.737728 1.3718289 42 23
-21.437588 -9.1793098 -1.49456 6 9
-29.954473 -7.9031343 -1.8041703 6 10
-25.57029 -9.4993525 1.5885907 4 27
-74.710762 -23.670965 3.1929166 43 26
-30.60866 -11.371105 -1.5210093 6 12
-30.825424 -9.7665653 -1.6946384 7 11
-49.341835 -18.330473 6.4629755 30 29
-74.680641 -23.661423 6.3952484 62 28
-26.159189 -11.201042 -1.1593435 6 13
-35.83514 -9.4546795 -1.2942131 11 14
-43.000187 -15.974553 -1.0674059 10 16
-33.226406 -14.090084 -0.62996203 10 17
-43.99194 -13.769371 -1.341539 14 15
-5.669044 -2.0835552 -1.6907767 2 1
-8.220171 -2.5728936 -1.7226944 1 2
-50.381023 -18.516638 0 81 20
-78.839149 -20.50667 -0.94837582 30 18
-10.44316 -3.8381958 -1.730971 1 3
-13.412934 -4.198216 -1.7889682 2 4
-44.08617 -13.798865 -0.26848719 10 19
-14.774663 -5.4301615 -1.6955606 5 5
-19.106417 -4.9697266 -1.8428952 2 6
-95.933159 -24.952955 1.1540039 46 22
-20.823917 -7.6534567 -1.551384 7 8
-20.815636 -6.515244 -1.7805803 3 7
-40.61623 -17.223833 1.2839398 9 25
-21.57975 -9.1511698 -1.5022348 6 9
-30.035986 -7.8125911 -1.807426 6 10
-25.554569 -9.3921223 1.5855675 4 27
-74.743355 -23.394489 3.1907997 43 26
-30.730679 -11.294508 -1.5251042 6 12
-30.95845 -9.6899204 -1.7000813 7 11
-51.134613 -18.793608 6.6891651 30 29
-74.73616 -23.392239 6.3929701 62 28
-26.532967 -11.251645 -1.174161 6 13
-35.852451 -9.3254986 -1.2936546 11 14
-43.018158 -15.81055 -1.0664754 10 16
-35.750526 -11.052969 -1.0890332 8 15
-5.6762824 -2.063755 -1.6907767 2 1
-8.2178593 -2.5407107 -1.720341 1 2
-78.933495 -20.237322 -0.94865519 30 18
-10.478782 -3.8098242 -1.7346605 1 3
-13.454043 -4.1595783 -1.7925038 2 4
-41.186813 -17.296432 0.25962982 17 21
-45.452469 -14.052512 -0.27650765 11 19
-14.823428 -5.3894296 -1.6989877 5 5
-19.154509 -4.9109187 -1.8458693 2 6
-102.40472 -26.254978 1.230742 63 22
-21.045509 -7.6516237 -1.5658934 7 8
-20.861103 -6.4496145 -1.782533 3 7
-41.251183 -17.323463 1.3020923 10 25
-71.153625 -21.998524 1.2999949 38 23
-21.622602 -9.0804281 -1.5030024 6 9
-30.206192 -7.7443986 -1.8160306 6 10
-25.628481 -9.3178778 1.5881257 4 27
-74.794014 -23.12402 3.1894972 43 26
-30.85253 -11.217212 -1.5291989 6 12
-31.106571 -9.6171999 -1.7063617 7 11
-51.188705 -18.610939 6.6877027 30 29
-74.794502 -23.12417 6.391017 62 28
-26.947941 -11.316808 -1.1907694 7 13
-37.092945 -9.5100546 -1.3372091 11 14
-43.046776 -15.650736 -1.065824 10 16
-33.342422 -13.865461 -0.63031113 40 17
-35.815659 -10.936281 -1.0898478 8 15
-5.6907005 -2.0465353 -1.6929333 2 1
-8.2266779 -2.5120091 -1.720341 1 2
-52.997063 -19.059229 0 34 20
-79.213051 -20.014576 -0.95116961 30 18
-10.506892 -3.778573 -1.7371202 0 3
-13.506431 -4.1241775 -1.7975545 2 4
-41.682751 -17.33379 0.26237306 18 21
-46.35817 -14.155428 -0.28171512 12 19
-14.883316 -5.3524575 -1.7036999 5 5
-19.221731 -4.8567095 -1.8507024 2 6
-52.975193 -19.051365 1.309994 32 24
-88.965881 -22.4788 1.068279 53 22
-21.327417 -7.6699371 -1.5848671 7 8
-20.917803 -6.3872337 -1.785462 3 7
-41.850407 -17.403511 1.3190812 10 25
-77.954407 -23.803314 1.4227202 43 23
-21.672594 -9.012558 -1.5042814 6 9
-30.325956 -7.6623878 -1.8216119 6 10
-25.581936 -9.1999807 1.5832418 4 27
-74.855156 -22.85696 3.1886828 43 26
-31.015572 -11.154068 -1.535341 7 12
-31.266022 -9.5470533 -1.7132699 7 11
-74.783249 -22.835001 6.3832059 62 28
-25.492702 -10.601151 -1.1248237 6 13
-38.180126 -9.6468821 -1.3751799 12 14
-41.949673 -15.086277 -1.0373499 9 16
-25.528347 -10.511605 -0.48189586 11 17
-36.094788 -10.883915 -1.0971787 8 15
-5.6978097 -2.0266585 -1.6929333 2 1
-8.2504168 -2.4878066 -1.7234788 0 2
-53.044426 -18.867414 0 34 20
-79.445465 -19.778532 -0.95312542 30 18
-10.527468 -3.7445233 -1.73835 0 3
-13.528342 -4.0792966 -1.7985647 2 4
-35.906487 -10.827136 -0.21797003 7 19
-14.913151 -5.3044701 -1.7049851 2 5
-19.265623 -4.7963185 -1.8533049 2 6
-53.063984 -18.874371 1.3105522 33 24
-88.896317 -22.131393 1.0665095 53 22
-21.639784 -7.6970716 -1.606073 7 8
-20.947609 -6.3164802 -1.7861131 3 7
-78.025528 -23.527588 1.4225107 43 23
-21.737143 -8.950531 -1.5065839 6 9
-30.449394 -7.5806007 -1.8274258 6 10
-25.56875 -9.0945692 1.5804513 4 27
-74.842644 -22.567831 3.1847749 43 26
-31.114552 -11.06716 -1.538319 7 12
-31.402416 -9.4689922 -1.7189224 7 11
-74.812881 -22.558855 6.3789749 62 28
-39.493687 -9.8322439 -1.4212471 13 14
-43.132385 -15.341792 -1.0652658 10 16
-25.527847 -10.407337 -0.48119774 11 17
-5.7048492 -2.0067582 -1.6929333 2 1
-8.2440138 -2.4545169 -1.720341 2 2
-54.351395 -19.118841 0 37 20
-79.739319 -19.556368 -0.9558261 30 18
-10.559115 -3.7143123 -1.7414244 0 3
-13.56912 -4.0399776 -1.8021001 2 4
-25.527599 -10.407237 0.16022284 33 21
-14.950334 -5.2589831 -1.7071271 2 5
-19.324795 -4.7394791 -1.8573945 2 6
-54.351776 -19.118977 1.3407013 37 24
-88.728294 -21.76095 1.063576 53 22
-21.948832 -7.7207999 -1.627 7 8
-21.049768 -6.2672153 -1.7929476 3 7
-25.539442 -10.412065 0.80266601 7 25
-73.852432 -21.988321 1.345022 41 23
-21.864359 -8.9137859 -1.5132356 6 9
-30.533844 -7.4885406 -1.8309141 6 10
-25.634241 -9.0171928 1.5825442 4 27
-74.955444 -22.316723 3.1862407 43 26
-31.228378 -10.985006 -1.5420415 7 12
-31.553963 -9.3946619 -1.725412 7 11
-55.290802 -19.449291 7.196629 30 29
-74.917915 -22.305552 6.3812532 62 28
-28.304783 -11.539454 -1.2453172 7 13
-49.323318 -12.09673 -1.7734529 24 14
-43.106453 -15.16328 -1.0633117 10 16
-43.161774 -17.420969 -0.81244445 16 17
-5.7009058 -1.9830345 -1.6896983 2 1
-8.2562943 -2.4268284 -1.7211254 1 2
-33.019413 -11.485655 0 9 20
-79.97039 -19.317329 -0.95778179 30 18
-10.564551 -3.6748321 -1.7401948 0 3
-13.594561 -3.9959412 -1.8036153 2 4
-25.567484 -10.319555 0.16024609 11 21
-36.211456 -10.643878 -0.2193649 7 19
-14.979869 -5.2106805 -1.7084123 2 5
-19.368322 -4.6785345 -1.8599968 2 6
-33.033138 -11.490429 0.81383771 7 24
-88.636543 -21.41069 1.0615736 53 22
-22.258307 -7.7424526 -1.6479269 8 8
-21.094467 -6.2004395 -1.7949004 3 7
-43.943523 -17.736498 1.379124 23 25
-75.152763 -22.09016 1.3672913 42 23
-21.939762 -8.8553333 -1.5163054 6 9
-30.621906 -7.3969059 -1.8346351 6 10
-32.997505 -11.478034 2.0346334 8 27
-75.055901 -22.061689 3.1872177 43 26
-31.338242 -10.900867 -1.5455779 7 12
-31.628719 -9.2968435 -1.7277148 7 11
-55.328365 -19.245724 7.1927295 30 29
-74.995323 -22.043882 6.3812532 62 28
-28.704393 -11.585675 -1.2611117 8 13
-33.033138 -11.490429 -0.81383771 6 16
-43.178459 -17.261408 -0.81167656 16 17
-50.699978 -14.720111 -1.5364456 24 15
-5.7183771 -1.9678785 -1.6929333 2 1
-8.2680645 -2.4005301 -1.72191 1 2
-33.004368 -11.357871 0 9 20
-80.325836 -19.121498 -0.96127415 30 18
-10.584154 -3.6423497 -1.7414244 0 3
-13.577251 -3.9419868 -1.7995749 2 4
-44.120274 -17.637917 0.27615893 20 21
-50.420967 -14.639103 -0.30514872 15 19
-15.049715 -5.1790938 -1.7144097 3 5
-19.410851 -4.6207371 -1.8625993 2 6
-33.04459 -11.371713 0.81318635 7 24
-88.446358 -21.054581 1.0584539 53 22
-22.585707 -7.7724729 -1.670249 8 8
-21.179998 -6.1493502 -1.8004332 3 7
-44.165459 -17.655981 1.384244 11 25
-21.994957 -8.792901 -1.5180963 6 9
-30.692883 -7.3064151 -1.8374258 6 10
-33.050488 -11.373742 2.0355635 8 27
-78.053345 -22.661819 3.3112934 44 26
-31.46867 -10.829388 -1.550231 7 12
-31.697739 -9.2030449 -1.7298082 7 11
-33.021145 -11.363644 4.2878513 14 29
-29.132326 -11.6462 -1.2782087 8 13
-49.696186 -11.830135 -1.7839227 25 14
-33.048374 -11.373014 -0.81327945 6 16
-43.20126 -17.095867 -0.81097841 16 17
-52.007923 -14.903204 -1.5744962 28 15
-5.7215652 -1.946665 -1.6918551 2 1
-8.2688532 -2.369493 -1.720341 1 2
-58.142872 -19.782122 0 45 20
-84.107178 -19.71167 -1.0056965 30 18
-10.58932 -3.6028359 -1.7401948 0 3
-13.613818 -3.9011269 -1.8026053 2 4
-44.322899 -17.539728 0.27704233 20 21
-51.906013 -14.874002 -0.31382012 16 19
-15.094056 -5.1354957 -1.7174084 3 5
-19.457882 -4.5602217 -1.8655734 2 6
-56.874035 -19.350422 1.3979286 44 24
-88.125999 -20.653536 1.0537509 54 22
-22.911131 -7.7951217 -1.692292 8 8
-21.262657 -6.0929508 -1.8056406 3 7
-44.356941 -17.5532 1.3883166 11 25
-22.051497 -8.7263527 -1.5198872 6 9
-30.795958 -7.2174549 -1.8420769 6 10
-81.343933 -23.309626 3.4474185 41 26
-31.600847 -10.75165 -1.554884 7 12
-31.82567 -9.1198502 -1.7350417 7 11
-33.068123 -11.250866 4.2888265 14 29
-29.618752 -11.720914 -1.2977482 8 13
-49.888977 -11.692165 -1.7893671 25 14
-43.184593 -14.692822 -1.0614506 9 16
-33.258251 -13.027067 -0.62346977 9 17
-53.483173 -15.124127 -1.6175501 31 15
-5.7319756 -1.9279089 -1.6929333 2 1
-8.2808475 -2.341682 -1.7211254 1 2
-59.394447 -19.976896 0 46 20
-84.7211 -19.543827 -1.0122155 30 18
-10.5831 -3.5595498 -1.7371202 0 3
-13.612078 -3.849263 -1.8005849 2 4
-45.881073 -17.971354 0.28638786 22 21
-15.134507 -5.0903831 -1.7199788 3 5
-19.489206 -4.4958539 -1.8670607 2 6
-58.305729 -19.610714 1.4314276 43 24
-88.162476 -20.337698 1.0533319 54 22
-23.225637 -7.8117771 -1.713498 4 8
-21.329832 -6.0317121 -1.8095461 3 7
-45.914547 -17.984467 1.4350942 12 25
-78.189491 -22.110653 1.4183222 43 23
-22.148726 -8.6755295 -1.524492 6 9
-30.88711 -7.1251712 -1.8460302 6 10
-58.449955 -19.659224 3.5913639 47 27
-81.351738 -23.004881 3.444325 41 26
-31.744225 -10.676942 -1.5600954 7 12
-31.899593 -9.0206594 -1.7373446 7 11
-59.437164 -19.991264 7.6997061 35 29
-97.771957 -27.648237 8.2946205 63 28
-30.072563 -11.779251 -1.3158222 9 13
-50.007385 -11.535918 -1.792159 25 14
-43.201504 -14.530517 -1.0606132 9 16
-33.39674 -12.947043 -0.62521499 10 17
-55.076122 -15.367176 -1.6640949 36 15
-5.7386703 -1.9078901 -1.6929333 1 1
-8.2927494 -2.3138185 -1.72191 1 2
-59.547325 -19.797226 0 46 20
-88.821907 -20.163555 -1.0603631 30 18
-10.621715 -3.531317 -1.7414244 0 3
-13.64072 -3.8059933 -1.8026053 2 4
-46.864704 -18.168221 0.29213005 23 21
-55.645607 -15.526072 -0.3357659 20 19
-15.1786 -5.0463085 -1.7229775 3 5
-19.485359 -4.4233918 -1.8652017 2 6
-59.497063 -19.780514 1.4589711 42 24
-88.190025 -20.020111 1.0528196 54 22
-23.551895 -7.8301115 -1.7355411 4 8
-21.392994 -5.9690099 -1.813126 3 7
-46.882938 -18.175289 1.4633702 13 25
-78.235367 -21.829 1.4177636 43 23
-22.234701 -8.619813 -1.5283295 6 9
-30.99357 -7.0358829 -1.850914 6 10
-59.5186 -19.787676 3.6527586 48 27
-84.515099 -23.581152 3.5747509 39 26
-31.860928 -10.592549 -1.5640042 7 12
-32.04631 -8.9414663 -1.7436249 7 11
-59.487747 -19.777418 7.6972685 35 29
-97.852501 -27.302515 8.2933187 63 28
-30.568121 -11.850461 -1.3356874 9 13
-50.378708 -11.436523 -1.8040248 26 14
-40.789204 -13.560862 -1.000222 9 16
-43.356339 -16.642944 -0.81062937 16 17
-56.533756 -15.571998 -1.706567 39 15
-5.7413068 -1.8876462 -1.6918551 1 1
-8.2965937 -2.2852635 -1.7211254 1 2
-61.197205 -20.120623 0 48 20
-88.903893 -19.872385 -1.0605493 30 18
-10.629612 -3.4948399 -1.7408096 0 3
-13.622661 -3.7523077 -1.7985647 2 4
-78.25238 -21.554306 -0.47174147 30 19
-15.21792 -5.0033994 -1.7255479 3 5
-19.484375 -4.3552761 -1.8637145 2 6
-61.047684 -20.071465 1.4953548 41 24
-41.032562 -9.1718702 0.48948428 15 22
-23.80138 -7.8254981 -1.7520036 4 8
-21.474169 -5.9149737 -1.8183334 3 7
-46.976547 -18.032614 1.4644176 13 25
-78.268768 -21.558821 1.4170656 43 23
-22.330242 -8.5717802 -1.5329344 6 9
-31.059597 -6.9426465 -1.8534721 6 10
-84.662186 -23.31986 3.5776818 39 26
-31.952812 -10.505553 -1.5667959 7 12
-32.168209 -8.8606043 -1.7486492 7 11
-97.823349 -26.945051 8.2832298 63 28
-31.088577 -11.933791 -1.3566924 9 13
-40.639729 -9.0840607 -1.4541923 14 14
-40.837749 -13.426773 -1.0003151 9 16
-43.365566 -16.47304 -0.80972189 16 17
-56.5299 -15.358841 -1.7048217 39 15
-8.3120909 -2.2583461 -1.7226944 0 2
-70.823273 -23.011885 0 58 20
-40.759636 -8.9615917 -0.4858523 9 18
-10.611675 -3.4479434 -1.7358904 0 3
-13.635676 -3.7047331 -1.7985647 2 4
-78.300125 -21.273684 -0.47157875 30 19
-15.261767 -4.9588504 -1.7285465 3 5
-19.445002 -4.2752628 -1.8585097 2 6
-64.422348 -20.932098 1.5762174 39 24
-40.818226 -8.974473 0.48655075 15 22
-23.991734 -7.7953897 -1.7640017 4 8
-21.544701 -5.8535686 -1.8225644 3 7
-49.091217 -18.64801 1.5283003 17 25
-78.304955 -21.274996 1.4163675 43 23
-22.416002 -8.5150433 -1.5367719 6 9
-31.146048 -6.8479056 -1.8571931 7 10
-74.664581 -24.260002 4.572053 62 27
-32.148895 -10.445812 -1.5746132 7 12
-32.291462 -8.7733994 -1.7536734 7 11
-97.986069 -26.622238 8.2890882 63 28
-31.638168 -12.018216 -1.3788371 10 13
-40.796127 -8.969615 -1.4586594 14 14
-41.165802 -13.375585 -1.007201 9 16
-43.354519 -16.28726 -0.8083955 16 17
-5.7436647 -1.8429835 -1.6886202 1 1
-8.3089466 -2.224822 -1.720341 1 2
-70.808128 -22.720373 0 58 20
-10.616714 -3.406611 -1.7346605 0 3
-13.607001 -3.643441 -1.7930088 2 4
-78.66349 -21.063112 -0.47329906 30 19
-15.329071 -4.9186759 -1.7341156 3 5
-19.398256 -4.1905088 -1.8525614 2 6
-64.506248 -20.698275 1.5764034 39 24
-40.831299 -8.8205833 0.4863179 15 22
-24.11133 -7.7366605 -1.7706983 4 8
-21.600668 -5.783843 -1.8254935 3 7
-49.170464 -18.472172 1.5286494 17 25
-92.850449 -24.861841 1.6778045 32 23
-22.506849 -8.455287 -1.5408652 6 9
-31.155325 -6.73033 -1.8562628 7 10
-74.707367 -23.971533 4.569262 62 27
-92.714264 -24.825378 3.9103417 33 26
-32.278275 -10.357207 -1.5790802 7 12
-32.51247 -8.7056112 -1.7639313 7 11
-32.175869 -12.087708 -1.4003305 10 13
-51.003674 -11.018071 -1.8221725 27 14
-41.842823 -13.426207 -1.0225546 9 16
-43.418602 -16.138611 -0.8085351 16 17
-35.786037 -9.4483976 -1.0771643 8 15
-5.7574058 -1.8252509 -1.6907767 2 1
-8.3242474 -2.1978068 -1.72191 1 2
-70.845062 -22.459768 0 58 20
-10.605935 -3.3623636 -1.730971 0 3
-13.596617 -3.5898428 -1.7899784 2 4
-78.995651 -20.856804 -0.47485662 30 19
-15.353727 -4.8675399 -1.7349724 3 5
-19.377705 -4.115324 -1.8492154 2 6
-89.106522 -18.923923 1.0605028 53 22
-24.161013 -7.6596837 -1.7723725 4 8
-21.66313 -5.7196016 -1.8290735 3 7
-92.832268 -24.510012 1.6759198 32 23
-22.55868 -8.3850174 -1.5424001 6 9
-31.311436 -6.6497407 -1.8641698 7 10
-74.767746 -23.703365 4.5678668 62 27
-95.486023 -25.21067 4.0235081 30 26
-32.375172 -10.263791 -1.5820582 7 12
-32.731907 -8.6420317 -1.7741891 8 11
-32.573761 -12.107604 -1.4157994 11 13
-42.956776 -13.618442 -1.0486094 9 16
-43.461586 -15.999373 -0.8083955 16 17
-35.792328 -9.3298845 -1.0764661 8 15
-5.7557607 -1.8048509 -1.6886202 2 1
-8.3349047 -2.1726358 -1.7226944 1 2
-70.899986 -22.232319 0 58 20
-87.231476 -18.239517 -1.0374999 30 18
-10.612674 -3.3278475 -1.7303562 0 3
-13.600147 -3.5451117 -1.7889682 2 4
-78.956276 -20.581306 -0.47422892 30 19
-15.387917 -4.8252344 -1.7371143 3 5
-19.339857 -4.0438347 -1.8443823 2 6
-89.545288 -18.723318 1.0650195 53 22
-24.211607 -7.5921049 -1.7743256 4 8
-21.727283 -5.663589 -1.8329791 3 7
-101.12109 -26.358948 1.8240558 44 23
-22.637354 -8.333416 -1.5459818 6 9
-31.332172 -6.5513473 -1.8641698 7 10
-74.765633 -23.444481 4.5632162 62 27
-32.536888 -10.202687 -1.5883864 7 12
-33.091312 -8.6258183 -1.7921927 8 11
-33.005451 -12.150191 -1.4328964 11 13
-43.530209 -15.835107 -0.8085351 16 17
-37.032349 -9.5014114 -1.1126547 8 15
-5.7626486 -1.7827371 -1.6886202 2 1
-8.3507853 -2.1425657 -1.7242634 1 2
-70.954262 -21.950462 0 58 20
-87.269531 -17.898008 -1.0371274 30 18
-10.595167 -3.2777286 -1.7254369 0 3
-13.617503 -3.4938507 -1.7894734 2 4
-79.003723 -20.270031 -0.47404295 30 19
-15.455722 -4.7813935 -1.7426834 3 5
-19.32793 -3.9639432 -1.8417798 2 6
-71.18338 -22.021343 1.7338485 34 24
-24.2787 -7.5108767 -1.7771159 4 8
-21.810656 -5.5959725 -1.8381863 3 7
-51.687042 -18.802341 1.6006776 21 25
-97.196564 -24.937778 1.7515236 44 23
-22.699192 -8.257349 -1.5480283 6 9
-31.552681 -6.4711037 -1.8757974 7 10
-74.832214 -23.150148 4.5618205 62 27
-102.46156 -26.28862 4.3095989 45 26
-32.701786 -10.116649 -1.5945286 7 12
-33.522717 -8.6009426 -1.8137552 8 11
-33.096928 -12.039763 -1.4348503 11 13
-51.312057 -10.523532 -1.8291525 28 14
-35.891582 -11.103447 -0.87422884 7 16
-43.587273 -15.700974 -0.80867469 16 17
-38.197678 -9.6725893 -1.1467489 9 15
-5.7645373 -1.7634957 -1.6875418 2 1
-8.3574762 -2.116318 -1.7242634 1 2
-70.980812 -21.714554 0 58 20
-48.553715 -9.7989616 -0.57665277 11 18
-10.575176 -3.2351735 -1.7205176 0 3
-13.616874 -3.4481266 -1.7879581 2 4
-52.948551 -19.073086 0.32709453 27 21
-79.156204 -20.044292 -0.47457767 30 19
-15.474472 -4.733973 -1.7431117 3 5
-19.344193 -3.9039857 -1.8421516 2 6
-71.171921 -21.773018 1.7318944 34 24
-24.309811 -7.436893 -1.777674 4 8
-21.882236 -5.5411191 -1.8427427 3 7
-52.972176 -19.081596 1.6386117 23 25
-89.586296 -22.685448 1.613091 35 23
-22.770094 -8.2022257 -1.5510983 6 9
-31.181431 -6.2929406 -1.8525419 6 10
-74.889305 -22.910246 4.5608902 62 27
-97.317093 -24.643076 4.0899425 45 26
-32.863323 -10.053596 -1.6008569 7 12
-33.975525 -8.6034365 -1.8367828 8 11
-33.536934 -12.080648 -1.4522731 11 13
-51.540798 -10.401806 -1.8361324 28 14
-35.933941 -10.992965 -0.87441492 7 16
-43.611671 -15.538001 -0.8081162 16 17
-39.379498 -9.8257179 -1.181192 10 15
-5.7706571 -1.7433642 -1.6875418 2 1
-8.3571997 -2.0852344 -1.7226944 1 2
-71.025536 -21.457413 0 57 20
-48.54446 -9.6208744 -0.57614052 11 18
-10.590187 -3.1993847 -1.7211324 0 3
-13.613426 -3.3967345 -1.7859379 2 4
-54.33358 -19.358013 0.33523121 28 21
-79.970825 -19.953806 -0.47904122 30 19
-15.506129 -4.6845322 -1.7448254 3 5
-19.32254 -3.8294737 -1.8388056 2 6
-77.988663 -23.561031 1.8957598 30 24
-24.362356 -7.3600736 -1.7796272 4 8
-21.943995 -5.4753237 -1.8463228 3 7
-54.255005 -19.330017 1.6761966 26 25
-89.323456 -22.287413 1.6069478 35 23
-22.866268 -8.1468124 -1.5557033 6 9
-74.880898 -22.62215 4.5555415 62 27
-97.693344 -24.375813 4.1021543 45 26
-33.012959 -9.9734926 -1.6064405 7 12
-34.427803 -8.5902033 -1.8596014 8 11
-35.947002 -12.807227 -1.5546926 13 13
-51.847359 -10.275465 -1.8457646 29 14
-43.429569 -15.285453 -0.80364841 15 17
-40.597393 -9.9641695 -1.2165662 11 15
-5.7699261 -1.7189941 -1.6853852 2 1
-8.3727636 -2.0550001 -1.7242634 1 2
-71.103569 -21.183393 0 57 20
-48.545708 -9.4275446 -0.57572144 11 18
-10.575879 -3.1507986 -1.7168281 1 3
-13.641783 -3.3482211 -1.7879581 2 4
-55.626202 -19.578175 0.34274021 29 21
-80.085701 -19.656128 -0.47927368 30 19
-15.558305 -4.6351781 -1.7486808 3 5
-19.368382 -3.7613268 -1.8417798 2 6
-78.082382 -23.262545 1.8958529 30 24
-24.382792 -7.2641964 -1.7790692 4 8
-22.022932 -5.4052792 -1.8512046 3 7
-54.400482 -19.14677 1.6784074 26 25
-88.441231 -21.706898 1.5895652 36 23
-22.965158 -8.0828075 -1.5603083 6 9
-31.618715 -6.1403341 -1.8757974 7 10
-74.909805 -22.31736 4.552053 62 27
-89.6157 -21.995159 3.7593992 35 26
-33.127602 -9.8694773 -1.610163 7 12
-34.863983 -8.5569706 -1.8813732 9 11
-32.998768 -11.614232 -1.4252434 11 13
-52.106194 -10.118988 -1.8535821 29 14
-35.956066 -10.712143 -0.8730191 21 16
-33.008595 -11.488354 -0.61006629 9 17
-5.7795868 -1.6999297 -1.6864636 2 1
-8.3798857 -2.0257607 -1.7242634 1 2
-75.060577 -22.077307 0 61 20
-48.57439 -9.2572803 -0.57567489 11 18
-10.58302 -3.112747 -1.7162132 1 3
-13.641816 -3.2977841 -1.7864429 2 4
-33.013065 -11.48991 0.20316127 9 21
-80.60482 -19.485479 -0.4819704 30 19
-15.620175 -4.5943074 -1.7538215 3 5
-19.357918 -3.6892211 -1.8395492 2 6
-73.827965 -21.714762 1.7907035 32 24
-24.419481 -7.1824169 -1.7799062 4 8
-22.11142 -5.345233 -1.8570629 3 7
-88.333755 -21.353878 1.5862842 36 23
-23.027164 -8.0144033 -1.5626107 13 9
-31.639956 -6.0299249 -1.8757974 7 10
-75.113663 -22.09292 4.5597272 62 27
-88.627495 -21.424887 3.7147839 36 26
-33.227013 -9.7729445 -1.6133271 8 12
-35.246964 -8.5206308 -1.9004234 9 11
-33.001358 -11.485835 -1.4236151 11 13
-52.239365 -9.9557486 -1.857072 29 14
-35.997078 -10.587695 -0.8731122 14 16
-33.036964 -11.381991 -0.6099267 9 17
-5.7775011 -1.6796132 -1.6843069 2 1
-8.3938389 -2.0012434 -1.7258322 1 2
-76.462395 -22.228857 0 63 20
-48.630756 -9.109787 -0.57600087 11 18
-10.588952 -3.0783801 -1.7155983 1 3
-13.644388 -3.2530696 -1.7854327 2 4
-84.116852 -20.054981 -0.50259107 30 19
-15.634532 -4.5452118 -1.7538215 3 5
-19.326353 -3.620321 -1.8354596 2 6
-77.92392 -22.653746 1.8883157 30 24
-24.453424 -7.1090064 -1.7807434 4 8
-22.190151 -5.290534 -1.8622701 3 7
-33.084717 -11.398443 1.0184015 5 25
-88.322594 -21.057707 1.584888 36 23
-23.112614 -7.9628248 -1.5667039 6 9
-31.599874 -5.919466 -1.8723092 7 10
-78.081573 -22.699579 4.7355399 62 27
-88.581619 -21.119463 3.710062 36 26
-33.345798 -9.6941643 -1.617608 8 12
-35.510586 -8.4663668 -1.9131935 9 11
-36.687519 -12.639691 -1.5809082 14 13
-36.049362 -10.480134 -0.87357748 14 16
-43.815617 -14.916055 -0.80790681 16 17
-5.7836189 -1.6584263 -1.6843069 2 1
-8.4011183 -1.9704648 -1.7258322 2 2
-78.12751 -22.402706 0 62 20
-48.699226 -8.9379835 -0.57641989 11 18
-10.63056 -3.0482645 -1.7205176 0 3
-13.648497 -3.2012265 -1.7844226 2 4
-89.933823 -21.093792 -0.53688139 30 19
-15.696962 -4.5010324 -1.7589622 3 5
-19.335575 -3.5487435 -1.8350879 2 6
-24.533016 -7.0347304 -1.7846496 4 8
-22.213276 -5.2100778 -1.8625956 3 7
-88.138313 -20.672659 1.5802107 36 23
-23.311693 -7.9359488 -1.5782163 6 9
-31.778463 -5.8324418 -1.8816115 7 10
-78.145065 -22.407742 4.7343774 62 27
-88.724594 -20.810169 3.7128301 36 26
-33.411835 -9.5806913 -1.619097 8 12
-35.444153 -8.3133526 -1.9079598 9 11
-36.782784 -12.521882 -1.5830249 14 13
-36.068317 -10.342425 -0.8731122 7 16
-43.883789 -14.777055 -0.80825591 16 17
-5.7890863 -1.6392376 -1.6843069 2 1
-8.4037838 -1.9417115 -1.7250478 1 2
-52.018787 -14.729639 0 28 20
-48.83881 -8.7962904 -0.57772368 11 18
-10.610186 -3.00438 -1.7155983 0 3
-13.659037 -3.1559484 -1.7844226 2 4
-73.88031 -17.070196 -0.44070584 28 19
-15.73476 -4.4554543 -1.7615323 3 5
-19.327637 -3.4810739 -1.8332289 2 6
-78.222542 -22.149494 1.8917587 60 24
-75.728302 -13.639319 0.8958047 58 22
-24.590761 -6.9631195 -1.7871609 4 8
-22.277042 -5.1471562 -1.8665011 3 7
-59.422966 -20.009586 1.8247911 30 25
-41.141674 -9.505868 0.73705006 7 23
-23.587563 -7.9426761 -1.5951011 13 9
-31.758327 -5.7199483 -1.8792858 7 10
-81.327255 -23.028625 4.9225149 59 27
-88.656807 -20.484337 3.7071309 36 26
-33.520313 -9.4916115 -1.6228195 8 12
-35.374229 -8.1732883 -1.9027263 9 11
-36.8241 -12.399836 -1.5830249 14 13
-40.800678 -13.580498 -0.75059313 14 17
-5.7947726 -1.6190213 -1.6843069 2 1
-8.4143353 -1.9132365 -1.7258322 1 2
-78.239655 -21.859646 0 62 20
-10.624414 -2.9683914 -1.7162132 0 3
-13.639014 -3.1012146 -1.780382 2 4
-61.17894 -20.363398 0.37475222 30 21
-73.869247 -16.796255 -0.44028738 28 19
-15.788519 -4.4112082 -1.7658163 3 5
-19.323982 -3.410821 -1.8317418 2 6
-78.260857 -21.865568 1.8908281 30 24
-75.625786 -13.348492 0.89403522 58 22
-24.65719 -6.8890567 -1.7902302 4 8
-22.392061 -5.0914664 -1.8746376 3 7
-61.078209 -20.32987 1.8734304 30 25
-41.026409 -9.3285112 0.73439729 7 23
-23.921934 -7.9624114 -1.6158235 7 9
-31.817427 -5.6160035 -1.8816115 7 10
-84.522354 -23.61499 5.1108856 56 27
-88.899254 -20.213753 3.7142954 36 26
-33.737957 -9.4261627 -1.6317534 8 12
-35.597298 -8.0940495 -1.9131935 9 11
-36.935425 -12.293949 -1.5859559 14 13
-40.841682 -13.44387 -0.75052327 14 17
-5.8038225 -1.6008201 -1.6853852 2 1
-8.4282894 -1.8870368 -1.7274013 1 2
-78.311714 -21.600067 0 62 20
-10.645629 -2.9362953 -1.718058 0 3
-13.664713 -3.0594366 -1.7824024 2 4
-61.284119 -20.172913 0.37498471 30 21
-40.754318 -9.1246157 -0.2427288 8 19
-15.826063 -4.3651714 -1.7683866 3 5
-19.307716 -3.3419666 -1.8291394 2 6
-78.298233 -21.59635 1.8899906 30 24
-24.745289 -6.8252873 -1.7949735 4 8
-22.459396 -5.0285068 -1.8788686 3 7
-61.221237 -20.152214 1.8757577 30 25
-40.803436 -9.1356125 0.72985965 7 23
-24.289455 -7.9953675 -1.6388481 7 9
-31.875221 -5.517272 -1.8839371 7 10
-84.577095 -23.328197 5.1094899 56 27
-89.145195 -19.959005 3.7217855 36 26
-33.772881 -9.3152924 -1.6319396 8 12
-35.62394 -7.9759588 -1.9131935 9 11
-73.972458 -16.561932 6.1882572 59 28
-37.124039 -12.220132 -1.5923061 14 13
-41.027611 -13.338593 -0.75303644 14 17
-40.76701 -8.970665 -1.2148207 10 15
-5.802218 -1.5775146 -1.6832286 2 1
-8.4351492 -1.8561306 -1.7274013 1 2
-78.371071 -21.307631 0 62 20
-10.68302 -2.9045136 -1.7223623 0 3
-13.660333 -3.0059173 -1.780382 2 4
-70.966415 -23.072077 0.43370825 30 21
-40.779675 -8.9734516 -0.24268228 8 19
-15.884172 -4.3186097 -1.7730989 3 5
-19.347322 -3.2758267 -1.8317418 2 6
-78.326706 -21.295568 1.8887808 30 24
-85.718102 -14.513515 1.0121224 57 22
-24.812498 -6.7460551 -1.7980429 4 8
-22.508825 -4.9530029 -1.8814721 3 7
-64.435478 -20.948786 1.9718728 30 25
-40.805405 -8.9791126 0.72930115 7 23
-24.671648 -8.0210638 -1.6626403 7 9
-31.883419 -5.3983984 -1.8832394 7 10
-89.506607 -19.695675 3.733835 36 26
-33.880058 -9.2113552 -1.635476 8 12
-35.847992 -7.8882489 -1.9236605 9 11
-74.005402 -16.284679 6.1859784 59 28
-37.278809 -12.119811 -1.5970283 14 13
-54.009899 -9.144783 -1.9129113 33 14
-56.493397 -15.3595 -1.3622895 27 16
-41.783623 -13.431351 -0.76609087 14 17
-5.8074169 -1.5582663 -1.6832286 2 1
-8.4412575 -1.8281502 -1.7274013 1 2
-78.348572 -21.02276 0 62 20
-10.669686 -2.8629274 -1.7186729 0 3
-13.670226 -2.9606044 -1.780382 2 4
-43.895115 -14.110091 0.26797575 19 21
-15.890721 -4.2638535 -1.7722421 3 5
-19.334507 -3.2077436 -1.829511 2 6
-78.36985 -21.028471 1.8881295 30 24
-24.865562 -6.6720142 -1.8002751 4 8
-22.532921 -4.8800263 -1.8821232 3 7
-40.80759 -8.8378305 0.72881252 7 23
-25.08194 -8.0625925 -1.6884792 7 9
-31.853872 -5.2848029 -1.8804487 7 10
-89.653458 -19.416534 3.7372544 36 26
-34.030048 -9.1310616 -1.6412458 8 12
-36.069153 -7.8116121 -1.9341278 9 11
-37.318794 -11.996131 -1.5970283 14 13
-54.114857 -8.9780722 -1.9155637 33 14
-56.520847 -15.165871 -1.3617312 27 16
-42.546867 -13.513002 -0.77921504 15 17
-48.319927 -10.288341 -1.4377706 16 15
-5.8128209 -1.5379835 -1.6832286 2 1
-8.4437523 -1.7978544 -1.7266169 1 2
-95.919365 -25.378798 0 44 20
-10.671974 -2.8236413 -1.7174431 1 3
-13.68824 -2.9145176 -1.7813922 2 4
-67.641212 -21.483036 0.41248316 30 21
-15.890131 -4.2042856 -1.7705287 3 5
-19.306274 -3.1338477 -1.8257934 2 6
-24.904133 -6.5892529 -1.8013912 4 8
-22.522524 -4.7955246 -1.879845 3 7
-74.831245 -23.766611 2.2850034 30 25
-89.398094 -19.034756 1.5954293 36 23
-25.520821 -8.1054831 -1.7161088 8 9
-31.868183 -5.1729312 -1.880216 7 10
-34.212364 -9.0520687 -1.6485046 8 12
-36.170437 -7.7014556 -1.9381053 9 11
-37.360443 -11.865781 -1.5970283 14 13
-35.829071 -9.479825 -0.86241114 7 16
-43.321171 -13.58434 -0.79247886 15 17
-5.8184185 -1.5166694 -1.6832286 2 1
-8.4541235 -1.767699 -1.7274013 2 2
-79.642715 -20.760221 0 61 20
-10.670777 -2.7815187 -1.7155983 1 3
-13.67941 -2.8602703 -1.7788668 2 4
-71.05146 -22.279804 0.43277839 30 21
-91.386108 -19.108206 -0.54262358 7 19
-15.905433 -4.1460204 -1.7705287 3 5
-19.321562 -3.0636933 -1.8261652 2 6
-24.974449 -6.5100131 -1.8047395 4 8
-22.532143 -4.7113156 -1.879194 3 7
-75.203987 -23.581921 2.2937305 30 25
-89.77652 -18.77165 1.6009442 35 23
-25.927441 -8.1301394 -1.741436 8 9
-31.882986 -5.0554757 -1.8799835 7 10
-34.361305 -8.9568558 -1.6540884 8 12
-36.31963 -7.5941839 -1.944595 9 11
-37.785042 -11.84836 -1.6133112 14 13
-35.840359 -9.3423958 -0.86185282 7 16
-36.006561 -11.152791 -0.65795571 11 17
-48.110317 -9.8843946 -1.4293925 12 15
-5.8236775 -1.4963514 -1.6832286 2 1
-8.4525576 -1.7366009 -1.7258322 1 2
-79.679832 -20.47315 0 61 20
-10.680421 -2.7442563 -1.7155983 1 3
-13.716518 -2.8180957 -1.7824024 2 4
-71.105873 -22.024567 0.43263888 30 21
-15.939067 -4.095427 -1.7726704 3 5
-19.316399 -2.9937947 -1.8246782 2 6
-25.024075 -6.4297533 -1.8066927 4 8
-22.607029 -4.6446753 -1.884076 3 7
-71.08844 -22.019167 2.1658485 30 25
-26.256895 -8.1328974 -1.7616466 8 9
-32.062229 -4.9692349 -1.8895183 7 10
-34.523937 -8.8706741 -1.6604166 8 12
-36.63937 -7.527658 -1.9602958 9 11
-37.826168 -11.716402 -1.6133112 14 13
-54.527351 -8.4510422 -1.9268711 34 14
-37.034683 -9.5157919 -0.8897686 7 16
-5.8248739 -1.4760833 -1.6821502 2 1
-8.4505816 -1.7070062 -1.7242634 1 2
-79.948914 -20.259882 0 61 20
-10.685632 -2.7078495 -1.7149833 1 3
-13.690784 -2.7655199 -1.7778567 2 4
-71.11351 -21.768728 0.43224367 30 21
-15.925574 -4.0357051 -1.7696717 3 5
-19.290779 -2.9243441 -1.8213321 2 6
-96.847717 -24.542213 2.3248253 30 24
-25.087809 -6.3575101 -1.809762 4 8
-22.544149 -4.5538883 -1.8775667 3 7
-71.168724 -21.785631 2.1660812 30 25
-26.382963 -8.0761528 -1.7682981 8 9
-32.003513 -4.8515038 -1.8850996 7 10
-34.692604 -8.7914648 -1.6671172 8 12
-36.468361 -7.3665605 -1.9498285 9 11
-38.097935 -11.662251 -1.6232437 14 13
-38.213451 -9.6836843 -0.9173122 8 16
-35.985935 -10.878511 -0.65621048 33 17
-48.188248 -9.5590229 -1.4297416 33 15
-5.8337278 -1.4566761 -1.6832286 2 1
-8.4487925 -1.6759729 -1.7226944 1 2
-84.028053 -20.981722 0 57 20
-10.702688 -2.6724508 -1.7162132 1 3
-13.723705 -2.7223489 -1.7808871 2 4
-71.204369 -21.525007 0.43233666 30 21
-15.966574 -3.9868379 -1.7726704 3 5
-19.296932 -2.8564103 -1.8209603 2 6
-96.463341 -24.086802 2.3135657 30 24
-25.179529 -6.2873039 -1.8147844 4 8
-22.469965 -4.4573298 -1.8700812 3 7
-72.400162 -21.886494 2.2012227 30 25
-26.487415 -8.0071182 -1.7734147 8 9
-31.862247 -4.7163792 -1.8757974 7 10
-34.874268 -8.7080698 -1.674376 8 12
-36.591808 -7.2586565 -1.9550623 9 11
-85.269325 -16.914736 7.0966096 56 28
-35.655529 -10.77863 -1.5175676 12 13
-39.403194 -9.8389387 -0.94504178 8 16
-35.933678 -10.732791 -0.65460491 33 17
-48.219685 -9.3991699 -1.4297416 49 15
-5.8385258 -1.4373226 -1.6832286 2 1
-8.4543037 -1.6479461 -1.7226944 1 2
-106.19733 -26.143557 0 63 20
-10.707653 -2.6359994 -1.7155983 1 3
-13.740447 -2.6783416 -1.7818972 2 4
-15.941092 -3.9243622 -1.7683866 3 5
-19.302357 -2.7918324 -1.8205886 2 6
-88.547615 -21.798565 2.1219707 30 24
-25.219614 -6.20854 -1.8161795 4 8
-22.492451 -4.3843164 -1.8707321 3 7
-72.552795 -21.670313 2.2036662 30 25
-26.578846 -7.9386587 -1.777764 8 9
-31.778912 -4.5964026 -1.8699836 7 10
-35.209457 -8.6678295 -1.6890799 8 12
-36.615681 -7.1372719 -1.9550623 9 11
-36.276993 -10.835334 -1.5424805 13 13
-40.604385 -9.9959478 -0.97305065 8 16
-36.011131 -10.61231 -0.65530294 33 17
-48.249882 -9.2216101 -1.4296252 33 15
-5.8474984 -1.4168193 -1.6843069 2 1
-8.4679937 -1.6184192 -1.7242634 2 2
-84.308548 -20.427534 0 57 20
-10.713401 -2.5958028 -1.7149833 1 3
-13.722889 -2.6227448 -1.7783617 2 4
-76.371437 -22.506302 0.46274459 30 21
-15.893524 -3.8509204 -1.7615323 3 5
-19.288795 -2.7177286 -1.8183579 2 6
-88.385948 -21.415468 2.1162014 30 24
-25.292614 -6.1282725 -1.8198069 4 8
-22.465294 -4.2936101 -1.8671521 3 7
-26.649883 -7.8535943 -1.7805781 8 9
-31.795546 -4.4798889 -1.8699836 7 10
-35.481754 -8.5970497 -1.7006195 9 12
-36.837769 -7.0405049 -1.9655294 10 11
-36.385468 -10.722625 -1.5454113 13 13
-36.078678 -10.495489 -0.65586144 33 17
-48.297497 -9.0560884 -1.4300907 33 15
-5.8449149 -1.3946122 -1.6821502 2 1
-8.4658794 -1.5874064 -1.7226944 1 2
-84.324867 -20.120136 0 57 20
-10.722397 -2.5583923 -1.7149833 1 3
-13.75926 -2.5799489 -1.7818972 2 4
-78.054955 -22.706621 0.47246215 30 21
-101.89449 -19.105867 -0.60253274 60 19
-15.852711 -3.7824988 -1.7555349 3 5
-19.270546 -2.6465926 -1.8157555 2 6
-88.226784 -21.051146 2.1106184 30 24
-25.356546 -6.0501394 -1.8228762 4 8
-22.444878 -4.2085576 -1.8642229 3 7
-78.06163 -22.708563 2.3659914 30 25
-26.74229 -7.7794814 -1.7849271 8 9
-31.751644 -4.3607311 -1.8664951 7 10
-85.132507 -15.962887 3.5288332 40 26
-35.919636 -8.5705204 -1.7201626 9 12
-38.790474 -11.284366 -1.645877 15 13
-36.103561 -10.366174 -0.65565199 22 17
-48.352409 -8.8917809 -1.4307889 33 15
-5.8497477 -1.3742011 -1.6821502 2 1
-8.4675131 -1.5571358 -1.72191 1 2
-106.3139 -24.974867 0 63 20
-10.723568 -2.5191407 -1.7137536 1 3
-13.768183 -2.531904 -1.7818972 2 4
-78.179878 -22.447264 0.4727411 30 21
-101.9763 -18.752964 -0.60262573 90 19
-15.850334 -3.7235017 -1.7538215 3 5
-19.30335 -2.5824773 -1.8179861 2 6
-88.101189 -20.696404 2.1058724 30 24
-25.451319 -5.978929 -1.8281777 4 8
-22.471195 -4.1323476 -1.8651993 3 7
-26.826838 -7.7026095 -1.7887646 8 9
-31.727097 -4.2445745 -1.8641698 7 10
-36.295525 -8.5264101 -1.7367277 9 12
-39.213776 -11.259188 -1.6621598 15 13
-52.000595 -14.734297 -0.9434073 28 17
-48.387089 -8.7236528 -1.4309052 33 15
-5.8545089 -1.3537731 -1.6821502 2 1
-8.4651766 -1.5261769 -1.720341 2 2
-106.40044 -24.603607 0 63 20
-10.75155 -2.486145 -1.7168281 1 3
-13.784748 -2.4852364 -1.7829074 2 4
-15.820611 -3.6582944 -1.7491091 3 5
-19.308298 -2.5145652 -1.8176144 2 6
-88.180695 -20.390549 2.1060586 30 24
-25.507023 -5.8981409 -1.830689 4 8
-22.461945 -4.0496383 -1.8632466 3 7
-78.187485 -22.154316 2.3650603 60 25
-103.2947 -18.622883 1.8320838 44 23
-26.857403 -7.6100082 -1.7890205 8 9
-31.642721 -4.1209064 -1.8583558 7 10
-89.623268 -20.724123 5.3571625 52 27
-36.764973 -8.5013838 -1.7577597 9 12
-39.637371 -11.231194 -1.6784427 15 13
-55.306385 -15.462636 -1.0023963 37 17
-48.452679 -8.560957 -1.4319525 33 15
-5.859199 -1.3333286 -1.6821502 2 1
-8.4665899 -1.495936 -1.7195566 1 2
-73.855858 -16.806755 0 59 20
-10.752455 -2.4468458 -1.7155983 1 3
-13.801153 -2.438484 -1.7839174 2 4
-15.864308 -3.6101072 -1.7525362 3 5
-19.309055 -2.4461498 -1.8168707 2 6
-73.898254 -16.816404 1.7635323 33 24
-25.574146 -5.8196931 -1.8340373 4 8
-22.46809 -3.9698186 -1.8625956 3 7
-78.21814 -21.868336 2.3636642 60 25
-26.879957 -7.5151358 -1.7887646 8 9
-31.557878 -3.9978807 -1.8525419 6 10
-84.901436 -15.000977 3.5125501 40 26
-37.156757 -8.455451 -1.7750694 10 12
-39.757164 -11.115363 -1.6818621 15 13
-56.706688 -15.651589 -1.0268298 41 17
-48.587166 -8.4186745 -1.4350942 16 15
-5.8598285 -1.3130504 -1.681072 2 1
-8.4715033 -1.4678532 -1.7195566 1 2
-102.66612 -23.005074 0 63 20
-10.752795 -2.4094496 -1.7143685 1 3
-13.801344 -2.3913522 -1.7829074 2 4
-78.322044 -21.617636 0.47222966 30 21
-85.429626 -14.802349 -0.5039162 30 19
-15.81022 -3.5426998 -1.7452537 3 5
-19.34473 -2.3855214 -1.8194731 2 6
-89.109573 -19.967367 2.1249483 30 24
-25.61277 -5.739222 -1.8354324 4 8
-22.445774 -3.8891685 -1.8596665 3 7
-78.251678 -21.598213 2.3625004 30 25
-85.646622 -14.839948 1.5172424 39 23
-26.923969 -7.4312735 -1.7900437 8 9
-31.642298 -3.9020123 -1.8567278 7 10
-86.32901 -14.958185 3.5695403 39 26
-37.558891 -8.4160681 -1.7929373 10 12
-37.741089 -6.5393801 -2.0073981 10 11
-86.047371 -14.909386 7.1291556 56 28
-39.905529 -11.014309 -1.6865842 16 13
-56.432972 -15.364233 -1.020896 40 17
-73.903976 -12.539726 -2.1815574 32 15
-5.8831859 -1.2967318 -1.6864636 2 1
-8.480443 -1.4389272 -1.720341 1 2
-40.796761 -8.9921446 0 13 20
-10.768861 -2.3735991 -1.7155983 1 3
-13.793961 -2.3405032 -1.7808871 2 4
-78.343002 -21.329376 0.47190419 30 21
-85.579369 -14.520761 -0.50449735 30 19
-15.810839 -3.4849174 -1.7439685 3 5
-19.35294 -2.3179762 -1.8194731 2 6
-40.824776 -8.9983196 0.97277147 10 24
-25.694998 -5.663517 -1.8398968 4 8
-22.482798 -3.81479 -1.8616192 3 7
-78.372894 -21.337517 2.3638968 30 25
-96.008934 -16.290407 1.6997945 31 23
-26.984413 -7.3466768 -1.7923462 8 9
-31.544708 -3.7782311 -1.8502163 6 10
-85.888161 -14.573154 3.5491867 39 26
-37.978249 -8.3709068 -1.8115498 10 12
-85.902374 -14.575566 7.1128831 56 28
-40.240673 -10.955777 -1.6991221 16 13
-40.805248 -8.9940157 -0.97230619 8 16
-56.481178 -15.155232 -1.0207564 40 17
-74.343872 -12.334229 -2.1931937 32 15
-5.8728395 -1.2719002 -1.6821502 2 1
-8.4817896 -1.4071952 -1.7195566 1 2
-40.782528 -8.832407 0 13 20
-10.777487 -2.334116 -1.7155983 1 3
-13.790701 -2.2879851 -1.779372 2 4
-78.37043 -21.028635 0.47160196 30 21
-109.2843 -18.131119 -0.64384383 30 19
-15.870146 -3.4370499 -1.7491091 3 5
-19.325701 -2.2429008 -1.8161272 2 6
-40.841846 -8.845253 0.97239929 10 24
-25.754576 -5.5777535 -1.842687 4 8
-22.484829 -3.7304089 -1.860643 3 7
-109.30106 -18.1339 1.933936 44 23
-27.057419 -7.2601438 -1.7954161 8 9
-31.463142 -3.6515472 -1.8446349 6 10
-96.152809 -15.952502 3.9709141 31 26
-38.008671 -8.2316628 -1.8115498 10 12
-37.786915 -6.2691445 -2.0073981 10 11
-35.810513 -9.6088057 -1.5105659 12 13
-56.515659 -14.963755 -1.0204772 40 17
-5.8807926 -1.2532208 -1.6832286 2 1
-8.4786663 -1.377802 -1.7179875 1 2
-89.61573 -19.097475 0 52 20
-10.777437 -2.2967155 -1.7143685 1 3
-13.778629 -2.2390578 -1.7768465 2 4
-95.98291 -25.41357 0.57707661 30 21
-15.838671 -3.3752849 -1.7443968 3 5
-19.297413 -2.174787 -1.8127813 2 6
-25.819765 -5.5022964 -1.8460352 4 8
-22.508881 -3.657743 -1.8616192 3 7
-27.108358 -7.1775293 -1.797207 8 9
-31.681423 -3.5704446 -1.8567278 7 10
-38.152996 -8.130558 -1.8171334 10 12
-37.413219 -6.079731 -1.9864637 10 11
-35.822861 -9.4848843 -1.5097518 12 13
-48.368523 -10.307528 -1.150781 11 16
-79.511108 -20.755568 -1.4343784 43 17
-5.8889017 -1.2334749 -1.6843069 2 1
-8.4834251 -1.3481973 -1.7179875 1 2
-10.773784 -2.2566502 -1.7125237 1 3
-13.766768 -2.1878335 -1.7743212 2 4
-15.854251 -3.3207922 -1.7448254 3 5
-19.332603 -2.1104379 -1.8153837 2 6
-25.913019 -5.4276772 -1.8513368 5 8
-22.474266 -3.571641 -1.8577137 3 7
-99.23526 -25.904356 2.9848051 30 25
-27.171871 -7.0929413 -1.7997653 8 9
-31.721481 -3.4628663 -1.8583558 7 10
-38.255451 -8.0128927 -1.8206699 10 12
-37.000416 -9.6585827 -1.5579493 13 13
-48.196766 -10.095176 -1.1458492 22 16
-79.64505 -20.493839 -1.4354954 43 17
-5.8931713 -1.2129109 -1.6843069 2 1
-8.4997063 -1.3203825 -1.720341 1 2
-117.41493 -24.165911 0 63 20
-10.789338 -2.2206221 -1.7137536 1 3
-13.758636 -2.1373281 -1.7723008 2 4
-102.34824 -26.335703 0.61422634 30 21
-15.861849 -3.2646277 -1.7443968 3 5
-19.27648 -2.036247 -1.8094352 2 6
-25.990433 -5.3492556 -1.8555222 5 8
-22.470839 -3.4907207 -1.8564121 3 7
-96.649406 -24.86931 2.9043989 30 25
-27.177137 -6.9930758 -1.7984861 8 9
-31.534817 -3.3311412 -1.846728 6 10
-37.1926 -9.5702009 -1.5646251 13 13
-80.258835 -20.353333 -1.4452688 42 17
-5.901145 -1.1930958 -1.6853852 2 1
-8.5003853 -1.2901161 -1.7195566 1 2
-121.9799 -24.661943 0 63 20
-10.793149 -2.182163 -1.7131386 1 3
-13.726783 -2.0833342 -1.7672501 2 4
-15.822473 -3.1989937 -1.7388277 3 5
-19.29932 -1.9705648 -1.8109224 2 6
-26.059792 -5.2687788 -1.8591495 5 8
-22.431644 -3.404484 -1.8521811 3 7
-96.820892 -24.553408 2.9069588 30 25
-27.263292 -6.9138665 -1.8025795 8 9
-31.546255 -3.2210429 -1.846728 6 10
-38.506279 -7.7852144 -1.8299761 10 12
-39.387505 -9.9885197 -1.6554838 15 13
-48.195518 -9.7441883 -1.1441743 33 16
-5.9014955 -1.1717395 -1.6843069 2 1
-8.504838 -1.2604362 -1.7195566 1 2
-10.812331 -2.1467836 -1.7149833 1 3
-13.765373 -2.0400596 -1.7712908 2 4
-88.885376 -22.211058 0.53248757 30 21
-15.876452 -3.1522629 -1.74354 3 5
-19.317968 -1.9043572 -1.8120376 2 6
-26.148476 -5.1917686 -1.864172 5 8
-22.37635 -3.3162258 -1.8466482 3 7
-88.988907 -22.236931 2.6694639 30 25
-27.368587 -6.8389797 -1.8079519 8 9
-31.501671 -3.1054215 -1.8434722 6 10
-38.807564 -7.705225 -1.8430048 10 12
-85.400047 -12.656481 7.047791 57 28
-40.593121 -10.143583 -1.7046583 16 13
-80.780373 -19.916346 -1.4522496 42 17
-5.9051471 -1.1531947 -1.6843069 2 1
-8.5048742 -1.2331502 -1.7187722 1 2
-10.811263 -2.1112921 -1.7137536 1 3
-13.767787 -1.9962378 -1.7707857 2 4
-88.352753 -21.783312 0.52888423 30 21
-15.858954 -3.0970373 -1.7405413 3 5
-19.284212 -1.83988 -1.8083199 2 6
-26.180321 -5.1126595 -1.8652881 5 8
-22.370874 -3.2436283 -1.8453463 3 7
-27.413191 -6.7587037 -1.8094869 8 9
-31.340338 -2.9901383 -1.8334723 6 10
-41.552219 -10.244672 -1.7435744 17 13
-48.282631 -9.4289389 -1.1447327 25 16
-80.856247 -19.606026 -1.4522496 42 17
-5.9208817 -1.1326833 -1.6875418 1 1
-8.5095463 -1.2004846 -1.7187722 1 2
-10.803762 -2.0667937 -1.7112941 1 3
-13.802855 -1.9472383 -1.7743212 2 4
-88.249153 -21.398657 0.52776831 30 21
-15.866824 -3.0353734 -1.740113 3 5
-19.303032 -1.7669094 -1.8094352 2 6
-26.19976 -5.0120964 -1.8652881 5 8
-22.320004 -3.1487954 -1.840139 3 7
-40.764942 -9.8846836 1.2207551 8 25
-27.590239 -6.6900816 -1.8194643 9 9
-31.379425 -2.8723259 -1.8351002 6 10
-39.37059 -7.5317183 -1.867201 11 12
-41.781578 -10.131198 -1.7515531 17 13
-48.33419 -9.2464828 -1.1451049 58 16
-83.199844 -19.867062 -1.4930882 40 17
-5.9285855 -1.1127192 -1.6886202 1 1
-8.5214558 -1.171842 -1.720341 1 2
-10.799257 -2.0268817 -1.7094493 1 3
-13.78598 -1.8958017 -1.7712908 2 4
-88.253273 -21.073755 0.52734989 30 21
-15.900773 -2.9843707 -1.7426834 3 5
-19.265442 -1.6956769 -1.8053458 2 6
-26.217094 -4.9206114 -1.8652881 5 8
-22.338757 -3.0719507 -1.8407899 3 7
-40.795303 -9.7413979 1.2206389 8 25
-27.594006 -6.5890965 -1.8181851 9 9
-31.389259 -2.762773 -1.8351002 6 10
-39.396641 -7.3942428 -1.867201 11 12
-37.550591 -5.1638312 -1.9864637 10 11
-42.248184 -10.088326 -1.7696272 17 13
-48.338657 -9.0725441 -1.1444535 21 16
-83.526123 -19.65242 -1.4977655 40 17
-5.9284539 -1.0923548 -1.6875418 2 1
-8.5252953 -1.1435769 -1.720341 1 2
-10.805919 -1.9910582 -1.7094493 1 3
-13.823654 -1.8542949 -1.7753313 2 4
-88.455055 -20.812122 0.52814025 30 21
-15.910583 -2.9316244 -1.7426834 3 5
-19.274929 -1.6321162 -1.8057176 2 6
-26.095919 -4.8083363 -1.8555222 5 8
-22.317211 -2.9936144 -1.8381863 3 7
-40.819603 -9.604229 1.2204062 8 25
-27.736164 -6.5258956 -1.8261158 9 9
-31.370396 -2.6563072 -1.8334723 6 10
-39.61742 -7.299758 -1.8765073 11 12
-42.433132 -9.9838676 -1.7759774 17 13
-84.210304 -19.518913 -1.5088652 40 17
-5.9168825 -1.0699474 -1.6832286 2 1
-8.5368195 -1.1163167 -1.72191 1 2
-112.21779 -9.1274137 -1.3107395 30 18
-10.804685 -1.9538065 -1.7082194 1 3
-13.829727 -1.8084435 -1.7753313 2 4
-88.266418 -20.45907 0.5266059 30 21
-15.904565 -2.8760157 -1.7409698 3 5
-19.256414 -1.5662514 -1.8034868 2 6
-26.068533 -4.7139616 -1.852453 5 8
-22.259813 -2.9108031 -1.8326534 3 7
-40.843437 -9.4670067 1.2201734 8 25
-27.718765 -6.4248691 -1.8235575 9 9
-31.406893 -2.5545299 -1.8351002 6 10
-39.763302 -7.1903815 -1.8822771 11 12
-42.466007 -9.8430986 -1.7759774 17 13
-48.429249 -8.7574415 -1.1451979 22 16
-5.9473147 -1.052953 -1.6907767 2 1
-8.5330715 -1.0840294 -1.720341 1 2
-112.22257 -8.7138586 -1.3104136 30 18
-10.792314 -1.9107444 -1.7051449 1 3
-13.840199 -1.7582395 -1.7758365 2 4
-88.344711 -20.136286 0.52662921 30 21
-15.895417 -2.8142326 -1.7388277 3 5
-19.234232 -1.4934998 -1.8008845 2 6
-26.132784 -4.6267257 -1.8558012 5 8
-22.124001 -2.8106022 -1.8206116 3 7
-88.573898 -20.188524 2.6438642 30 25
-27.835535 -6.3445144 -1.8296975 9 9
-31.443913 -2.4415569 -1.8367281 6 10
-39.698895 -7.0285616 -1.8779961 11 12
-37.403641 -4.7517061 -1.9759965 10 11
-42.69664 -9.7317848 -1.7841189 17 13
-48.504337 -8.5875378 -1.1462215 11 16
-88.937538 -19.961388 -1.5910312 36 17
-5.9431839 -1.0319071 -1.6886202 2 1
-8.544405 -1.0566891 -1.72191 1 2
-85.693893 -14.878916 0 56 20
-10.79859 -1.8749448 -1.7051449 1 3
-13.857767 -1.7137944 -1.7773515 2 4
-88.512466 -19.865984 0.5272336 30 21
-15.896825 -2.7601445 -1.7379711 3 5
-19.258938 -1.4311832 -1.8027433 2 6
-120.0927 -8.9244099 1.4019591 63 22
-26.049696 -4.522974 -1.8488256 5 8
-22.240026 -2.7504308 -1.829399 3 7
-40.834412 -9.1649885 1.2179625 8 25
-27.751261 -6.2285695 -1.82279 9 9
-31.248745 -2.3221779 -1.8248677 6 10
-40.281006 -6.993937 -1.9044259 11 12
-37.617409 -4.6521564 -1.9864637 10 11
-40.755444 -9.1472645 -1.7017273 16 13
-48.709846 -8.4574261 -1.1504089 11 16
-6.1082306 -0.73268813 -2.8687329 0 0
-40.863178 -9.014267 -0.73041809 13 17
-5.9431281 -1.0094734 -1.6875418 2 1
-8.5560083 -1.0263014 -1.7234788 1 2
-85.64138 -14.546665 0 57 20
-93.444878 -6.5998659 -1.0905833 30 18
-10.805389 -1.8353558 -1.7051449 1 3
-13.856076 -1.6620497 -1.7763414 2 4
-40.810127 -9.0025635 0.24289152 14 21
-15.922521 -2.7045288 -1.7396847 3 5
-19.232271 -1.3583453 -1.799769 2 6
-85.77195 -14.568845 2.0244515 30 24
-26.105438 -4.434154 -1.8516158 5 8
-22.36079 -2.6821983 -1.8385117 3 7
-40.816967 -9.0040731 1.2164497 8 25
-27.906437 -6.1560569 -1.8314883 9 9
-31.233145 -2.2059484 -1.8234724 6 10
-37.435902 -4.4904723 -1.9759965 10 11
-43.348965 -9.5626221 -1.8085432 18 13
-77.551949 -13.172631 -1.8304371 44 16
-6.2258539 -0.72586244 -2.9228282 0 0
-91.177406 -19.796558 -1.6285887 35 17
-5.954042 -0.99102443 -1.6896983 2 1
-8.5515728 -0.99701428 -1.72191 1 2
-85.535255 -14.236973 0 57 20
