# .PCD v0.7 - Point Cloud Data file format
VERSION 0.7
FIELDS x y z intensity ring
SIZE 4 4 4 4 2
TYPE F F F F U
COUNT 1 1 1 1 1
WIDTH 1333
HEIGHT 1
VIEWPOINT 0 0 0 1 0 0 0
POINTS 1333
DATA ascii
3.5057461 7.9711909 -0.45636958 9 11
1.3408645 3.5040362 0.46066615 2 29
48.122036 96.349403 -3.7609096 63 14
3.1676674 8.2779589 2.3749237 7 31
3.0998766 8.1008034 -0.20183101 17 16
2.2695634 5.8664699 -1.7608664 23 1
3.3739212 7.5957904 -1.6622903 14 2
3.1231756 8.0729246 0 15 20
3.0660863 7.9253578 -1.3220561 16 3
3.509845 7.9017987 -1.1005539 12 4
3.0951684 8.0005302 -0.9240334 14 5
25.234417 50.064213 -5.2334948 16 6
3.1098089 8.0383739 -0.60269594 15 8
3.5231965 7.9318576 -0.70852184 13 7
4.6976523 14.162934 0.4342635 2 25
22.300211 67.232819 -4.5397067 48 9
35.152512 69.741371 -4.5483322 61 10
3.5757916 8.0502663 0.35887539 10 26
3.118351 8.0604544 -0.40258729 16 12
3.5495303 7.9911437 -0.45825368 2 11
1.3236154 3.4213407 0.45042911 2 29
1.5180331 3.4175847 0.30527952 1 28
27.880047 84.055443 -3.6079681 55 13
48.877869 96.972 -3.7921793 63 14
3.1993785 8.2698975 2.3759589 7 31
1.0558957 2.3771634 0.47425127 1 30
3.1266589 8.0819283 -0.2016449 15 16
6.3584127 14.181198 -0.45229962 1 15
2.2788103 5.8298101 -1.7522399 21 1
3.3972075 7.576808 -1.6607213 15 2
3.1542513 8.0694237 0 12 20
7.0515113 13.869281 -0.18113527 1 18
3.079345 7.8777933 -1.315907 16 3
3.5568893 7.9329472 -1.1066148 11 4
3.1158397 7.9711566 -0.92189151 14 5
25.546215 50.245628 -5.2617502 16 6
3.150486 8.0597906 0.20136574 13 24
3.1305881 8.0088863 -0.60130084 14 8
3.5737 7.9704399 -0.71307832 7 7
4.7025461 14.013777 0.43019083 1 25
22.539862 67.169693 -4.54073 48 9
35.424721 69.675186 -4.552053 61 10
3.1256549 7.9962668 0.49999562 5 27
3.615319 8.0632629 0.36001524 9 26
3.1450162 8.0457983 -0.40240118 17 12
1.3210971 3.3797219 0.44555435 2 29
4.9487014 11.037112 0.98743933 1 28
29.682549 88.455193 -3.8012462 51 13
49.002308 96.380295 -3.7757068 63 14
3.2338552 8.2730722 2.3801 6 31
3.151942 8.0635166 -0.20145881 17 16
6.4078712 14.172083 -0.4526487 1 15
2.2985263 5.8262057 -1.7533182 21 1
3.4242244 7.573247 -1.6622903 17 2
3.1869247 8.0780802 0 4 20
7.0950456 13.847061 -0.18113527 1 18
3.0953739 7.8460212 -1.3122175 15 3
3.1350265 7.9465303 -0.92017788 16 5
25.880098 50.508949 -5.2978125 16 6
3.1757894 8.0498543 0.20136574 11 24
3.1557317 7.9990129 -0.60130084 14 8
4.7439775 13.991363 0.42995811 1 25
22.744347 67.079659 -4.5394506 48 9
35.64706 69.570663 -4.5525179 61 10
3.1536901 7.9938383 0.50046074 6 27
3.6587434 8.0919247 0.36180636 7 26
3.1688092 8.0321617 -0.40221503 16 12
1.3462777 3.412487 0.45042911 1 29
30.088612 88.740028 -3.8175292 50 13
49.272022 96.16185 -3.7731941 63 14
3.2683358 8.2844372 2.3863118 2 31
1.0440775 2.3091526 0.46205419 2 30
3.180192 8.0610142 -0.2016449 21 16
51.438801 112.61163 -3.6030371 29 15
2.3051808 5.7779818 -1.741457 20 1
3.4614282 7.5778804 -1.6662126 17 2
1.4866763 3.7263839 0 4 20
3.1254795 7.8340764 -1.3122175 19 3
18.102139 39.629841 -5.5457006 21 4
5.4062281 11.835505 -0.07562463 1 19
3.1640439 7.9307394 -0.9197495 12 5
26.178154 50.610832 -5.3190036 16 6
3.1992681 8.0190296 0.2009005 14 24
7.0691495 13.666951 0.179133 2 22
3.1893814 7.9942479 -0.60185885 10 8
25.611849 56.070362 -5.0322304 43 7
22.993982 66.969177 -4.5379157 48 9
36.003841 69.607063 -4.5639133 62 10
3.1902816 7.9965048 0.50139093 5 27
3.7047343 8.1105347 0.36327183 6 26
3.2040708 8.0310669 -0.40277341 17 12
35.507 77.733177 -4.4787021 58 11
3.229243 8.094162 1.0700129 2 29
30.413568 88.578468 -3.8155751 51 13
49.738255 96.160118 -3.7805927 63 14
3.7081649 9.29459 2.6813655 2 31
3.2126043 8.0524569 -0.20173797 20 16
2.3156922 5.7488689 -1.7349871 23 1
3.4931028 7.5806103 -1.6693505 17 2
3.2356813 8.0328064 0 2 20
3.1499629 7.820004 -1.3116026 16 3
18.256699 39.620052 -5.5527716 21 4
3.1873529 7.9128275 -0.9188928 9 5
26.253759 50.347183 -5.300415 16 6
3.2243466 8.0046673 0.20080742 16 24
7.1588144 13.728553 0.18025054 2 22
3.2233269 8.0021353 -0.60325402 9 8
25.827665 56.050301 -5.0380883 43 7
4.8230004 13.896621 0.42809629 1 25
23.225082 66.918953 -4.5397067 48 9
36.280621 69.575829 -4.5697274 62 10
3.2167802 7.9858823 0.50139093 4 27
3.7366254 8.1090946 0.36376032 6 26
3.2351623 8.031517 -0.40333179 18 12
1.3632454 3.3843524 0.44799173 2 29
6.2400179 13.541869 1.2172127 1 28
31.181498 89.843956 -3.8745196 49 13
50.073479 96.026573 -3.7818491 63 14
4.7090745 11.690608 3.3770709 2 31
3.2333114 8.0269232 -0.20136574 17 16
5.5497899 11.939624 -0.38318053 3 15
2.3608639 5.8053842 -1.7543966 22 1
3.5231838 7.5796542 -1.6717038 14 2
3.2592897 8.0146208 0 7 20
6.3779774 12.132815 -0.15957597 1 18
3.1803467 7.8204994 -1.3134474 14 3
18.391338 39.566479 -5.5537815 21 4
4.8379397 13.791831 0.084946938 1 21
5.4019904 11.621654 -0.074485496 4 19
3.2150755 7.9058976 -0.91932118 9 5
26.337196 50.1012 -5.2836847 16 6
3.2463562 7.9828176 0.20052828 8 24
7.2229156 13.74014 0.18071619 2 22
3.2513504 7.9950981 -0.60353303 13 8
26.031895 56.004108 -5.0416689 43 7
23.543343 67.116547 -4.558382 48 9
36.57991 69.585899 -4.5783319 62 10
3.2492635 7.9899664 0.50232118 2 27
3.7736058 8.1184034 0.36473724 9 26
3.2512436 7.9948359 -0.40202892 16 12
3.2798636 8.0652122 1.0690379 2 29
5.9017501 12.696817 1.1430082 1 28
31.468699 89.709869 -3.8732166 49 13
50.644638 96.341202 -3.8008344 63 14
4.7550964 11.692822 3.3822474 1 31
4.6907992 10.091621 2.0290205 1 30
3.2523823 7.9976354 -0.2009005 17 16
2.3884304 5.8149233 -1.759788 19 1
3.5462878 7.5602093 -1.670135 18 2
3.2735665 7.9698944 0 4 20
6.2910194 11.866644 -0.15636304 1 18
3.2181361 7.8349423 -1.3177518 12 3
18.537756 39.520008 -5.5563073 21 4
4.9061074 13.831406 0.085295655 1 21
3.2517171 7.9166989 -0.92189151 8 5
26.409306 49.81543 -5.263237 16 6
3.2726805 7.9677372 0.20043522 8 24
7.0535107 13.304918 0.17531472 2 22
3.2701406 7.9615536 -0.60185885 13 8
26.269543 56.003136 -5.0498052 42 7
2.8898048 8.1470022 0.25157496 8 25
6.408195 13.661411 0.26339173 1 23
23.810825 67.128006 -4.5647779 49 9
36.863716 69.535408 -4.5834484 62 10
3.2786493 7.9822693 0.5025537 3 27
3.8171952 8.1377478 0.36620274 7 26
3.276093 7.9760456 -0.40165666 16 12
3.3185539 8.079421 1.0724503 2 29
31.792326 89.629623 -3.8745196 49 13
50.911316 96.033157 -3.7956693 63 14
4.7870731 11.654709 3.3760357 1 31
3.278758 7.9825339 -0.20080742 17 16
2.3939559 5.7709708 -1.7490051 23 1
3.5760143 7.5548735 -1.6717038 16 2
3.3044343 7.9658074 0 2 20
6.2400045 11.671774 -0.15408139 2 18
3.2560687 7.849216 -1.3220561 14 3
18.668816 39.440708 -5.554287 21 4
4.916553 13.708773 0.08464472 1 21
3.283905 7.9163194 -0.92317671 10 5
26.936062 50.383236 -5.3331308 16 6
3.3020079 7.9599586 0.20052828 10 24
3.2933271 7.9390321 -0.60102177 10 8
26.551872 56.094864 -5.0664034 42 7
2.9128289 8.12181 0.25110948 4 25
24.129921 67.281204 -4.5808949 49 9
37.083645 69.364037 -4.5806575 62 10
3.3008549 7.9571795 -0.40128443 16 12
6.0173182 12.712499 -0.73709965 5 11
3.3467381 8.0677872 1.0724503 4 29
32.233196 89.875488 -3.8899882 49 13
51.221752 95.809021 -3.7938547 63 14
3.3066044 7.9710393 -0.20080742 16 16
4.6851182 12.914325 -0.23979607 1 17
54.240448 113.5135 -3.6613348 29 15
2.4195573 5.7728162 -1.7522399 18 1
3.6172071 7.5700297 -1.6779797 11 2
1.5616615 3.7259648 0 4 20
3.290925 7.8518105 -1.3245157 14 3
18.8389 39.425728 -5.5618629 21 4
3.3098216 7.8968959 -0.92231989 9 5
27.171579 50.378826 -5.3431692 16 6
3.337342 7.9625564 0.2009005 12 24
5.7909803 10.737057 0.14202122 3 22
3.3224013 7.9269094 -0.60102177 11 8
26.762436 56.007973 -5.06738 42 7
1.3103868 3.6120243 0.11182401 2 25
24.398119 67.252357 -4.5849886 49 9
37.379314 69.304985 -4.5857739 62 10
3.3464909 7.984385 0.50418168 6 27
3.3315401 7.9487143 -0.40147054 15 12
6.0759239 12.71559 -0.73856509 3 11
3.3854918 8.0774374 1.0753752 6 29
51.561157 95.599541 -3.7930169 63 14
3.2961855 7.8643618 2.2848547 0 31
3.337342 7.9625564 -0.2009005 15 16
6.7036104 13.910442 -0.44939059 1 15
2.4596961 5.8144269 -1.7673361 21 1
3.6542082 7.5827274 -1.683471 14 2
1.5334889 3.624984 0 1 20
6.0271378 11.086769 -0.14691047 5 18
3.3261821 7.8626962 -1.3282051 17 3
18.985031 39.395214 -5.5664086 21 4
2.989934 8.1571503 0.050493911 8 21
3.3297908 7.8712263 -0.92060632 12 5
27.315657 50.246464 -5.3387074 16 6
3.366842 7.9588113 0.20108658 12 24
3.3455586 7.9084997 -0.60046375 14 8
26.963581 55.951244 -5.0703087 42 7
2.9570708 8.0674925 0.25006223 3 25
37.618454 69.198204 -4.5869365 62 10
3.3807263 7.9916325 0.50534439 3 27
3.3578789 7.937624 -0.40147054 13 12
6.1544709 12.770941 -0.74296135 1 11
3.4246314 8.0954189 1.0792749 2 29
3.9063358 8.1059093 0.73455852 4 28
51.91415 95.494774 -3.7956693 63 14
3.366842 7.9588113 -0.20108658 14 16
2.4739268 5.7916355 -1.7630229 21 1
3.6978083 7.6051993 -1.6913157 16 2
3.3613737 7.8692112 -1.3312798 20 3
19.120707 39.32513 -5.5659037 21 4
3.0170019 8.1429119 0.050470661 15 21
6.7496281 13.881808 -0.089712709 1 19
3.360373 7.8668685 -0.92146307 13 5
27.456438 50.087936 -5.332016 16 6
3.3977475 7.9543648 0.2012727 13 24
7.1674538 13.075366 0.17359184 2 22
3.3747139 7.9004416 -0.60074276 15 8
27.089008 55.713356 -5.0572906 42 7
3.0289049 8.1750383 -0.55873311 7 9
38.065174 69.441132 -4.6118202 63 10
3.4242907 8.0165043 0.50766999 5 27
3.3871379 7.9295268 -0.40165666 13 12
37.784481 77.710495 -4.5285263 57 11
3.5682795 8.3535919 1.1153483 2 29
3.9241495 8.0707102 0.73260581 5 28
3.0339921 8.1887684 -0.35578167 10 13
52.343277 95.488235 -3.8026493 63 14
3.3238392 7.7813406 2.2672548 5 31
6.0672727 12.478423 2.5298185 1 30
3.3993182 7.9580421 -0.20136574 13 16
3.054812 8.1574488 -0.15204537 14 17
2.5078559 5.8147979 -1.7727276 21 1
3.7467878 7.6380253 -1.7015138 17 2
3.4375067 7.9703169 0 5 20
3.385689 7.8501706 -1.3300499 18 3
19.257853 39.258152 -5.5659037 21 4
3.0299754 8.0911264 0.050214939 14 21
3.3893864 7.8587437 -0.92189151 13 5
27.648438 50.023167 -5.335362 16 6
3.4302421 7.9534726 0.20155185 10 24
6.0618243 10.967407 0.14588606 1 22
3.4085901 7.9032698 -0.60185885 11 8
27.344761 55.74374 -5.0686812 42 7
3.0133204 8.0466518 0.25006223 11 25
3.042022 8.1232948 -0.55591899 11 9
38.409702 69.493073 -4.6241455 63 10
3.4633205 8.0301695 0.50929785 7 27
5.7328944 11.686809 0.53033453 1 26
3.4290361 7.9506764 -0.40333179 12 12
6.3208852 12.885459 -0.75217241 1 11
3.6335778 8.4249334 1.1265603 10 29
3.9487841 8.0498056 0.73195481 7 28
3.0429332 8.1257277 -0.35350204 10 13
52.709129 95.364441 -3.8050225 63 14
3.4381602 7.9718318 -0.2020171 13 16
3.0747776 8.1200132 -0.15155669 15 17
56.054245 113.21807 -3.6766946 29 15
2.5337684 5.8161607 -1.7759626 21 1
3.7939029 7.6629057 -1.7101429 13 2
3.4097052 7.826838 -1.3282051 18 3
19.424509 39.233524 -5.5724697 21 4
3.0553632 8.0687437 0.050145194 14 21
6.8736377 13.883339 -0.090038173 1 19
3.4245229 7.8608513 -0.92360502 12 5
27.893667 50.032795 -5.3472586 16 6
3.4657602 7.9555101 0.20192406 11 24
3.4486916 7.9163299 -0.60381204 11 8
27.564825 55.675293 -5.0716109 42 7
3.0413785 8.0318117 0.24994586 12 25
5.823967 11.763219 0.22911519 1 23
3.0576413 8.0747595 -0.5533607 12 9
38.675838 69.372742 -4.6255407 63 10
3.5023007 8.0393867 0.51069319 4 27
3.467731 7.9600339 -0.40444854 14 12
6.3928866 12.91232 -0.75510323 1 11
3.6676061 8.4188395 1.1275353 6 29
3.9764953 8.0317049 0.73162943 12 28
3.0613744 8.0846176 -0.35219944 12 13
7.0155272 12.583732 -0.50311112 2 14
3.3640049 7.7219343 2.2569022 18 31
3.4801347 7.9885058 -0.20276153 13 16
3.0945466 8.091095 -0.15120766 16 17
56.457981 113.0888 -3.6785562 29 15
2.5561433 5.8147783 -1.7781191 21 1
3.8315587 7.6748471 -1.7156341 14 2
3.5139961 7.9937263 0 5 20
3.4372334 7.8191047 -1.32882 16 3
19.598825 39.257648 -5.5850964 21 4
3.0792484 8.051096 0.050098702 11 21
3.4601765 7.8712959 -0.92617536 13 5
27.930685 49.710857 -5.322721 16 6
3.5033896 7.9695978 0.20257543 10 24
3.4845612 7.9267664 -0.60548621 12 8
27.765337 55.615673 -5.0745401 42 7
3.0722835 8.0328856 0.25029495 13 25
3.0772734 8.0459328 -0.55208153 12 9
38.954594 69.331139 -4.6313548 63 10
3.5417988 8.0569715 0.51255363 4 27
5.6054826 11.228125 0.51128352 3 26
3.5117979 7.9887252 -0.4064959 11 12
6.4820633 12.98397 -0.76054621 1 11
3.7098854 8.4393396 1.1319225 3 29
3.9959865 8.0042057 0.73032761 12 28
3.0853138 8.0669546 -0.35187376 13 13
6.998476 12.455843 -0.49892321 2 14
3.3833759 7.6965876 2.2527611 11 31
3.1184399 8.0690546 -0.15099822 13 17
2.5686088 5.7882175 -1.7727276 25 1
3.8636129 7.6719365 -1.7179875 13 2
3.4677074 7.8142867 -1.3300499 17 3
19.760698 39.238621 -5.5921674 21 4
3.1203041 8.0738783 0.050307926 2 21
7.0615268 14.022001 -0.091247052 1 19
3.4956913 7.877347 -0.92831725 14 5
28.166819 49.723972 -5.3346181 16 6
3.570111 8.0450478 0.2048087 10 24
3.5283892 7.9510303 -0.60827643 8 8
27.986162 55.571838 -5.0794215 42 7
3.1060646 8.0370331 0.25076041 11 25
3.0995784 8.0202503 -0.55105817 14 9
39.267166 69.319847 -4.6397266 63 10
3.5844731 8.0774126 0.51464665 7 27
5.6446342 11.208492 0.51128352 2 26
6.6225615 13.150352 -0.77164137 1 11
4.0238967 7.9902105 0.73032761 13 28
3.1091261 8.0449543 -0.35138527 13 13
54.16394 95.617691 -3.8375487 63 14
3.4086485 7.681201 2.2517259 5 31
6.3860397 12.680695 2.5886514 2 30
5.4484339 12.277744 -0.31256357 13 16
3.1480441 8.0618439 -0.15106803 15 17
57.698769 113.58309 -3.7076466 29 15
2.5840752 5.7686696 -1.7694926 23 1
3.8868186 7.6514091 -1.7164187 16 2
5.9391661 13.258549 0 1 20
3.4998128 7.8129554 -1.3318946 17 3
19.919123 39.211849 -5.5982285 21 4
3.1441054 8.0517578 0.050238185 9 21
3.5459306 7.9159083 -0.93431467 12 5
28.318504 49.587292 -5.3305283 16 6
7.1307502 12.486343 0.1673988 2 22
28.219713 55.552002 -5.0865817 42 7
3.1355565 8.0298643 0.25087678 11 25
3.1261058 8.0056629 -0.55080241 14 9
39.508923 69.182335 -4.6397266 63 10
3.6240764 8.0903606 0.51627451 7 27
5.6855373 11.192282 0.5114463 2 26
36.262848 80.952904 -4.1319637 38 12
6.7896395 13.365766 -0.78566748 2 11
4.7457809 10.594445 1.4253839 1 29
4.0571818 7.9867783 0.73130399 12 28
3.1386452 8.0377741 -0.35154811 15 13
54.610405 95.625885 -3.8455057 63 14
3.4386013 7.6763072 2.2537963 2 31
6.4267035 12.651307 2.5872164 2 30
5.473278 12.218504 -0.31153998 9 16
3.1790998 8.0582476 -0.15120766 18 17
58.351955 113.88274 -3.7240539 29 15
2.6105428 5.7736549 -1.773806 21 1
3.936754 7.683176 -1.7266169 15 2
5.4086204 11.962075 0 1 20
3.5417178 7.8331051 -1.3374288 14 3
20.061296 39.152683 -5.5997434 21 4
3.1795306 8.0593395 0.050354425 15 21
28.47949 49.467442 -5.3282981 16 6
6.3101816 10.960467 0.14723644 1 22
28.197039 62.362499 -4.785852 38 8
28.429804 55.485104 -5.0895109 42 7
3.1562285 8.0002737 0.25029495 13 25
3.1554949 7.9984145 -0.55105817 11 9
39.941425 69.376244 -4.6620522 63 10
3.6621644 8.099493 0.51766986 8 27
6.6139641 12.90816 0.59090692 1 26
36.560009 80.85862 -4.1336389 38 12
6.9018259 13.469967 -0.79320383 2 11
4.0923066 7.9867606 0.73260581 4 28
3.1681485 8.030488 -0.35171095 17 13
54.955818 95.455482 -3.8463435 63 14
3.4765167 7.6889019 2.2610431 5 31
5.4994178 12.162889 -0.31060946 7 16
3.2086916 8.0508165 -0.15127745 18 17
58.673889 113.53271 -3.7192829 29 15
2.6322811 5.7680101 -1.7748842 20 1
3.999567 7.7390761 -1.7423062 14 2
5.4354 11.910371 0 1 20
3.5969369 7.8818212 -1.3478823 8 3
20.190565 39.06831 -5.597723 21 4
3.1957977 8.018465 0.05016844 12 21
5.8049483 11.23245 -0.073485844 10 19
28.745966 49.529617 -5.3457713 16 6
4.9408407 10.826663 0.27692443 0 24
7.2840023 12.550417 0.16893542 2 22
28.419538 62.274574 -4.7866893 38 8
28.619661 55.378429 -5.08886 42 7
3.182657 7.9854941 0.25017861 16 25
3.1878307 7.9984751 -0.5518257 8 9
40.257538 69.364182 -4.6706567 63 10
3.6937325 8.0939255 0.51813501 7 27
6.6920137 12.948902 0.59383786 2 26
36.777359 80.58873 -4.1263804 38 12
40.166996 77.722275 -4.5850487 56 11
4.2611012 8.2451391 0.75766599 5 28
3.1961625 8.0193796 -0.35171095 15 13
55.124165 94.979546 -3.8348963 63 14
3.5161698 7.7048392 2.2693255 7 31
4.2294254 8.1838474 1.67961 5 30
5.5269022 12.110875 -0.30977198 3 16
3.2249188 8.0141602 -0.1507888 14 17
59.003845 113.24889 -3.7163739 29 15
2.6401172 5.7347569 -1.7673361 19 1
4.054204 7.7814264 -1.7548575 13 2
5.7157373 12.415497 0 1 20
6.53406 11.172755 -0.15068218 1 18
4.7899661 10.404573 -1.7820086 15 3
20.347504 39.053928 -5.605299 21 4
3.2134101 7.9855599 0.050028957 13 21
20.664204 44.885956 -5.3227234 43 5
28.976391 49.54747 -5.3580399 16 6
28.727669 62.401093 -4.80371 37 8
28.860241 55.39283 -5.098949 42 7
3.2076266 7.9711876 0.25006223 10 25
3.215826 7.9915638 -0.55208153 11 9
40.709064 69.609467 -4.6962376 63 10
3.7238908 8.0888863 0.51860011 7 27
5.7173829 10.973644 0.50411904 1 26
40.346973 77.439865 -4.5762563 57 11
2.6846523 5.8314943 0.78825098 12 29
3.2167687 7.9939065 -0.35105962 15 13
55.32579 94.602982 -3.8270788 63 14
4.0862026 8.875886 2.6182134 1 31
4.2347202 8.1279001 1.6710002 13 30
5.495122 11.936284 -0.30577073 3 16
3.2438402 7.9806232 -0.15036993 13 17
6.1318164 11.669491 -0.38364598 1 15
2.6536286 5.7115331 -1.7630229 18 1
4.0813441 7.7672267 -1.7548575 15 2
7.4566035 12.648704 -0.17093767 1 18
4.831254 10.398541 -1.7838533 14 3
20.539083 39.088036 -5.6204515 21 4
3.2397611 7.9705877 0.050005708 12 21
6.3185058 12.02478 -0.078949042 2 19
20.819096 44.809944 -5.3222952 43 5
29.14109 49.432293 -5.3565531 16 6
7.4200416 12.586683 0.17009951 2 22
28.947012 62.30405 -4.8039889 37 8
28.919918 55.037643 -5.0755162 42 7
3.2339277 7.9562364 0.24994586 8 25
5.495388 10.458301 0.20621765 1 23
3.2376919 7.965497 -0.55105817 10 9
41.034966 69.607979 -4.7057724 62 10
3.7504232 8.072217 0.51836753 12 27
5.9009619 12.700925 -0.65236634 2 12
40.65237 77.36573 -4.5802341 57 11
2.6899376 5.7896824 0.78386366 10 29
3.2401402 7.9715209 -0.35057113 15 13
56.213989 95.3563 -3.8654683 63 14
4.1871657 9.0122385 2.6627305 0 31
4.2722211 8.1304855 1.6745877 17 30
3.2745869 7.9723802 -0.15043975 15 17
2.6500065 5.6494594 -1.7468485 17 1
4.1134577 7.7591476 -1.7564266 14 2
4.9029026 10.452332 -1.7961516 15 3
20.698931 39.044052 -5.6249967 21 4
3.267432 7.9549603 0.049982462 14 21
6.3082013 11.899055 -0.078274861 2 19
20.949404 44.661327 -5.3137274 43 5
29.401432 49.458675 -5.3710523 16 6
6.3751688 13.591006 0.34931931 1 24
7.496779 12.610976 0.17079799 2 22
29.198883 62.248116 -4.8078952 37 8
29.181192 55.043999 -5.0859308 42 7
3.2661042 7.9517279 0.25017861 8 25
3.2623138 7.9424996 -0.5502907 10 9
41.226543 69.350708 -4.6985636 63 10
3.7867656 8.0728769 0.51929778 16 27
5.4082551 10.201502 0.47041339 7 26
5.9542584 12.693682 -0.65311086 2 12
40.948738 77.240929 -4.5816994 57 11
2.6942782 5.7438407 0.7789889 14 29
3.2693343 7.9595914 -0.35057113 15 13
4.2983036 8.1078196 1.6731527 15 30
3.299329 7.9535141 -0.15030013 14 17
2.7142045 5.7341781 -1.7759626 19 1
4.1738024 7.8070054 -1.7705472 15 2
5.3530188 11.309083 0 3 20
4.9444289 10.445872 -1.7979962 15 3
20.865019 39.027554 -5.6330786 22 4
3.2967105 7.9472017 0.050005708 10 21
5.9442353 11.118561 -0.073276617 2 19
21.059225 44.490883 -5.3021612 43 5
29.725368 49.608562 -5.3985639 16 6
6.4054599 13.532528 0.34838879 1 24
29.344276 61.994335 -4.7961764 38 8
29.803579 55.746937 -5.1604609 41 7
3.2969031 7.9476662 0.25041133 13 25
5.6360765 10.542156 0.20866098 5 23
3.2869575 7.9236908 -0.54977906 10 9
41.482723 69.23037 -4.700191 63 10
3.821754 8.074048 0.52022797 15 27
5.4381766 10.171989 0.4699249 9 26
38.321178 80.959435 -4.1723528 37 12
41.310375 77.270142 -4.5919571 56 11
2.7007217 5.7056932 0.77508909 10 29
5.1445761 9.6228161 0.89077836 9 28
3.2970965 7.948132 -0.35057113 14 13
4.3339987 8.1066494 1.6760228 11 30
3.3286192 7.9456367 -0.15036993 15 17
6.4663148 11.994206 -0.39656216 1 15
2.7292254 5.7142406 -1.7727276 20 1
4.1340227 7.6680961 -1.7423062 10 2
5.3666067 11.236185 0 3 20
4.9689407 10.403584 -1.7936919 14 3
21.089636 39.118641 -5.656817 22 4
1.5331651 3.6597676 0.023061676 4 21
21.20927 44.40633 -5.3008761 43 5
29.918959 49.538582 -5.4022818 16 6
5.602993 11.731112 0.3025139 1 24
29.465935 61.693493 -4.7808299 38 8
29.621515 54.944214 -5.0956945 42 7
3.3246279 7.9361086 0.25041133 10 25
3.3145986 7.9121685 -0.54977906 10 9
41.62093 68.914223 -4.6885638 63 10
3.8550801 8.0714684 0.52092564 11 27
38.605293 80.828773 -4.1725392 37 12
41.615883 77.192261 -4.5959349 56 11
2.7120681 5.6783185 0.77265167 11 29
5.1781373 9.6047983 0.89077836 3 28
3.321734 7.9292011 -0.35024548 14 13
6.5513315 10.847425 -0.44252563 1 14
4.3977523 8.1572819 1.6896546 9 30
3.3625696 7.9487019 -0.15064916 13 17
6.5979004 12.13666 -0.40203118 1 15
2.7675512 5.7428484 -1.7845889 17 1
4.29565 7.9017315 -1.7987881 14 2
5.9857974 12.420918 0 2 20
5.0138078 10.403976 -1.7967664 14 3
21.288609 39.159821 -5.6734843 22 4
1.5443734 3.6507092 0.023038428 4 21
21.329628 44.260365 -5.2923083 43 5
30.191111 49.597126 -5.4201264 17 6
7.1126595 11.684481 0.15925002 2 22
29.632614 61.489597 -4.7730169 38 8
30.233959 55.614552 -5.1676211 41 7
3.3554275 7.9318185 0.25064403 9 25
3.3453095 7.9079013 -0.5502907 13 9
42.122871 69.198288 -4.7178655 62 10
3.8919013 8.0759478 0.52208847 11 27
38.918446 80.758301 -4.175889 37 12
42.001484 77.260597 -4.608705 56 11
2.7267032 5.6580863 0.77118921 8 29
6.24368 11.485081 1.0671765 5 28
3.3540657 7.9285998 -0.35073397 13 13
58.801487 96.597466 -3.9490876 63 14
4.5032616 8.2836275 1.7190711 6 30
3.3967638 7.9558973 -0.15099822 13 17
2.7933164 5.7474966 -1.7889022 17 1
4.3350248 7.911521 -1.8042793 15 2
6.0322022 12.411792 0 1 20
7.5235772 12.267739 -0.16753848 3 18
5.0551944 10.401511 -1.799226 15 3
21.431707 39.113361 -5.6770196 22 4
3.3925121 7.9459391 0.050214939 8 21
21.486727 44.210846 -5.2948785 43 5
30.299212 49.405064 -5.410089 17 6
6.5776916 13.534184 0.35015681 1 24
7.1534624 11.66424 0.1592966 2 22
29.911377 61.545315 -4.7850151 38 8
30.362675 55.412586 -5.1581826 41 7
3.3895638 7.9390335 0.25122586 9 25
3.376219 7.9077773 -0.55105817 12 9
42.264446 68.915253 -4.7080984 62 10
3.9273903 8.0809546 0.52325118 10 27
6.223031 12.80444 -0.66316158 1 12
42.330418 77.253998 -4.6166601 56 11
2.7402465 5.6383009 0.76972687 10 29
3.3944652 7.9505138 -0.35219944 12 13
4.5477271 8.2997074 1.7255285 7 30
6.7437506 13.875866 -0.35899681 1 16
3.4354026 7.9654303 -0.15141708 14 17
2.7872193 5.6818886 -1.7716494 18 1
4.3791695 7.9230418 -1.810555 15 2
5.100244 10.397107 -1.8016857 15 3
21.601784 39.083176 -5.6840906 22 4
3.4390357 7.9738536 0.050470661 14 21
21.632849 44.099663 -5.2910233 43 5
30.49474 49.317398 -5.4126911 17 6
6.6642332 13.58538 0.35211089 1 24
30.286112 61.73978 -4.8087325 37 8
30.592554 55.349781 -5.1627388 41 7
3.421804 7.9338999 0.25145856 10 25
3.416244 7.9210086 -0.55284899 10 9
42.880054 69.347458 -4.7483306 62 10
3.969291 8.0916023 0.52487916 6 27
42.918571 77.650711 -4.6497359 55 11
2.9159644 5.2757282 0.49209237 3 28
3.4299121 7.9526992 -0.35285074 12 13
59.264194 95.844589 -3.9351277 63 14
1.2047409 2.4559257 0.73297554 5 31
4.5971503 8.3174257 1.7327033 7 30
6.812171 13.886958 -0.35992733 1 16
3.4743569 7.9790597 -0.15190575 13 17
6.2321978 11.183281 -0.37259156 1 15
2.8121572 5.6824832 -1.7748842 19 1
4.4029756 7.9008584 -1.8089859 14 2
5.1540294 10.414668 -1.8078347 13 3
21.76123 39.049141 -5.6901517 22 4
3.4748275 7.9801402 0.050586902 9 21
21.777805 44.006077 -5.2888813 43 5
30.79726 49.420235 -5.4357409 17 6
5.821218 11.762846 0.30539849 1 24
30.497858 61.626553 -4.8081741 37 8
30.847639 55.354118 -5.1731534 41 7
3.4542606 7.9329076 0.25180766 11 25
7.0359983 12.62565 0.25229198 1 23
3.45821 7.9419775 -0.55515146 9 9
43.248524 69.400726 -4.7622838 61 10
39.767262 80.357094 -4.1764474 37 12
42.989025 77.14106 -4.6281738 56 11
2.9130108 5.227212 0.48851234 8 28
3.4720058 7.9736605 -0.3543162 11 13
59.720951 95.833961 -3.9432244 63 14
1.2115909 2.4482431 0.73194027 3 31
4.6376433 8.3219547 1.737008 9 30
2.8250954 5.6588469 -1.770571 21 1
4.4689565 7.9538307 -1.8246754 14 2
5.1815281 10.378932 -1.8047603 14 3
21.862429 38.910664 -5.6810598 22 4
21.961493 43.990276 -5.2961636 43 5
30.992895 49.349525 -5.4398308 17 6
30.694979 61.484009 -4.8053837 37 8
31.058264 55.277374 -5.1760826 41 7
3.5028503 7.9683838 0.25332037 8 25
7.0741534 12.590549 0.25208256 1 23
3.5003715 7.9627447 -0.55745399 7 9
7.4374375 11.842521 -0.81441146 2 10
40.129635 80.382225 -4.1850095 37 12
43.222836 76.927834 -4.6244054 56 11
2.7327278 5.4738283 0.7512027 5 29
2.9156179 5.1892052 0.48590866 4 28
60.091278 95.682449 -3.9455976 63 14
4.6897974 8.3468828 1.7456177 9 30
6.342061 14.298199 -0.27302545 2 17
6.3574333 11.227579 -0.37550062 5 15
2.8490424 5.6597686 -1.773806 18 1
4.5069051 7.959444 -1.8293822 14 2
7.4503412 11.776172 -0.16223015 1 18
5.2194738 10.368751 -1.80599 14 3
22.003084 38.858665 -5.6840906 22 4
6.2910366 11.110319 -0.074206516 1 19
22.130507 43.963379 -5.3017325 43 5
31.201105 49.317146 -5.447638 17 6
7.4503412 11.776172 0.16223015 2 22
30.868216 61.321285 -4.8006401 37 8
31.264988 55.215698 -5.1799879 41 7
3.5762708 8.0627146 0.25669488 8 25
7.0922227 12.525258 0.25124484 1 23
7.4467826 11.770547 -0.81115568 4 10
6.7730889 13.455087 -0.70168936 1 12
43.4049 76.655457 -4.6166601 56 11
2.9485266 5.2072611 0.48851234 1 28
39.335979 88.683098 -3.9525146 47 13
7.4121103 11.715743 -0.48412582 1 14
4.7368426 8.3655262 1.7527925 8 30
5.9457593 13.279465 -0.25396743 1 17
6.3846955 11.184483 -0.37480244 2 15
2.8408799 5.5948353 -1.7565531 21 1
4.5346632 7.9436617 -1.8293822 13 2
5.2627969 10.364564 -1.8084497 14 3
22.152372 38.805737 -5.6876264 22 4
5.3548503 11.959708 0.076159328 1 21
6.3337498 11.095238 -0.074253015 1 19
22.323458 43.963867 -5.3111572 43 5
31.398771 49.248222 -5.4520993 17 6
7.3129363 11.470166 0.15836531 2 22
31.051388 61.152672 -4.7958975 38 8
31.504986 55.189312 -5.187799 41 7
29.592516 66.092949 -4.6410151 51 9
7.8355989 12.289949 -0.84882975 4 10
43.884125 76.874649 -4.6390595 56 11
2.7609386 5.4373989 0.74876529 0 29
7.4196811 12.997534 1.221769 1 28
6.1066933 13.6389 -0.60881811 5 13
7.4508157 11.686426 -0.48398623 1 14
6.4390893 12.681157 3.8108518 1 31
4.7835751 8.3796968 1.7592498 11 30
5.5835986 12.354799 -0.23665462 3 17
7.1715651 12.461664 -0.41843826 1 15
2.8533676 5.5711722 -1.7522399 21 1
4.6054044 8.0025768 -1.8466406 14 2
7.1423473 13.945363 0 4 20
5.3007431 10.349649 -1.8090646 14 3
22.315395 38.776329 -5.6946974 22 4
6.0208898 13.322391 0.084970184 1 21
22.513031 43.956474 -5.319725 43 5
31.65659 49.272358 -5.4669704 17 6
7.5085907 11.686855 0.16171794 2 22
31.23736 60.990643 -4.7917118 38 8
31.769018 55.203411 -5.1995158 41 7
4.8575673 10.748313 0.34326831 1 25
29.921669 66.20752 -4.6563649 51 9
8.0187502 12.4809 -0.8639459 2 10
6.6762581 11.600994 0.54531479 1 26
44.168129 76.748718 -4.6407342 55 11
3.0206022 5.2487469 0.49437058 0 28
6.1443863 13.595651 -0.60784119 1 13
7.2041717 11.213037 -0.46541968 1 14
4.8245721 8.3834143 1.7635547 13 30
2.8940101 5.6022453 -1.7651795 17 1
4.6155934 7.9559183 -1.8395803 12 2
7.1983218 13.934564 0 1 20
7.9579968 12.291785 -0.17047204 3 18
5.3640461 10.383759 -1.8182883 15 3
22.494411 38.773712 -5.7058091 22 4
5.6589909 12.40605 0.07925126 1 21
6.4732728 11.158008 -0.074973695 1 19
22.686401 43.916496 -5.3244376 43 5
31.880325 49.241802 -5.475893 17 6
31.625864 61.221573 -4.8184981 37 8
31.915491 55.012871 -5.1920304 41 7
30.187366 66.178932 -4.6617374 51 9
44.35873 68.515732 -4.7534466 62 10
5.7144613 11.062095 0.72510988 1 27
6.7167091 11.577621 0.54531479 3 26
41.474346 80.286339 -4.2093916 37 12
44.505894 76.715004 -4.6480613 55 11
2.8024733 5.4250479 0.7497403 10 29
6.2100487 13.61412 -0.60963231 1 13
61.637283 95.203888 -3.9605346 63 14
4.875525 8.403964 1.7714468 2 30
5.4690118 11.879571 -0.22827749 4 17
6.6629367 11.393129 -0.3841114 2 15
2.8868501 5.5408692 -1.7490051 24 1
4.6888776 8.0176344 -1.8576231 13 2
8.0598583 12.35438 -0.17172927 3 18
5.4002576 10.364972 -1.8182883 15 3
22.663664 38.753189 -5.7143946 23 4
5.7089496 12.400755 0.07934425 1 21
22.867115 43.889946 -5.330863 44 5
31.853977 48.826679 -5.4420614 17 6
7.2578063 11.124971 0.15464015 2 22
31.830145 61.093117 -4.8171029 37 8
32.145557 54.966526 -5.1982141 41 7
4.9441853 10.739564 0.34408286 1 25
7.5147448 12.849657 0.25983143 1 23
30.459915 66.163826 -4.6681337 51 9
44.56488 68.310318 -4.7499585 62 10
5.7622638 11.059788 0.7262727 1 27
42.044189 80.697418 -4.2386131 36 12
44.831879 76.659195 -4.6541324 55 11
4.0871663 7.8446932 1.0860997 5 29
7.0763702 12.10007 1.1443101 1 28
5.7377405 12.463294 -0.55899245 3 13
7.5465651 11.56759 -0.48231104 1 14
3.1228802 5.3398943 1.1278714 4 30
6.157548 13.253189 -0.2550844 3 17
2.9348428 5.5853152 -1.7662579 19 1
4.7267985 8.0181112 -1.8615454 14 2
7.6371508 11.617614 -0.16185762 2 18
5.4437618 10.360053 -1.820748 13 3
22.818962 38.708015 -5.7194457 23 4
5.7555757 12.388004 0.079390749 1 21
7.4061995 12.563204 -0.084760956 3 19
23.06274 43.890827 -5.3407164 44 5
32.173 48.941486 -5.4673419 17 6
7.4657764 11.356919 0.15822561 2 22
31.983829 60.868599 -4.8081741 37 8
32.339272 54.857403 -5.1985393 41 7
6.2266364 13.401892 0.43007445 1 25
7.5595565 12.823345 0.25983143 2 23
30.751249 66.187408 -4.6773434 52 9
44.873272 68.261101 -4.7574 61 10
5.7971225 11.032535 0.72580755 2 27
42.4576 80.801292 -4.2518282 36 12
45.072849 76.457481 -4.6514111 55 11
2.8827541 5.4861851 0.76095223 1 29
7.6527791 11.641388 -0.48649898 1 14
5.275806 8.949398 1.8941351 1 30
2.9435008 5.5546145 -1.759788 14 1
4.7627745 8.015049 -1.8646834 14 2
7.6710339 11.580878 -0.16171794 1 18
5.4835958 10.34797 -1.8219777 14 3
22.992462 38.692936 -5.7290421 23 4
7.4602284 12.554467 -0.084877193 3 19
23.24375 43.862759 -5.3471417 44 5
32.389843 48.898602 -5.4751496 17 6
32.04665 60.474514 -4.785852 38 8
32.656841 54.956665 -5.2187176 41 7
6.2750807 13.383695 0.43019083 2 25
7.5470691 12.700608 0.25787675 3 23
31.032955 66.188087 -4.6850181 52 9
45.179649 68.207237 -4.7646093 61 10
5.3606753 10.11601 0.66673833 2 27
42.810509 80.786751 -4.2589011 36 12
45.219082 76.097069 -4.6390595 56 11
2.9483628 5.5637894 0.77313918 2 29
6.4065695 13.664139 -0.61484283 3 13
7.7110319 11.641263 -0.48761579 1 14
7.0266781 13.259886 4.0210128 1 31
6.1940541 11.688661 -0.30781788 3 16
5.6085095 11.854184 -0.22890575 12 17
2.9229305 5.4695668 -1.7360654 22 1
4.8007989 8.0152006 -1.8686057 14 2
5.5047789 10.300879 -1.8170584 14 3
23.162039 38.670315 -5.7376285 23 4
5.268847 11.136271 0.071602784 9 21
7.5142794 12.545507 -0.084993429 3 19
23.377966 43.746284 -5.3428578 44 5
32.558113 48.78194 -5.4747777 17 6
5.5751467 10.432556 0.27524948 4 24
32.466293 60.752918 -4.816824 37 8
32.877151 54.890232 -5.2232742 41 7
6.3320169 13.383394 0.43088898 2 25
7.5728583 12.643309 0.25724846 1 23
31.274031 66.101006 -4.686553 52 9
45.483952 68.148773 -4.7715864 61 10
43.144962 80.735497 -4.2641125 36 12
45.550098 76.048424 -4.6457586 55 11
2.8049684 5.2488289 0.73072863 3 29
7.5919194 12.675132 1.206147 1 28
6.1875772 13.078105 -0.58944148 1 13
7.074739 13.238686 4.022048 1 31
4.3999343 7.3459349 1.5612266 4 30
6.2008896 11.603485 -0.30614293 1 16
5.6429653 11.820096 -0.22862652 9 17
7.532227 12.476461 -0.42414001 1 15
3.0461643 5.6526103 -1.7975285 22 1
4.8652387 8.0588331 -1.8827261 15 2
5.9337416 11.01094 0 7 20
5.5257039 10.253765 -1.8121392 15 3
23.300993 38.596016 -5.7386384 23 4
7.5704331 12.539746 -0.085132919 4 19
23.521105 43.646904 -5.3407164 44 5
32.779324 48.743996 -5.4833288 17 6
7.5932255 11.29139 0.15841188 2 22
32.755791 60.783237 -4.8282642 37 8
33.130379 54.877514 -5.2330379 41 7
6.4200411 13.447806 0.4336817 1 25
7.6148825 12.613372 0.25717866 1 23
31.513197 66.009445 -4.6878324 52 9
45.768372 68.059166 -4.7764697 61 10
43.525105 80.767296 -4.2737908 36 12
45.838009 75.926567 -4.6480613 55 11
4.1755829 7.748415 1.0807374 7 29
7.6690884 12.703159 1.2113544 1 28
6.2263069 13.041999 -0.58879018 1 13
7.91927 11.77623 -0.49557287 1 14
1.2665507 2.3502731 0.7153759 0 31
4.4133487 7.3103175 1.5569217 8 30
5.6720338 11.775109 -0.22813785 4 17
65.683289 107.94525 -3.6773925 29 15
3.0566776 5.6250224 -1.792137 17 1
4.885179 8.0284023 -1.8795882 17 2
5.5727792 10.255255 -1.8158286 14 3
23.507744 38.633102 -5.7563157 23 4
7.6224675 12.526917 -0.08522591 4 19
23.73595 43.679867 -5.3548532 44 5
32.967113 48.655678 -5.4863029 17 6
8.0543756 11.887334 0.16716596 2 22
33.026783 60.777233 -4.8369141 37 8
33.323772 54.764957 -5.2333632 41 7
6.5241947 13.54419 0.43752164 1 25
7.1682239 11.780404 0.2407036 1 23
31.732979 65.877487 -4.6862974 52 9
46.032497 67.938683 -4.7792602 61 10
5.9124589 10.880348 0.72115648 1 27
43.793362 80.590324 -4.2724881 36 12
6.6486912 10.926594 -0.67031902 1 11
4.2082863 7.7442598 1.0821998 10 29
7.0129128 11.525163 1.1013496 1 28
42.282516 87.778259 -3.9694486 47 13
4.4306531 7.2814245 1.5540519 8 30
3.094805 5.648098 -1.8029201 21 1
4.9316311 8.0413923 -1.8866485 21 2
5.6066465 10.232272 -1.8152137 14 3
23.686028 38.621834 -5.7669225 23 4
7.6640601 12.496821 -0.085202664 4 19
23.895933 43.610687 -5.3565664 44 5
33.114307 48.507401 -5.482585 17 6
7.6312714 11.178647 0.1575737 2 22
33.211906 60.612579 -4.8330078 37 8
33.508495 54.638103 -5.2323871 41 7
5.6468911 11.618997 0.37596607 1 25
32.039536 65.924278 -4.6975541 52 9
46.411224 67.985352 -4.7939115 61 10
44.016827 80.331833 -4.2669044 36 12
46.671822 76.101883 -4.6786256 55 11
4.2314801 7.7225595 1.0812249 5 29
42.616634 87.687637 -3.972054 47 13
65.186798 95.488708 -4.0374532 63 14
1.2662172 2.3108788 0.70605838 2 31
4.4478159 7.2524953 1.551182 7 30
6.6737094 12.179689 -0.32317153 1 16
6.8232918 13.928085 -0.27072173 4 17
3.1125321 5.6383481 -1.8029201 17 1
4.9671726 8.0425453 -1.8905708 17 2
5.6693239 10.269973 -1.8250523 15 3
23.830173 38.584377 -5.7724786 23 4
7.7074828 12.47949 -0.085249156 2 19
24.055874 43.577187 -5.3617072 44 5
33.327435 48.491764 -5.4926233 17 6
7.6844749 11.18099 0.15794623 2 22
33.529427 60.738514 -4.8514233 37 8
33.659023 54.498653 -5.2291327 41 7
5.6481824 11.529387 0.37363884 1 25
7.1999621 11.657743 0.23916778 3 23
32.265785 65.862732 -4.7003679 52 9
7.8868666 11.475472 -0.81092316 2 10
44.396408 80.424042 -4.2791882 36 12
46.971523 76.053452 -4.6846962 55 11
6.322835 12.906526 -0.58553356 3 13
65.558907 95.388885 -4.0419202 63 14
1.2772048 2.3136547 0.70812893 1 31
4.460237 7.2217464 1.5475945 15 30
6.8807321 13.922108 -0.27107078 2 17
7.2492175 11.646358 -0.3992385 1 15
3.1247034 5.6139855 -1.7986069 12 1
4.9952188 8.025157 -1.8905708 16 2
5.6801529 10.205223 -1.8170584 14 3
24.029726 38.605385 -5.788136 23 4
24.283287 43.628468 -5.3784142 44 5
33.553192 48.456978 -5.5019174 17 6
8.1970682 11.838074 0.16763161 2 22
33.747078 60.631554 -4.8522606 37 8
33.893311 54.451897 -5.2359672 41 7
5.6317077 11.394897 0.36991525 1 25
7.2068 11.578212 0.23805082 1 23
32.548576 65.857056 -4.7080431 52 9
7.9177852 11.434737 -0.80999291 4 10
44.659405 80.237144 -4.277513 36 12
6.9239955 12.439969 1.7480941 2 29
6.3784771 12.905872 -0.58651054 1 13
65.857368 95.110146 -4.0398264 63 14
6.8735843 12.349398 3.7870405 3 31
4.4854207 7.2061324 1.5475945 19 30
6.238966 11.209213 -0.29851264 4 16
3.1377141 5.5890603 -1.7942936 21 1
5.0245962 8.0067959 -1.8905708 11 2
5.7446036 10.232587 -1.8256671 13 3
24.185814 38.540581 -5.7916713 23 4
6.7666073 13.565799 0.088108622 1 21
24.532576 43.6987 -5.3981199 43 5
33.844521 48.496983 -5.5205064 17 6
7.1472244 12.731009 0.33973491 1 24
8.2358208 11.801393 0.16753848 2 22
33.887016 60.36132 -4.8405414 37 8
34.156216 54.428612 -5.2457304 41 7
5.6752157 11.377759 0.3700316 1 25
32.850296 65.85878 -4.7167411 53 9
45.397182 80.863831 -4.3197637 35 12
7.357132 11.723738 -0.72537643 1 11
43.874092 87.95945 -4.0046201 46 13
66.223801 94.894363 -4.0409427 63 14
4.5118003 7.1896448 1.5475945 21 30
6.2976232 11.217655 -0.29935011 1 16
3.1543362 5.5752721 -1.7932154 20 1
5.0448346 7.9801416 -1.8882173 12 2
6.2498388 11.046556 0 1 20
5.7804537 10.21692 -1.826282 14 3
24.296534 38.433327 -5.7876306 23 4
24.677364 43.617104 -5.3981199 43 5
34.105934 48.527847 -5.5368643 17 6
7.1460853 12.630667 0.33768776 1 24
34.230453 60.502136 -4.8609104 37 8
34.296059 54.251015 -5.2395473 41 7
7.2575359 11.480289 0.2370735 1 23
33.045216 65.703117 -4.7134156 53 9
8.0892668 11.509865 -0.81929517 2 10
45.657242 80.698921 -4.3190193 35 12
7.8378096 12.398191 -0.76871061 1 11
66.634689 94.811592 -4.0468063 63 14
4.5335169 7.1713161 1.5468771 13 30
6.9137244 12.21997 -0.32670754 2 16
3.1680546 5.5541883 -1.7899804 18 1
5.1211343 8.0385675 -1.9062601 11 2
5.8513346 10.258477 -1.8373505 15 3
24.419895 38.331543 -5.7851052 23 4
7.0506263 13.897537 0.090572871 2 21
24.805832 43.489235 -5.3929796 43 5
34.318859 48.470242 -5.5439281 17 6
34.617409 60.69075 -4.8857431 37 8
34.540932 54.21838 -5.2480087 41 7
33.306885 65.651428 -4.7180204 53 9
47.814148 67.530319 -4.8187947 60 10
45.980255 80.611931 -4.3229275 35 12
7.8982129 12.397706 -0.77038532 1 11
4.8488107 8.5008659 1.2016319 2 29
7.5850816 11.906188 1.1524465 3 28
44.714146 88.136353 -4.0264387 46 13
66.561005 94.007439 -4.0223765 63 14
4.5585241 7.1554465 1.5468771 5 30
6.8790703 12.060289 -0.32307848 2 16
3.1787856 5.5258455 -1.7845889 17 1
5.1399636 8.0032434 -1.9023379 15 2
5.8672132 10.199277 -1.8305866 14 3
24.545208 38.218414 -5.7815695 23 4
7.0905766 13.850241 0.090433381 2 21
8.0624418 12.553723 -0.086713761 1 19
24.949188 43.370449 -5.3895521 44 5
34.477764 48.318211 -5.5409536 17 6
34.91124 60.687988 -4.8957887 36 8
34.689865 54.014275 -5.2405233 41 7
7.2206349 11.242978 0.23323396 2 23
33.536362 65.507599 -4.716485 53 9
8.2224503 11.523197 -0.82441133 2 10
46.428802 80.709557 -4.3372593 35 12
7.8162427 12.170375 -0.75803411 3 11
7.0694699 12.28922 1.7407818 2 29
45.140678 88.174667 -4.0357203 45 13
4.5889711 7.1453133 1.5483119 3 30
3.224139 5.5619278 -1.7996851 17 1
5.1707373 7.9927392 -1.9039067 16 2
6.4514375 11.129307 0 1 20
5.9208279 10.213958 -1.8367356 15 3
24.639486 38.08683 -5.7739935 23 4
7.1438084 13.840866 0.09052638 2 21
8.0801296 12.489973 -0.086458035 1 19
25.13876 43.366608 -5.3994055 43 5
34.630844 48.193897 -5.5398388 17 6
3.2128129 5.5423894 0.1490702 1 24
35.194355 60.713406 -4.907228 36 8
34.929432 53.992657 -5.2496362 41 7
5.77104 11.181178 0.36619163 1 25
7.1666412 11.077936 0.23030196 1 23
33.740604 65.371185 -4.7146945 53 9
48.440556 67.412132 -4.8343759 60 10
46.491814 80.202538 -4.3182745 35 12
7.8760872 12.174571 -0.75991815 1 11
45.592331 88.333466 -4.0498862 45 13
68.626984 95.504509 -4.106833 63 14
4.6340165 7.163096 1.5554868 5 30
6.6542525 11.479181 -0.30874839 2 16
3.2396431 5.5439911 -1.7975285 17 1
5.2093105 7.9910741 -1.9078292 14 2
6.4902382 11.106724 0 1 20
5.9723902 10.220532 -1.8416548 17 3
24.754925 37.974018 -5.7699533 23 4
25.338106 43.361019 -5.4096866 43 5
34.768467 48.030804 -5.5350056 17 6
35.234905 60.297379 -4.8835111 37 8
35.156841 53.930542 -5.2554946 41 7
7.200891 11.046156 0.23016234 1 23
33.940895 65.199928 -4.7108569 52 9
48.776215 67.381767 -4.8443761 60 10
46.908512 80.274391 -4.3309307 35 12
49.171223 75.428581 -4.7188196 54 11
7.1108851 12.168836 1.7305448 1 29
45.998138 88.36171 -4.0585165 45 13
69.121613 95.487862 -4.1164656 63 14
4.6826262 7.1831412 1.563379 12 30
3.2501676 5.5154843 -1.792137 17 1
5.2536488 7.9948692 -1.9133204 15 2
7.0203242 11.913382 0 1 20
6.0098181 10.198569 -1.8416548 17 3
24.889612 37.876381 -5.7689428 23 4
5.8049221 11.052052 0.072555937 3 21
25.521126 43.308956 -5.4148269 43 5
35.047588 48.044598 -5.5513639 17 6
3.2178774 5.4606886 0.14748831 0 24
35.873032 60.875984 -4.9409904 36 8
35.389343 53.854607 -5.2607021 41 7
5.4697671 10.413947 0.3423374 2 25
34.209381 65.131599 -4.7149501 53 9
49.084087 67.286377 -4.8504224 60 10
47.354626 80.360077 -4.3448906 35 12
49.568062 75.431419 -4.7303333 54 11
46.303173 88.157097 -4.0568881 45 13
69.565437 95.363007 -4.1220493 63 14
4.7154112 7.1757927 1.5655315 14 30
6.2393622 11.784103 -0.23274529 1 17
3.2763047 5.5179253 -1.7964504 20 1
5.2866249 7.9872169 -1.9156739 17 2
7.0720415 11.910674 0 1 20
6.0496559 10.188781 -1.8434995 15 3
24.980028 37.7407 -5.7608614 23 4
8.1972313 12.384664 -0.086318545 1 19
25.638197 43.179638 -5.4092584 43 5
35.312805 48.072552 -5.5680933 17 6
36.066544 60.742973 -4.9398742 36 8
35.657944 53.873268 -5.2740455 40 7
7.3418536 11.092329 0.23218682 2 23
34.449448 65.063675 -4.718276 53 9
49.335304 67.161865 -4.8532133 60 10
47.643269 80.240395 -4.3469377 35 12
7.5864511 11.461875 -0.72035217 1 11
5.681541 9.5688047 1.3663993 3 29
7.9061399 11.944872 1.1693703 1 28
69.904945 95.164032 -4.1234455 63 14
4.7391796 7.1601181 1.5655315 8 30
7.4600778 12.564201 -0.34001407 1 16
3.2836761 5.4866247 -1.7899804 17 1
5.3166471 7.9719791 -1.9164582 17 2
7.1238432 11.903078 0 1 20
6.0933018 10.181169 -1.8459592 16 3
25.116011 37.659882 -5.7618718 23 4
5.8291435 10.917019 0.071928248 4 21
25.72953 42.990925 -5.3968349 43 5
35.568039 48.067463 -5.5818496 18 6
36.218922 60.517426 -4.9317827 36 8
35.819225 53.708679 -5.2701402 40 7
34.606773 64.812744 -4.7088103 52 9
49.628807 67.069511 -4.8590274 60 10
7.2286825 12.078252 0.81976026 1 27
5.6843233 9.4978142 1.359087 3 29
7.9986601 11.993489 1.1768558 1 28
5.3493242 8.9380722 2.7911046 0 31
4.7706923 7.1533542 1.5676839 9 30
7.4915657 12.517498 -0.33945575 1 16
7.9543705 11.832901 -0.41494739 1 15
3.2599773 5.401999 -1.7662579 24 1
5.3589573 7.971971 -1.9211651 16 2
7.1632857 11.87004 0 1 20
6.1469116 10.185841 -1.8508786 15 3
25.231724 37.534649 -5.7568212 23 4
25.983492 43.05637 -5.4169693 43 5
35.855862 48.086845 -5.5993228 18 6
7.6076403 12.606364 0.34261954 1 24
36.522934 60.520927 -4.9429436 36 8
36.026939 53.593578 -5.2717671 40 7
8.0457754 11.968874 0.25173351 1 23
34.878155 64.748741 -4.7134156 53 9
50.354076 67.530624 -4.9057708 59 10
7.5308037 12.479041 0.84882975 1 27
6.6249528 10.977986 -0.59727353 1 12
47.570599 88.311325 -4.0866857 63 13
70.899513 95.084419 -4.1418724 63 14
4.803463 7.1456194 1.5698364 18 30
3.2878778 5.4076157 -1.7716494 22 1
5.389761 7.9606533 -1.9227341 16 2
7.250402 11.924831 0 1 20
6.1642261 10.138384 -1.8459592 16 3
25.362724 37.460632 -5.7583365 23 4
7.0980868 13.073068 0.086458035 3 21
26.152981 43.014153 -5.4225383 43 5
36.139462 48.133297 -5.6186552 19 6
36.787678 60.50518 -4.9515934 36 8
36.177635 53.434212 -5.2678618 41 7
35.161236 64.759026 -4.7226253 53 9
50.565731 67.347305 -4.9046078 59 10
48.391602 79.590302 -4.3389339 35 12
8.2252378 12.14864 1.1976851 1 28
47.907032 88.233887 -4.0904307 63 13
71.23362 94.874374 -4.1429892 63 14
7.5834503 12.472601 3.9112735 1 31
4.8293376 7.1329103 1.5705538 10 30
6.1171465 11.168564 -0.22227386 15 17
3.3157322 5.4086618 -1.7759626 25 1
5.4012208 7.9149227 -1.9164582 16 2
8.3545876 11.042733 -0.16120572 1 18
6.1868911 10.092131 -1.8416548 16 3
25.53343 37.416565 -5.7659125 23 4
26.312569 42.921375 -5.4229665 43 5
36.361328 48.060833 -5.6257191 19 6
7.2628345 11.847222 0.32335764 1 24
8.5066204 11.243684 0.16413929 2 22
37.092659 60.505989 -4.9627547 36 8
36.344063 53.258411 -5.2636309 41 7
35.394562 64.622681 -4.7221131 53 9
50.824333 67.177406 -4.9057708 59 10
7.3013668 10.699388 0.52772921 2 26
48.806259 79.61335 -4.3499155 34 12
51.518665 75.495201 -4.7899966 53 11
48.391441 88.352127 -4.1041083 63 13
71.484459 94.485069 -4.1374049 63 14
4.8687625 7.1346612 1.5748587 8 30
3.3408008 5.4113297 -1.7802757 24 1
5.4482679 7.9302444 -1.9243029 15 2
6.2476325 10.119729 -1.8502635 14 3
25.657583 37.345982 -5.7674274 23 4
6.0931268 11.042236 0.073299862 1 21
26.505772 42.933258 -5.4349613 43 5
36.555557 48.003407 -5.632411 19 6
8.2099171 10.780959 0.15775998 2 22
37.353825 60.504616 -4.9722419 36 8
36.642124 53.334564 -5.2825074 40 7
35.66296 64.630013 -4.7308116 53 9
51.085915 67.084137 -4.9106545 59 10
7.3462563 10.692868 0.52854335 2 26
6.5951109 10.682564 -0.58480316 1 12
51.714855 75.273727 -4.7862282 53 11
48.80777 88.451622 -4.1158319 63 13
71.756706 94.228256 -4.1360092 63 14
4.8956075 7.1258178 1.5762935 9 30
3.3759477 5.4258003 -1.7889022 19 1
5.4714508 7.9047294 -1.9227341 16 2
7.8060131 12.545772 0 1 20
6.280829 10.094505 -1.8496487 15 3
25.810366 37.288822 -5.7724786 23 4
26.647062 42.826977 -5.433248 43 5
36.749554 47.910282 -5.6365004 19 6
8.2474976 10.752238 0.15775998 2 22
7.7933226 12.525375 -1.0315588 1 8
36.839409 53.222733 -5.2841344 40 7
36.002838 64.710945 -4.7459054 53 9
51.601685 67.272964 -4.9376311 58 10
8.4639969 12.228129 0.60588723 2 26
51.945454 75.046776 -4.7832975 53 11
7.4814572 12.024147 1.7388319 4 29
49.232803 88.490273 -4.1256018 63 13
4.9271688 7.1183929 1.5784459 11 30
3.3825905 5.3944016 -1.7824324 19 1
5.5326667 7.9338403 -1.9345011 16 2
6.3391266 10.109351 -1.8564126 16 3
25.940384 37.198494 -5.7724786 23 4
7.1817789 12.803014 0.085318901 3 21
26.817535 42.767384 -5.4375319 43 5
36.894661 47.753338 -5.6331544 19 6
7.6992111 12.278352 -1.013422 1 8
37.079716 53.172287 -5.2919455 40 7
7.0830126 12.626943 0.42134732 1 25
36.324211 64.755455 -4.7584414 54 9
51.977814 67.275696 -4.9511194 58 10
8.5546417 12.267351 0.60930663 2 26
49.560837 79.037369 -4.3456349 35 12
52.181992 74.828941 -4.7809949 53 11
7.5107322 11.977774 1.7359071 4 29
6.6907682 9.5945578 0.95489359 7 28
49.650909 88.513062 -4.1347203 63 13
4.956491 7.1076055 1.579881 10 30
7.4248762 11.840855 -0.32521871 1 16
3.403456 5.385818 -1.7835106 15 1
5.5693436 7.9273181 -1.9376389 15 2
6.403934 10.133941 -1.8650215 15 3
26.081467 37.123959 -5.7750039 23 4
7.2342997 12.791796 0.085411891 1 21
26.890163 42.55249 -5.4221096 43 5
37.117378 47.69656 -5.6417055 19 6
38.198513 60.447453 -5.000144 35 8
37.251328 53.022968 -5.2899933 40 7
7.0994873 12.553418 0.41971824 1 25
36.528397 64.59005 -4.7556272 54 9
52.334938 67.251427 -4.9627471 58 10
8.6502504 12.312634 0.61305171 1 26
49.567463 78.438309 -4.3221831 35 12
52.764336 75.103943 -4.8103027 53 11
7.2831407 11.525247 1.6739975 1 29
8.3697462 11.913368 1.1885723 4 28
50.008739 88.426193 -4.1387911 63 13
73.500572 94.449684 -4.1792846 63 14
7.2673731 11.500296 3.6452076 2 31
4.9903173 7.1031413 1.5827508 9 30
7.5494742 11.946708 -0.32884777 3 16
3.4160273 5.3641586 -1.7802757 13 1
5.6037774 7.9174352 -1.9399923 13 2
7.9369602 12.463342 0 1 20
6.458375 10.141531 -1.8705555 10 3
26.238394 37.07156 -5.7810645 23 4
26.961622 42.337608 -5.4066877 43 5
37.259064 47.53537 -5.6379876 19 6
7.3978057 11.616712 0.32047305 1 24
38.488579 60.438293 -5.010468 35 8
37.413147 52.860088 -5.2867384 40 7
6.8303595 11.979764 0.401333 1 25
7.6131225 10.756388 0.23002271 1 23
36.810959 64.562721 -4.7630463 54 9
52.557041 67.052635 -4.9615846 58 10
8.6146708 12.17145 0.60751551 3 26
50.476246 79.262421 -4.3772759 34 12
53.104618 75.030174 -4.8174205 52 11
7.3339877 11.516499 1.6764348 1 29
8.4320068 11.913369 1.1915015 1 28
50.382412 88.365685 -4.1441646 63 13
73.70649 94.035248 -4.1723046 63 14
7.3012447 11.465082 3.6421018 2 31
5.0241737 7.0985279 1.5856206 7 30
7.6770492 12.055205 -0.33256987 3 16
6.6926341 11.643555 -0.23442073 1 17
3.4534559 5.3813777 -1.7899804 14 1
5.6245508 7.8882442 -1.9376389 17 2
7.265336 11.321274 0 2 20
6.4809308 10.098967 -1.8668662 10 3
26.392988 37.015282 -5.7866206 23 4
27.038372 42.132778 -5.3925509 43 5
37.358143 47.32061 -5.6279497 19 6
7.388638 11.51341 0.31833282 1 24
38.779068 60.427818 -5.020792 35 8
37.609016 52.745384 -5.2883658 40 7
7.6018662 10.661363 0.22855672 1 23
37.113701 64.568802 -4.7730236 54 9
52.741306 66.806068 -4.956933 58 10
8.7081547 12.212895 0.61109775 3 26
7.7451825 12.068998 -0.66800082 1 12
53.748867 75.380981 -4.8519626 52 11
8.5800133 12.033181 1.2064725 1 28
50.744354 88.282822 -4.1485605 63 13
58.859848 74.556274 -3.3171275 50 14
4.5261836 7.0529652 2.2455142 0 31
5.0534921 7.0873532 1.5870557 8 30
7.7925186 12.14276 -0.33573365 2 16
6.9317436 11.962705 -0.24133189 1 17
3.4701266 5.366055 -1.7889022 15 1
5.6451855 7.8590059 -1.9352854 18 2
7.4459963 11.51417 0 1 20
6.5139952 10.072963 -1.8662512 13 3
26.538233 36.945488 -5.7901559 23 4
6.4112773 11.064492 0.07432276 1 21
27.193913 42.051502 -5.3942647 43 5
37.461121 47.111988 -5.6186552 19 6
7.424437 11.480832 0.31814671 1 24
39.002754 60.312191 -5.0224657 35 8
37.899883 52.76273 -5.3033366 40 7
7.6553659 10.6575 0.22904538 1 23
