# .PCD v0.7 - Point Cloud Data file format
VERSION 0.7
FIELDS x y z intensity ring
SIZE 4 4 4 4 2
TYPE F F F F U
COUNT 1 1 1 1 1
WIDTH 1307
HEIGHT 1
VIEWPOINT 0 0 0 1 0 0 0
POINTS 1307
DATA ascii
-19.802202 18.996262 -0.63852668 22 16
-2.3525965 2.5052605 -1.6025686 1 0
-20.667198 18.092762 -0.47945252 5 17
-19.246796 20.495754 -0.81825858 33 15
-4.1396313 3.9975955 -1.6109824 1 1
-4.9968119 5.3210635 -1.4598972 12 2
-19.735809 19.058649 0 14 20
-18.255005 21.449558 -0.32790604 12 18
-6.78093 6.5482678 -1.4665599 18 3
-8.1352367 8.663146 -1.5126934 14 4
-20.700092 18.121559 0.15989739 5 21
-19.276525 20.527411 -0.16366351 32 19
-10.999817 10.622399 -1.6471528 2 5
-12.408107 14.579475 -1.7871287 2 6
-19.644173 18.970156 0.63545597 8 24
-18.185013 21.367319 0.3266488 13 22
-18.183672 17.559767 -1.7676291 4 8
-15.809735 16.835657 -1.8853776 3 7
-20.538252 17.979879 0.79440427 37 25
-19.221897 20.469238 0.4901334 28 23
-19.729979 17.272289 -1.6805484 7 9
-18.204659 21.3904 -1.6357996 5 10
-19.705811 19.02968 -1.2760695 8 12
-19.244961 20.493799 -1.473362 10 11
-19.274551 18.613216 3.2899852 16 29
-18.233185 19.416367 2.1743844 21 28
-20.514883 17.959421 -1.1108204 6 13
-18.201077 21.386192 -0.98067582 5 14
-19.616411 18.943348 7.3069797 12 31
-18.323095 19.512114 4.8802681 28 30
-19.750605 19.072937 -0.63889891 18 16
-2.3458703 2.5165184 -1.604259 1 0
-19.196081 20.59248 -0.81930584 33 15
-4.1249518 4.0127406 -1.6109824 1 1
-4.9505305 5.3106518 -1.4520525 10 2
-19.677292 19.142012 0 14 20
-18.191753 21.534653 -0.32818544 12 18
-6.7738819 6.589612 -1.4702493 18 3
-8.1737766 8.7683697 -1.5258253 17 4
-19.222977 20.621332 -0.16384949 28 19
-10.975062 10.676509 -1.6492946 2 5
-12.357157 14.627897 -1.7875004 4 6
-19.611773 19.078276 0.63666564 4 24
-18.119482 21.449102 0.32688165 13 22
-18.153509 17.659679 -1.7709773 4 8
-15.756079 16.902239 -1.8863542 3 7
-20.481211 18.062969 0.79475343 37 25
-19.16856 20.562956 0.49069187 24 23
-19.696478 17.370892 -1.6831068 7 9
-18.18025 21.521036 -1.6406833 5 10
-19.068682 18.549957 1.5492887 12 27
-19.647387 19.112919 -1.276814 4 12
-18.927313 18.412434 3.2422123 24 29
-18.172771 19.494732 2.1756861 25 28
-20.460909 18.045065 -1.1114717 6 13
-18.153526 21.489401 -0.98235101 5 14
-19.197895 18.675657 7.1765347 12 31
-18.254139 19.582018 4.8809857 28 30
-19.712095 19.175869 -0.6399225 15 16
-2.3449023 2.5322628 -1.6093304 1 0
-20.447674 18.154285 -0.47728842 32 17
-19.152142 20.682425 -0.82035303 33 15
-4.1116228 4.0263972 -1.6109824 1 1
-5.007513 5.40762 -1.4740176 11 2
-19.645147 19.237942 0 14 20
-18.138241 21.616306 -0.32851139 12 18
-6.7491698 6.609273 -1.4696344 16 3
-8.1635284 8.8158054 -1.5293608 15 4
-19.168083 20.699636 -0.16396573 28 19
-10.933917 10.707279 -1.648438 2 5
-12.318823 14.680996 -1.7889875 4 6
-18.084251 21.551964 0.32753354 20 22
-18.123362 17.7477 -1.7737676 4 8
-15.718906 16.974869 -1.8886323 3 7
-20.433163 18.141403 0.79521883 37 25
-19.113857 20.641079 0.49104092 24 23
-19.686531 17.478512 -1.6872001 7 9
-18.101088 21.572029 -1.6399857 5 10
-19.029892 18.635441 1.5511492 4 27
-22.378548 24.166622 1.3418748 5 26
-19.635286 19.228287 -1.2801642 9 12
-19.155704 20.686272 -1.477549 32 11
-18.866154 18.475096 3.2422123 24 29
-18.126991 19.575361 2.1779644 25 28
-20.406939 18.11812 -1.1117975 6 13
-18.089878 21.558668 -0.98276985 5 14
-18.90398 18.512138 7.089572 17 31
-18.210497 19.665539 4.8867254 28 30
-19.691257 19.283096 -0.64131826 15 16
-2.3311403 2.5350964 -1.6059495 1 0
-20.363302 18.206896 -0.47679976 37 17
-19.090651 20.760929 -0.82081854 33 15
-4.1002851 4.0434308 -1.6120608 1 1
-5.0337386 5.4741507 -1.4873537 13 2
-19.609198 19.337297 0 14 20
-18.118994 21.747097 -0.32953578 8 18
-6.720428 6.6272435 -1.4684045 15 3
-8.148818 8.8617744 -1.5323912 14 4
-20.369041 18.212027 0.15880474 38 21
-19.09841 20.769367 -0.16398898 28 19
-10.899304 10.748176 -1.6488663 2 5
-12.275145 14.733089 -1.7901028 4 6
-19.626669 19.354528 0.6414113 13 24
-18.037067 21.648766 0.32804576 13 22
-18.095388 17.844481 -1.7771159 4 8
-15.694633 17.067787 -1.8928633 3 7
-20.357784 18.201962 0.79475343 33 25
-19.057926 20.725342 0.49145979 24 23
-19.646223 17.565752 -1.6889908 7 9
-18.069124 21.687241 -1.643939 5 10
-18.987469 18.72419 1.5530096 4 27
-22.037046 23.965113 1.3264062 5 26
-19.619253 19.347216 -1.2835145 9 12
-19.099596 20.770657 -1.4788048 32 11
-18.818506 18.557571 3.2451372 24 29
-18.080132 19.661997 2.180568 29 28
-20.36442 18.207893 -1.1129372 6 13
-18.047773 21.661613 -0.98458463 5 14
-18.814482 18.553602 7.0802541 17 31
-18.149725 19.737679 4.8888774 28 30
-19.638058 19.365761 -0.64178354 15 16
-2.3218334 2.543623 -1.6059495 1 0
-20.28455 18.270697 -0.47652051 10 17
-19.000956 20.81599 -0.82023668 33 15
-4.0827055 4.055716 -1.6109824 1 1
-5.0004201 5.4780774 -1.4834312 12 2
-19.55806 19.428766 0 14 20
-18.059565 21.838017 -0.32990831 8 18
-6.676466 6.6323299 -1.4641002 14 3
-8.0681334 8.838829 -1.5232998 14 4
-20.296215 18.281202 0.15875825 11 21
-19.022161 20.839224 -0.16398898 28 19
-10.890875 10.818878 -1.6535785 2 5
-12.218529 14.77491 -1.789731 4 6
-19.566952 19.437601 0.64178354 13 24
-18.064663 21.844181 0.33000144 13 22
-18.066669 17.947237 -1.7807434 4 8
-15.664226 17.160526 -1.8967687 3 7
-18.992622 20.806862 0.491739 24 23
-19.61434 17.667025 -1.691805 7 9
-18.032782 21.805632 -1.6478926 5 10
-19.556719 19.427435 -1.2840729 9 12
-19.017958 20.834618 -1.4783863 32 11
-18.7729 18.648798 3.249037 24 29
-18.026762 19.748741 2.1828463 25 28
-20.321308 18.303806 -1.1142398 6 13
-18.016668 21.786146 -0.98723698 5 14
-18.760061 18.636045 7.0854306 17 31
-18.095835 19.824409 4.8938999 28 30
-19.575462 19.446054 -0.64206266 23 16
-2.3129404 2.551712 -1.6059495 1 0
-20.235462 18.354826 -0.47686955 16 17
-18.928179 20.882189 -0.82023668 12 15
-4.0658002 4.0672183 -1.6099041 1 1
-4.9601946 5.47225 -1.4771556 13 2
-19.498604 19.505407 0 29 20
-18.013681 21.938015 -0.33046708 8 18
-6.5806212 6.5829167 -1.4481125 14 3
-7.9919276 8.8169575 -1.5147136 15 4
-18.965422 20.923277 -0.16412845 28 19
-10.841797 10.845579 -1.651865 2 5
-12.169407 14.820547 -1.7901028 4 6
-19.515945 19.522755 0.64234185 18 24
-17.993376 21.913284 0.33009458 6 22
-18.040585 18.046879 -1.7843707 4 8
-15.628328 17.241686 -1.8996979 3 7
-18.935993 20.890812 0.49215785 24 23
-19.596903 17.775614 -1.6956425 7 9
-17.969227 21.883875 -1.6490554 5 10
-18.925865 20.879637 1.1481082 12 26
-18.958529 20.915674 -1.4794329 37 11
-18.718914 18.725445 3.2509868 24 29
-17.97646 19.832222 2.1851244 21 28
-20.275055 18.390741 -1.1152167 6 13
-17.95573 21.867437 -0.9880746 5 14
-18.703089 18.709614 7.0885363 17 31
-18.05031 19.913696 4.9003572 28 30
-19.524427 19.531239 -0.64262098 15 16
-2.3064444 2.5624647 -1.6076399 1 0
-20.194891 18.446932 -0.47742802 16 17
-18.881918 20.977854 -0.82140034 8 15
-4.051578 4.0813861 -1.6099041 1 1
-4.9489341 5.4982767 -1.4795089 15 2
-19.56003 19.703936 0 45 20
-17.947104 22.013163 -0.33065334 8 18
-6.5381107 6.5862131 -1.4438082 18 3
-20.197626 18.449429 0.15899073 16 21
-18.919029 21.019083 -0.16436093 28 19
-10.823485 10.903116 -1.6548637 2 5
-12.130182 14.878372 -1.7919618 4 6
-19.453314 19.596436 0.64252794 13 24
-17.942049 22.006964 0.33056021 6 22
-18.014025 18.146559 -1.787998 4 8
-20.186466 18.439236 0.79568428 15 25
-18.887037 20.98354 0.49278617 28 23
-19.564207 17.870836 -1.6982008 7 9
-17.917959 21.977417 -1.6513809 5 10
-19.450985 19.59409 1.6078929 45 27
-21.08013 23.420071 1.2837449 5 26
-19.662703 19.807365 -1.3000796 41 12
-18.906782 21.005476 -1.4811077 37 11
-18.673018 18.810398 3.2543991 24 29
-17.923124 19.91263 2.1870773 25 28
-20.213686 18.4641 -1.1153796 6 13
-17.896971 21.951672 -0.98905176 5 14
-18.659443 18.796724 7.0968189 17 31
-18.009647 20.008759 4.9082499 28 30
-19.670244 19.814962 -0.64969301 11 16
-2.2979348 2.5700986 -1.6076399 1 0
-20.148331 18.52733 -0.47777709 16 17
-18.833574 21.064194 -0.82233125 8 15
-4.0353174 4.0920558 -1.6088258 2 1
-4.948976 5.5351253 -1.4850003 12 2
-19.595694 19.871218 0 30 20
-6.5745153 6.6669559 -1.4567213 14 3
-7.252018 8.1109362 -1.3849099 5 4
-20.139282 18.519009 0.15901397 16 21
-18.862558 21.096611 -0.16447717 28 19
-10.801234 10.953104 -1.6570057 2 5
-12.083286 14.921609 -1.7923335 4 6
-22.617256 22.935265 0.74953836 12 24
-17.90925 22.116072 0.33130524 20 22
-18.012589 18.265854 -1.7938575 4 8
-13.057929 14.60449 -1.5993001 7 7
-20.145815 18.525017 0.79649884 15 25
-18.833347 21.06394 0.49320501 24 23
-19.557732 17.984245 -1.7028056 7 9
-17.870117 22.067747 -1.6537064 5 10
-19.402727 19.675539 1.6092882 40 27
-19.182896 21.454889 1.1725326 4 26
-19.619358 19.895214 -1.3015686 41 12
-18.852999 21.08592 -1.4823638 32 11
-18.627266 18.889172 3.257324 24 29
-17.870283 19.986813 2.1887045 21 28
-20.161175 18.539141 -1.1158681 6 13
-17.851755 22.045071 -0.99058729 5 14
-18.621428 18.883253 7.1061358 17 31
-17.990412 20.121168 4.921164 28 30
-19.610046 19.885773 -0.6498791 11 16
-2.2745073 2.5618391 -1.5974971 1 0
-20.095268 18.608423 -0.47805634 16 17
-4.0263982 4.1116219 -1.6109824 2 1
-4.9400392 5.5640998 -1.4881381 13 2
-19.537401 19.950935 0 30 20
-17.841963 22.190924 -0.3314915 8 18
-6.4765358 6.6136198 -1.4401187 12 3
-7.1973152 8.1065311 -1.3798592 4 4
-20.089186 18.602789 0.1591302 16 21
-18.756927 21.126436 -0.16419819 20 19
-10.774063 11.00211 -1.6587192 2 5
-12.041106 14.976114 -1.7938206 4 6
-22.53146 23.008366 0.74935228 6 24
-17.829432 22.175339 0.33125868 20 22
-18.00176 18.382792 -1.799159 4 8
-13.054511 14.703649 -1.6051584 7 7
-20.092758 18.606098 0.79696429 15 25
-18.762354 21.132547 0.49327484 17 23
-19.532906 18.087667 -1.7061315 7 9
-17.805483 22.145554 -1.6548692 5 10
-19.347893 19.757416 1.610451 36 27
-19.563765 19.977856 -1.3024992 41 12
-18.789885 21.163555 -1.4832011 16 11
-18.577879 18.971104 3.2602489 24 29
-17.818932 20.069944 2.1909828 17 28
-20.108063 18.62027 -1.1165195 6 13
-17.797234 22.135294 -0.99184376 5 14
-18.566208 18.959187 7.1102772 17 31
-18.228352 20.531084 5.005826 20 30
-19.560093 19.974108 -0.65053046 19 16
-2.2794847 2.5864763 -1.6076399 1 0
-20.050331 18.70377 -0.47861481 16 17
-18.563398 21.06344 -0.81709492 12 15
-4.0139871 4.1291132 -1.6120608 1 1
-4.940361 5.6057086 -1.4944139 12 2
-19.486456 20.045351 0 30 20
-18.496481 23.178427 -0.34522799 13 18
-6.4660287 6.6514826 -1.4431933 11 3
-7.1780505 8.1447611 -1.3818794 6 4
-20.032574 18.687204 0.1592232 16 21
-18.578876 21.081003 -0.16331477 12 19
-10.719806 11.027264 -1.6565772 2 5
-11.983653 15.017032 -1.7934489 4 6
-18.491491 23.172173 0.34513485 14 22
-17.978769 18.494423 -1.8036233 4 8
-13.200868 14.978706 -1.6298933 7 7
-20.039051 18.693247 0.79754609 15 25
-18.576361 21.078148 0.49041262 14 23
-19.454809 18.148243 -1.7051082 7 9
-17.744125 22.235632 -1.6567297 5 10
-19.286486 19.839647 1.6113813 40 27
-18.600786 21.105865 1.1461543 20 26
-19.526623 20.08667 -1.3049188 41 12
-18.540524 21.037485 -1.4695938 5 11
-18.522062 19.053299 3.2626863 24 29
-17.766342 20.15904 2.1935863 21 28
-20.051378 18.704746 -1.1171708 6 13
-17.733442 22.222242 -0.99282092 5 14
-18.51545 19.046497 7.1175241 17 31
-18.171196 20.618418 5.0108485 20 30
-19.517418 20.077202 -0.65155405 34 16
-2.268055 2.5916896 -1.6059495 1 0
-19.993662 18.781858 -0.47882423 16 17
-18.492392 21.131121 -0.81721127 12 15
-3.9941983 4.1375566 -1.6099041 2 1
-4.9130135 5.6140647 -1.4920604 12 2
-19.452478 20.15066 0 35 20
-18.427877 23.258524 -0.3454608 13 18
-6.4949284 6.7280421 -1.4548767 12 3
-19.97888 18.767973 0.15931618 16 21
-18.520981 21.16379 -0.16345426 12 19
-10.672961 11.056031 -1.655292 2 5
-11.933633 15.061892 -1.7938206 4 6
-18.430361 23.261658 0.34550738 14 22
-17.941814 18.585775 -1.8064137 4 8
-13.237768 15.1267 -1.6409588 10 7
-19.982418 18.771296 0.79789519 15 25
-18.521109 21.163935 0.49090132 10 23
-19.475712 18.295301 -1.7125272 8 9
-17.688719 22.325603 -1.6588227 5 10
-19.239302 19.929832 1.6132417 40 27
-18.500679 21.140591 1.144526 12 26
-19.481361 20.18058 -1.306594 37 12
-18.49328 21.132135 -1.4716872 5 11
-18.463711 19.126404 3.2641487 24 29
-17.719496 20.247938 2.1965156 21 28
-19.988873 18.777361 -1.1173335 6 13
-17.680588 22.315342 -0.99421686 5 14
-18.467636 19.13047 7.1247711 17 31
-18.122437 20.708376 5.0173059 20 30
-19.488876 20.188364 -0.65294981 40 16
-2.2637494 2.6050642 -1.6093304 1 0
-19.939598 18.862537 -0.47910348 16 17
-18.434248 21.213654 -0.81790948 12 15
-3.9903932 4.1625977 -1.6142174 2 1
-4.8599401 5.5926924 -1.4818623 14 2
-19.4097 20.247322 0 25 20
-18.195724 23.130951 -0.34262037 13 18
-6.397553 6.6736383 -1.4382741 10 3
-7.8263478 9.0063572 -1.5187542 15 4
-19.924864 18.848598 0.15940918 16 21
-18.470602 21.255489 -0.16366351 12 19
-10.65632 11.116191 -1.6587192 2 5
-11.890831 15.11598 -1.7953076 4 6
-23.159698 24.159153 0.77875692 6 24
-18.373775 23.357294 0.34597301 14 22
-17.896154 18.668461 -1.8083669 4 8
-13.192726 15.181847 -1.6419351 7 7
-19.922577 18.846436 0.79812789 15 25
-18.465479 21.249592 0.49138996 10 23
-19.449425 18.398842 -1.715853 8 9
-17.642771 22.428019 -1.6618459 5 10
-19.186193 20.014172 1.614637 40 27
-18.458225 21.241247 1.14648 12 26
-19.427387 20.265772 -1.3077108 32 12
-18.432499 21.211641 -1.472734 5 11
-18.424307 19.219406 3.2690237 24 29
-17.659164 20.321707 2.1978173 21 28
-19.847713 18.775616 -1.1131001 6 13
-17.654484 22.442909 -0.99714839 6 14
-18.416784 19.211559 7.1309829 17 31
-18.078428 20.804186 5.025198 20 30
-19.44042 20.279369 -0.65369421 40 16
-2.2531853 2.6094189 -1.6076399 1 0
-19.868656 18.914051 -0.47882423 16 17
-18.396259 21.304749 -0.81918949 12 15
-3.9746397 4.1723232 -1.613139 2 1
-4.8474731 5.6138697 -1.4834312 12 2
-19.362551 20.325571 0 35 20
-18.320013 23.440107 -0.34634551 13 18
-6.3329368 6.6479135 -1.4284356 10 3
-7.7928286 9.0248919 -1.5177441 17 4
-19.859762 18.905582 0.15936269 16 21
-18.411579 21.322491 -0.16373324 12 19
-10.610373 11.138094 -1.6570057 2 5
-11.850645 15.162675 -1.7964231 4 6
-23.097483 24.246265 0.77922219 6 24
-18.320013 23.440107 0.34634551 14 22
-17.856686 18.74481 -1.81032 4 8
-13.147573 15.226233 -1.6422606 7 7
-19.744541 18.795898 0.79335707 7 25
-18.401245 21.310524 0.49145979 10 23
-19.434898 18.501133 -1.7196904 8 9
-17.5919 22.508501 -1.6637063 5 10
-19.14526 20.097473 1.6164974 36 27
-18.394016 21.302151 1.1466428 12 26
-19.377407 20.341166 -1.3086413 27 12
-18.357939 21.260372 -1.472106 5 11
-18.38027 19.294436 3.2719483 24 29
-17.621292 20.407257 2.201072 21 28
-19.817581 18.865429 -1.1147282 6 13
-17.57897 22.491957 -0.99686921 6 14
-18.369665 19.283304 7.1361589 17 31
-18.025843 20.875769 5.0287852 20 30
-19.398685 20.363504 -0.65443867 40 16
-2.2393436 2.6117637 -1.604259 1 0
-19.79674 18.977755 -0.4786846 16 17
-18.313972 21.359726 -0.81884032 12 15
-3.9600511 4.186172 -1.613139 2 1
-4.8227415 5.6248007 -1.4818623 12 2
-19.305227 20.407566 0 30 20
-18.267504 23.541832 -0.34690431 13 18
-6.3585839 6.721662 -1.4395038 10 3
-7.7690268 9.0610752 -1.5192593 14 4
-19.793648 18.974791 0.15936269 16 21
-18.334435 21.383591 -0.16371 12 19
-10.596025 11.201064 -1.6608611 2 5
-11.807411 15.216534 -1.7979102 4 6
-23.042934 24.358698 0.78024572 6 24
-18.2626 23.535513 0.34681118 14 22
-17.804857 18.821524 -1.8117152 4 8
-13.091748 15.269007 -1.6419351 5 7
-19.551813 18.74296 0.78823709 25 25
-18.279886 21.319971 0.4902032 10 23
-19.396135 18.593723 -1.721993 8 9
-17.527912 22.588699 -1.6651016 5 10
-19.080479 20.169983 1.6169627 27 27
-18.332554 21.381399 1.147457 8 26
-19.322758 20.426098 -1.3097581 27 12
-18.283615 21.324322 -1.472106 10 11
-18.329176 19.375782 3.2748733 24 29
-17.570711 20.492855 2.2036755 25 28
-19.760263 18.942787 -1.1152167 6 13
-17.537111 22.600555 -0.99896318 6 14
-18.312862 19.358538 7.1403003 17 31
-17.891388 20.866863 5.0115657 20 30
-19.324736 20.428188 -0.65434563 36 16
-2.2386954 2.6313877 -1.6110209 1 0
-19.743862 19.07308 -0.47917327 16 17
-18.239597 21.439026 -0.81918949 12 15
-3.9360397 4.1929216 -1.6099041 2 1
-4.8214421 5.6671772 -1.4881381 12 2
-19.234941 20.490292 0 35 20
-18.198936 23.640329 -0.34732339 13 18
-6.2840357 6.6941571 -1.4284356 12 3
-7.7496061 9.1089735 -1.5222898 14 4
-19.743658 19.072884 0.15954867 16 21
-18.262562 21.466021 -0.163803 12 19
-10.528442 11.215571 -1.6570057 2 5
-11.748898 15.26176 -1.7979102 4 6
-18.194056 23.633989 0.34723026 22 22
-17.76796 18.927568 -1.8153425 4 8
-12.653272 14.872798 -1.5940928 5 7
-19.476828 18.815117 0.78812075 7 25
-18.203075 21.396097 0.4903428 10 23
-19.347567 18.690248 -1.7240396 8 9
-17.460535 22.68115 -1.6669621 5 10
-19.019289 20.260565 1.6183579 27 27
-18.025011 21.1868 1.1332909 3 26
-19.260597 20.51762 -1.3108748 23 12
-18.199015 21.391325 -1.4718965 10 11
-18.270948 19.463385 3.2777982 24 29
-17.504814 20.575354 2.205303 21 28
-19.719004 19.049067 -1.1170079 6 13
-17.484344 22.712076 -1.0009176 6 14
-18.259552 19.451244 7.148582 17 31
-17.726988 20.8365 4.9878893 29 30
-19.265316 20.522648 -0.65499699 36 16
-2.2257364 2.6328707 -1.6076399 1 0
-19.698181 19.148951 -0.47952232 16 17
-18.187639 21.514544 -0.81988764 12 15
-3.9254749 4.2080832 -1.6109824 3 1
-4.7934847 5.6703148 -1.4850003 12 2
-19.189571 20.571095 0 40 20
-18.153732 23.735508 -0.34788215 13 18
-6.241405 6.6907454 -1.4235162 14 3
-7.713264 9.1241837 -1.5207746 14 4
-19.697981 19.148756 0.15966491 16 21
-18.218271 21.550779 -0.16401222 12 19
-10.528422 11.2864 -1.6625748 2 5
-11.70573 15.304921 -1.7986537 4 6
-18.139154 23.716446 0.34760275 22 22
-17.735626 19.012476 -1.8181328 4 8
-12.619352 14.9277 -1.5957202 5 7
-19.446289 18.904083 0.78928441 3 25
-18.159002 21.480669 0.49097112 10 23
-19.32596 18.787109 -1.7273654 8 9
-17.411026 22.764439 -1.6690552 5 10
-18.971888 20.33774 1.6197532 22 27
-19.21512 20.598484 -1.3121777 23 12
-18.154928 21.475851 -1.4737808 5 11
-18.223251 19.535206 3.2802355 24 29
-17.460674 20.654602 2.2079065 21 28
-19.670523 19.122065 -1.1176592 6 13
-17.454189 22.820873 -1.0032908 6 14
-18.216803 19.528294 7.155829 17 31
-17.544577 20.753851 4.9548855 39 30
-19.222567 20.606466 -0.65574139 36 16
-2.2165322 2.640624 -1.6076399 1 0
-19.674086 19.25956 -0.48056945 16 17
-18.153557 21.626896 -0.82174939 12 15
-3.9107616 4.2217598 -1.6109824 2 1
-4.7660971 5.678 -1.4826468 10 2
-19.136675 20.658493 0 46 20
-17.770842 23.403732 -0.34210816 13 18
-6.2180114 6.7124906 -1.4235162 12 3
-7.6915722 9.1632099 -1.5227948 15 4
-19.671036 19.256573 0.15999037 16 21
-18.166079 21.641815 -0.16422144 12 19
-10.494365 11.328916 -1.6634315 2 5
-11.659461 15.355205 -1.799769 4 6
-22.41972 24.20262 0.76768363 6 24
-17.816799 23.464256 0.34299287 14 22
-17.704403 19.112322 -1.8217601 4 8
-13.228462 15.75948 -1.6796883 8 7
-18.104479 21.56843 0.49152958 10 23
-19.308756 18.901928 -1.7317146 8 9
-17.360435 22.863239 -1.6718458 5 10
-18.917059 20.421413 1.6211486 18 27
-17.652834 21.030373 1.1186361 15 26
-19.159391 20.683016 -1.3132944 18 12
-18.108103 21.572746 -1.4760834 10 11
-18.173836 19.619087 3.283648 24 29
-17.403849 20.733746 2.2098594 25 28
-19.666485 19.252119 -1.1212415 6 13
-17.388929 22.900763 -1.0041283 6 14
-18.172155 19.617271 7.1651468 17 31
-17.487204 20.833052 4.9591904 29 30
-19.164106 20.688107 -0.65620667 36 16
-2.2114809 2.6543002 -1.6110209 1 0
-19.631847 19.359619 -0.48126757 16 17
-18.112562 21.739363 -0.82349485 8 15
-3.8952632 4.2360649 -1.6109824 2 1
-4.7452555 5.6954293 -1.4826468 11 2
-19.085201 20.754992 0 35 20
-17.631992 23.398432 -0.34108377 13 18
-6.2495513 6.7963328 -1.4364294 12 3
-7.6807976 9.2187748 -1.5273405 17 4
-19.625961 19.353815 0.1601996 16 21
-18.142969 21.775858 -0.1647329 8 19
-10.466235 11.38194 -1.6655735 2 5
-11.612694 15.410558 -1.8012562 4 6
-22.07914 24.010874 0.75902975 6 24
-17.658546 19.203516 -1.8242712 4 8
-12.468829 14.965546 -1.5901873 7 7
-19.629375 19.357182 0.80231696 15 25
-18.125153 21.754473 0.49425215 7 23
-19.279144 19.011808 -1.7352961 8 9
-17.312574 22.97455 -1.6753342 5 10
-18.852903 20.502367 1.6220788 13 27
-19.105099 20.776628 -1.3147835 37 12
-18.067272 21.685001 -1.4792236 5 11
-18.120623 19.70602 3.2870603 24 29
-17.35071 20.824959 2.2127883 25 28
-19.627098 19.354937 -1.1230326 6 13
-17.338562 23.009037 -1.0060827 6 14
-18.118444 19.703651 7.1723938 18 31
-17.428368 20.918165 4.9642124 29 30
-19.090864 20.761148 -0.65629971 28 16
-2.1980441 2.6560335 -1.6076399 1 0
-19.578894 19.435886 -0.48154679 16 17
-18.065866 21.830111 -0.82465845 8 15
-3.8811941 4.2489586 -1.6109824 2 1
-4.7338452 5.7201996 -1.4850003 13 2
-19.024364 20.827026 0 41 20
-17.396133 23.24542 -0.33801052 9 18
-6.3149462 6.9133215 -1.4567213 12 3
-7.6501851 9.244195 -1.5273405 14 4
-19.57019 19.427248 0.16026935 16 21
-18.093611 21.863636 -0.16494212 8 19
-10.455256 11.445949 -1.6698574 2 5
-11.568685 15.458546 -1.8023714 4 6
-19.027306 20.830246 0.65648586 4 24
-17.446459 23.312668 0.33898836 14 22
-17.59746 19.264915 -1.8245504 4 8
-12.487762 15.08974 -1.5989747 5 7
-19.579262 19.436253 0.80289871 11 25
-18.080961 21.848351 0.49502006 7 23
-19.258488 19.117821 -1.7391336 8 9
-17.255432 23.057409 -1.6771946 5 10
-18.77673 20.555927 1.621381 9 27
-17.525976 21.177727 1.1199389 11 26
-19.036095 20.839869 -1.3147835 37 12
-18.033464 21.790956 -1.4823638 5 11
-18.068562 19.780657 3.2894976 24 29
-17.301891 20.906952 2.2153919 26 28
-19.645063 19.501574 -1.1277546 12 13
-17.290909 23.104813 -1.0077579 6 14
-18.073851 19.786446 7.180676 18 31
-17.37145 20.991003 4.9678001 29 30
-19.024609 20.827295 -0.65639281 28 16
-2.1864569 2.6608899 -1.6059495 1 0
-19.525066 19.518253 -0.48189586 16 17
-18.009851 21.917759 -0.82558936 8 15
-3.8637497 4.2596288 -1.6099041 3 1
-4.7487082 5.7791171 -1.4959828 15 2
-18.938105 20.878498 0 35 20
-6.3332605 6.9821653 -1.4665599 14 3
-7.6329813 9.2892399 -1.530371 10 4
-19.581459 19.574627 0.16092028 16 21
-18.029871 21.942122 -0.16505836 8 19
-10.40989 11.476485 -1.6690005 2 5
-11.5194 15.505233 -1.8031151 4 6
-17.224237 23.184006 0.33624107 21 22
-17.53278 19.329184 -1.8248293 4 8
-12.989305 15.807817 -1.6702501 5 7
-19.522604 19.515793 0.80336422 11 25
-18.019812 21.929878 0.4954389 7 23
-19.214216 19.207512 -1.7411802 8 9
-17.203413 23.155975 -1.6799853 5 10
-18.678028 20.591774 1.6190556 9 27
-17.682837 21.519785 1.1347563 11 26
-18.968597 20.912117 -1.3151557 37 12
-17.975033 21.875383 -1.4838291 5 11
-18.01807 19.864199 3.2929099 24 29
-17.249048 20.991871 2.2179959 21 28
-17.238752 23.203541 -1.009433 6 14
-18.017647 19.863731 7.1858525 18 31
-17.320549 21.078884 4.9742575 29 30
-18.967907 20.911354 -0.65695113 32 16
-2.1794477 2.6713138 -1.6076399 1 0
-19.59775 19.728151 -0.48538634 5 17
-17.953461 22.005268 -0.82652026 8 15
-3.8514364 4.2759509 -1.6109824 4 1
-4.7185903 5.7835002 -1.4928449 17 2
-18.899916 20.98311 0 35 20
-6.3062057 7.0012908 -1.4659449 18 3
-7.6130538 9.3311968 -1.5328963 14 4
-17.973404 22.029711 -0.16524434 8 19
-10.361784 11.503884 -1.6677153 2 5
-11.481758 15.567782 -1.8057176 4 6
-17.150333 23.253639 0.33638075 21 22
-17.465206 19.390263 -1.8248293 4 8
-12.954212 15.877769 -1.6728537 5 7
-22.694883 22.845892 0.9371807 10 25
-17.968441 22.023628 0.49613702 7 23
-19.16675 19.294283 -1.7429709 8 9
-17.143816 23.244802 -1.6820782 5 10
-18.443018 20.475851 1.6048697 9 27
-18.914209 20.998978 -1.3164586 32 12
-17.923822 21.968939 -1.4859227 5 11
-17.969885 19.950567 3.2968099 24 29
-17.195835 21.076658 2.2205994 17 28
-19.69434 19.825384 -1.1385013 52 13
-17.164776 23.273222 -1.0098518 6 14
-17.966305 19.946594 7.1930995 18 31
-17.27672 21.175797 4.9828668 19 30
-18.921564 21.007145 -0.65788162 32 16
-2.1701093 2.678906 -1.6076399 1 0
-19.615828 19.88471 -0.48755041 5 17
-4.70331 5.8060327 -1.4944139 16 2
-18.845217 21.069832 0 35 20
-17.106857 23.365002 -0.33712578 8 18
-6.2501073 6.9879112 -1.4585661 16 3
-7.5679455 9.3423014 -1.530371 12 4
-19.626913 19.895947 0.16243137 34 21
-10.34012 11.560738 -1.670714 2 5
-11.432047 15.614196 -1.806461 4 6
-19.170692 21.433729 0.66914099 4 24
-17.097406 23.352095 0.33693954 7 22
-17.434652 19.492754 -1.8287357 4 8
-12.326547 15.216589 -1.5986493 5 7
-22.61499 22.924982 0.9371807 5 25
-19.132915 19.395178 -1.7460409 8 9
-17.086155 23.336727 -1.6844039 5 10
-18.227669 20.379383 1.5923116 4 27
-17.720852 21.875626 1.1469684 12 26
-18.854107 21.079771 -1.3173892 37 12
-17.862108 22.050001 -1.4871787 5 11
-17.921303 20.036852 3.3007097 24 29
-17.134703 21.15205 2.2222266 17 28
-19.636236 19.905397 -1.1391526 45 13
-17.116488 23.378157 -1.0118062 6 14
-17.91717 20.03223 7.2013812 18 31
-17.893774 22.08909 5.1830425 21 30
-18.864109 21.090954 -0.65843993 32 16
-2.1666207 2.6956952 -1.6127114 1 0
-3.8199883 4.3040681 -1.6109824 6 1
-4.6957259 5.842391 -1.4991207 13 2
-18.772144 21.151003 0 35 20
-17.045225 23.469347 -0.33768457 8 18
-6.2258549 7.0148129 -1.459181 17 3
-7.4723592 9.29706 -1.5182492 12 4
-19.555975 19.976871 0.16247787 34 21
-18.570702 23.105543 -0.17228839 13 19
-10.303576 11.609275 -1.6719992 2 5
-11.383714 15.674086 -1.8083199 4 6
-17.035824 23.456402 0.33749831 7 22
-17.357033 19.556564 -1.8284568 4 8
-12.278022 15.276234 -1.5999511 5 7
-17.864143 22.22645 0.49774262 7 23
-19.063892 19.474197 -1.7465526 8 9
-17.024586 23.440929 -1.6871945 5 10
-18.098925 20.392473 1.5878931 8 27
-17.649248 21.959078 1.1477826 12 26
-18.767727 21.146025 -1.317017 13 12
-17.799837 22.146439 -1.4890628 5 11
-17.854778 20.117388 3.3026593 24 29
-17.070847 21.239433 2.2245049 13 28
-19.573647 19.994923 -1.1399668 45 13
-17.040695 23.46311 -1.0126438 6 14
-17.858076 20.121101 7.2086282 18 31
-17.835947 22.191366 5.1909347 21 30
-18.748484 21.124344 -0.65723026 24 16
-2.1581419 2.7024882 -1.6127114 1 0
-19.50164 20.046961 -0.48817873 45 17
-18.478033 23.138733 -0.86177796 9 15
-3.7988057 4.3073802 -1.6077474 4 1
-4.6920347 5.8755031 -1.5038275 12 2
-18.639467 21.134872 0 20 20
-17.036943 23.613598 -0.33898836 4 18
-6.2011738 7.0313716 -1.4585661 19 3
-7.497591 9.3887024 -1.5293608 14 4
-19.509861 20.05541 0.16261736 34 21
-18.525482 23.198149 -0.17254411 13 19
-10.282841 11.659482 -1.6745696 2 5
-11.336751 15.712999 -1.8086917 4 6
-18.650293 21.147148 0.65611362 18 24
-17.001841 23.564943 0.33828989 7 22
-13.428898 15.226726 -1.4196838 2 8
-19.485203 20.030064 0.81325495 7 25
-18.517982 23.188759 0.51798743 11 23
-19.061077 19.594078 -1.7519251 8 9
-17.032644 23.607639 -1.695334 5 10
-17.984592 20.392324 1.5834745 8 27
-17.60013 22.039396 1.1490852 12 26
-18.571705 21.058039 -1.3078969 4 12
-17.752611 22.230339 -1.4909469 5 11
-17.812506 20.197199 3.3065593 24 29
-17.598621 22.037508 2.3022892 13 28
-19.555328 20.10215 -1.142572 33 13
-17.069822 23.659168 -1.0187861 6 14
-17.815226 20.200283 7.2169104 18 31
-17.793158 22.281113 5.1988273 31 30
-18.576231 21.063169 -0.65350813 20 16
-2.1437178 2.7046986 -1.6093304 1 0
-19.483589 20.175846 -0.48957491 33 17
-18.350876 23.153042 -0.85979986 13 15
-3.7829909 4.3212757 -1.6077474 3 1
-4.6850853 5.9111061 -1.5085343 11 2
-18.50127 21.133829 0 20 20
-17.078333 23.854759 -0.3415494 4 18
-6.1753578 7.0540538 -1.4585661 15 3
-7.465591 9.4192305 -1.5298659 14 4
-19.475113 20.167068 0.16294283 34 21
-18.462687 23.294111 -0.17275333 13 19
-10.250511 11.709064 -1.6762831 2 5
-11.29067 15.77064 -1.8105507 4 6
-18.496264 21.128109 0.65341508 23 24
-17.043407 23.805977 0.34085092 7 22
-13.730448 15.684162 -1.4576313 3 8
-23.219545 24.044542 0.9727875 5 25
-18.455217 23.284689 0.51861572 11 23
-19.002989 19.678171 -1.7532042 8 9
-17.043625 23.806282 -1.7051013 5 10
-17.878157 20.422052 1.5806838 8 27
-17.541573 22.131954 1.1505507 12 26
-18.49439 21.125969 -1.3078969 9 12
-17.698301 22.329699 -1.4932497 5 11
-17.759272 20.286251 3.3104591 24 29
-17.527632 22.114365 2.3035913 13 28
-19.498167 20.190943 -1.1435491 53 13
-17.069086 23.841845 -1.0239513 6 14
-17.761419 20.288706 7.225193 18 31
-17.789587 22.44487 5.2217865 32 30
-18.51997 21.15519 -0.65425253 20 16
-2.1432316 2.7235601 -1.6160923 1 0
-19.435194 20.266823 -0.4901334 33 17
-18.208136 23.138399 -0.8568908 13 15
-3.7704122 4.3373604 -1.6088258 5 1
-4.678978 5.9459171 -1.5132412 14 2
-18.445761 21.21941 0 15 20
-17.029716 23.963129 -0.34224787 9 18
-6.1377339 7.0606513 -1.4554915 15 3
-7.4277611 9.4389954 -1.5288557 15 4
-19.42952 20.260906 0.16315205 34 21
-18.403532 23.386703 -0.17296258 13 19
-10.199143 11.732765 -1.6745696 2 5
-11.240169 15.816446 -1.8112941 4 6
-18.440769 21.213667 0.65406644 18 24
-17.022766 23.953348 0.34210816 7 22
-17.228035 19.818577 -1.8362694 4 8
-12.157051 15.448848 -1.604833 7 7
-23.168688 24.160074 0.97418386 11 25
-18.396091 23.377249 0.51924402 11 23
-18.961819 19.773191 -1.7557626 8 9
-16.971992 23.881901 -1.7062641 5 10
-17.783188 20.457207 1.5785908 8 27
-17.48646 22.221313 1.1520162 12 26
-18.444132 21.217535 -1.309572 9 12
-17.642487 22.419588 -1.4951338 5 11
-17.706591 20.369091 3.3138714 24 29
-17.467594 22.19734 2.3058693 13 28
-19.446938 20.27907 -1.1446888 53 13
-16.999657 23.920828 -1.0247889 6 14
-17.710775 20.373905 7.2334752 18 31
-17.737904 22.540842 5.2296786 32 30
-18.469629 21.246866 -0.65509003 20 16
-2.1274903 2.722084 -1.6110209 1 0
-19.373392 20.336958 -0.490273 33 17
-18.320887 23.441231 -0.86585069 13 15
-3.7560072 4.3498411 -1.6088258 4 1
-4.6544023 5.9552207 -1.5116721 14 2
-18.385746 21.292578 0 15 20
-16.980135 24.061958 -0.34285319 4 18
-6.1375327 7.1078916 -1.4610257 14 3
-7.403748 9.4729567 -1.530371 14 4
-19.381533 20.345503 0.16331477 40 21
-18.340651 23.466518 -0.17310205 13 19
-10.147182 11.751476 -1.6724277 2 5
-11.199136 15.869906 -1.813153 4 6
-18.399065 21.308002 0.65509003 13 24
-16.984747 24.068493 0.34294632 7 22
-17.19351 19.911846 -1.8396177 4 8
-12.103293 15.485938 -1.6045076 5 7
-23.110498 24.259933 0.9751147 11 25
-18.34063 23.466492 0.51987231 11 23
-18.929178 19.870651 -1.7588326 8 9
-16.961771 24.035934 -1.7132409 5 10
-17.738735 20.543272 1.5806838 13 27
-17.432358 22.304375 1.1533188 12 26
-18.357996 21.260441 -1.3084552 9 12
-17.590176 22.5063 -1.4970179 5 11
-17.662292 20.454744 3.3182588 24 29
-17.408613 22.273994 2.3078222 13 28
-19.38785 20.352135 -1.1451774 53 13
-16.924843 23.983606 -1.025068 6 14
-17.65321 20.444227 7.2376161 18 31
-17.689707 22.63365 5.2375708 32 30
-18.406904 21.317081 -0.65536916 12 16
-2.1130559 2.724134 -1.6076399 1 0
-19.309721 20.419449 -0.49055225 28 17
-3.7350266 4.3577285 -1.6066693 4 1
-4.6421618 5.9846358 -1.5148101 14 2
-18.320602 21.375004 0 15 20
-16.903305 24.140409 -0.34308603 4 18
-6.1474519 7.1723518 -1.4696344 16 3
-7.2692671 9.3714781 -1.5096629 9 4
-19.312334 20.422213 0.16336128 34 21
-18.276587 23.562021 -0.17331128 13 19
-10.12475 11.812743 -1.6758548 2 5
-11.15232 15.927156 -1.815012 4 6
-18.326054 21.381365 0.65527612 9 24
-16.887245 24.117476 0.34276009 7 22
-17.148981 20.008051 -1.842687 4 8
-12.073337 15.564844 -1.6080877 5 7
-18.27166 23.555672 0.52036095 11 23
-18.861713 19.945694 -1.7593441 8 9
-16.907921 24.147003 -1.7167292 5 10
-17.652933 20.59602 1.5797535 8 27
-17.372541 22.396536 1.1547843 12 26
-18.269556 21.315447 -1.3077108 13 12
-17.527159 22.595865 -1.4986926 5 11
-17.60788 20.543457 3.3221586 25 29
-17.353741 22.372297 2.3114021 13 28
-19.335098 20.446285 -1.14648 39 13
-16.933132 24.183008 -1.0309311 6 14
-17.595766 20.529324 7.244863 18 31
-17.62352 22.720095 5.2425928 32 30
-18.331259 21.387438 -0.65546227 12 16
-2.0991094 2.7257495 -1.604259 1 0
-19.254745 20.504223 -0.49097112 28 17
-17.962389 23.32464 -0.85677445 4 15
-3.714798 4.3648734 -1.6045126 4 1
-4.6164551 5.9945898 -1.5132412 13 2
-18.245869 21.438828 0 15 20
-6.1351838 7.208818 -1.4727091 14 3
-7.1784024 9.3213472 -1.4975412 8 4
-19.265566 20.515747 0.16357051 28 21
-18.216185 23.654202 -0.17352051 13 19
-10.091182 11.8571 -1.6771399 2 5
-11.108014 15.982342 -1.8168707 4 6
-18.095793 21.262489 0.64969301 13 24
-16.869148 24.271528 0.34411043 7 22
-14.342867 16.852816 -1.5474777 3 8
-12.128387 15.749035 -1.6227331 5 7
-19.205734 20.452032 0.81651312 7 25
-18.216158 23.654167 0.52112883 11 23
-18.80563 20.025965 -1.7606233 8 9
-16.828079 24.212439 -1.7171942 5 10
-17.588688 20.666641 1.5804513 13 27
-17.318636 22.48871 1.1564125 12 26
-18.215748 21.403435 -1.3091997 9 12
-17.470104 22.685396 -1.5005766 5 11
-17.554066 20.625961 3.3255711 25 29
-17.299858 22.464327 2.3146567 13 28
-19.28549 20.536963 -1.1477826 46 13
-16.869141 24.271517 -1.0321876 12 14
-17.544024 20.614162 7.2531452 18 31
-17.565708 22.80954 5.2490506 32 30
-18.261667 21.45739 -0.65564835 12 16
-2.1005919 2.7474592 -1.6127114 1 0
-19.204882 20.594706 -0.49152958 33 17
-17.871153 23.374491 -0.85630894 4 15
-3.6871092 4.3631029 -1.5991211 8 1
-4.5835919 5.9950871 -1.5093188 15 2
-18.194168 21.529882 0 15 20
-16.811584 24.369768 -0.34466922 23 18
-6.1405988 7.2664146 -1.4800879 12 3
-6.9988103 9.1540604 -1.4667317 8 4
-19.210211 20.600422 0.16371 34 21
-18.063059 23.62549 -0.17284633 13 19
-10.049736 11.892252 -1.6771399 2 5
-11.054425 16.024294 -1.8172425 4 6
-17.980173 21.276653 0.64820415 13 24
-17.032063 20.154716 -1.8451983 4 8
-12.003122 15.699427 -1.6132948 5 7
-22.586411 24.220951 0.96382755 5 25
-18.104338 23.679482 0.52029115 11 23
-18.76012 20.117758 -1.7629257 8 9
-16.772947 24.313761 -1.7202175 5 10
-17.526758 20.74011 1.5813814 13 27
-17.261883 22.577599 1.157878 12 26
-18.164145 21.494354 -1.3108748 9 12
-17.422358 22.787491 -1.5032982 5 11
-17.502468 20.711369 3.3294709 25 29
-17.240717 22.549911 2.3172603 18 28
-19.232771 20.624615 -1.1489224 53 13
-16.820642 24.382898 -1.0344211 6 14
-17.499399 20.707735 7.264533 18 31
-17.512278 22.9051 5.2569423 32 30
-18.207312 21.545437 -0.65639281 16 16
-2.0919507 2.7540445 -1.6127114 1 0
-19.161837 20.678404 -0.49208805 33 17
-3.6684306 4.3687639 -1.5969645 11 1
-4.5576186 6.0000863 -1.5069654 14 2
-18.141876 21.605309 0 15 20
-17.207466 25.112043 -0.35440117 14 18
-6.0897837 7.2523737 -1.4733239 11 3
-7.087626 9.3308306 -1.4914802 13 4
-19.156277 20.672403 0.163803 34 21
-17.771 23.395449 -0.17075403 21 19
-10.02 11.9329 -1.6784251 2 5
-11.013037 16.072084 -1.8187296 4 6
-17.913244 21.333031 0.64820415 4 24
-16.74625 24.438957 0.34490204 14 22
-16.958399 20.195896 -1.8440821 4 8
-12.038146 15.84817 -1.6246859 5 7
-22.243885 24.004381 0.95242411 5 25
-17.787947 23.417759 0.51331019 26 23
-18.707682 20.188305 -1.7639492 8 9
-16.737114 24.425625 -1.7244035 6 10
-17.479492 20.816471 1.5830094 13 27
-17.212631 22.660358 1.1593435 12 26
-18.114517 21.572727 -1.3121777 9 12
-17.370018 22.867558 -1.5049728 5 11
-17.450085 20.781448 3.3319082 25 29
-17.193907 22.635708 2.3205149 18 28
-19.176037 20.693727 -1.149411 39 13
-16.793674 24.508167 -1.0374923 6 14
-17.451653 20.783318 7.27178 18 31
-17.45928 22.985071 5.2626824 32 30
-18.175539 21.645399 -0.65769553 12 16
-2.0835414 2.7649522 -1.6144018 1 0
-19.098536 20.769495 -0.49250692 28 17
-17.577597 23.326252 -0.85002542 9 15
-3.6466966 4.3769002 -1.5948079 12 1
-4.5203819 5.9987478 -1.5022585 10 2
-18.099745 21.723984 0 10 20
-17.137888 25.21763 -0.35495991 14 18
-5.9935799 7.193716 -1.4567213 13 3
-7.0684595 9.3801603 -1.4950157 13 4
-19.093 20.763475 0.16394249 34 21
-17.570299 23.316568 -0.16968465 12 19
-9.989378 11.989621 -1.6809955 2 5
-10.957956 16.124138 -1.8198451 4 6
-17.126648 25.20109 0.35472712 15 22
-16.890938 20.273129 -1.8451983 4 8
-11.874032 15.757369 -1.6106913 5 7
-21.891737 23.807077 0.94125336 5 25
-17.589581 23.342157 0.51016879 11 23
-18.651638 20.283499 -1.7659957 8 9
-16.654419 24.506227 -1.7255663 6 10
-17.41732 20.904913 1.5846373 13 27
-17.151947 22.761398 1.1611346 12 26
-18.077583 21.697384 -1.3155279 9 12
-17.308521 22.969179 -1.5072757 5 11
-17.390486 20.872705 3.335808 25 29
-17.123655 22.723854 2.3227932 13 28
-19.099138 20.770149 -1.1495737 33 13
-16.730898 24.618761 -1.0394467 6 14
-17.396448 20.879862 7.2821331 18 31
-17.332996 23.001657 5.2512026 32 30
-18.140923 21.773405 -0.65946352 8 16
-2.0700173 2.7660413 -1.6110209 1 0
-19.026861 20.829756 -0.49243709 28 17
-17.334852 23.163532 -0.84199643 13 15
-3.6223395 4.3770981 -1.5904946 11 1
-4.476964 5.9823012 -1.4944139 9 2
-18.065863 21.830107 0 10 20
-17.076548 25.307476 -0.35542557 14 18
-5.9344139 7.1709213 -1.4481125 14 3
-6.9445953 9.2796497 -1.4753181 9 4
-19.018646 20.820765 0.16389598 34 21
-9.9444952 12.016553 -1.6801386 2 5
-10.913339 16.17359 -1.8213321 4 6
-18.055876 21.818039 0.65899825 13 24
-17.07431 25.304159 0.35537902 15 22
-16.836344 20.3444 -1.8465934 4 8
-13.192834 17.628799 -1.7975041 6 7
-17.344341 23.176212 0.5052821 11 23
-18.608503 20.371758 -1.7682981 8 9
-16.606571 24.61097 -1.7290546 6 10
-17.370819 20.990242 1.5867302 13 27
-17.095533 22.843746 1.1624372 12 26
-18.031012 21.787992 -1.3173892 9 12
-17.260983 23.064825 -1.5097878 5 11
-17.343958 20.957785 3.3401952 25 29
-17.074484 22.815619 2.3263731 13 28
-19.038244 20.84222 -1.1500622 33 13
-16.700598 24.75032 -1.0426574 6 14
-17.341898 20.955294 7.2883449 18 31
-17.282564 23.093664 5.2590952 21 30
-18.086472 21.855007 -0.66011488 8 16
-2.0581868 2.7703404 -1.6093304 1 0
-18.937908 20.878277 -0.49201825 11 17
-17.218117 23.17576 -0.84025097 35 15
-3.5972557 4.3778124 -1.5861815 12 1
-4.4303226 5.9632592 -1.4857846 9 2
-18.004784 21.911583 0 10 20
-17.014803 25.406813 -0.35598436 14 18
-5.9093447 7.1915936 -1.4481125 15 3
-6.8861279 9.2687988 -1.4697622 13 4
-18.951225 20.892956 0.16394249 34 21
-17.234657 23.198025 -0.16796432 16 19
-9.9125853 12.063484 -1.6818521 2 5
-10.870109 16.231443 -1.8235627 4 6
-17.017029 25.410137 0.35603091 15 22
-14.064747 17.11661 -1.5491517 3 8
-13.109816 17.645947 -1.794575 6 7
-18.940836 20.881502 0.82046938 8 25
-17.25379 23.223778 0.50500286 26 23
-18.558733 20.460249 -1.7703449 8 9
-16.551662 24.715242 -1.7323104 6 10
-17.325325 21.08469 1.5892884 17 27
-17.034752 22.928949 1.1637398 12 26
-17.980209 21.881676 -1.3192505 9 12
-17.204182 23.157003 -1.5118812 5 11
-17.293377 21.045811 3.3445826 25 29
-17.023264 22.913486 2.3302786 13 28
-18.984167 20.929276 -1.151202 39 13
-16.634115 24.838362 -1.0439137 6 14
-17.280905 21.03063 7.2935214 18 31
-17.225309 23.18544 5.2662697 21 30
-18.027838 21.93964 -0.66076624 8 16
-2.0523224 2.7837012 -1.6127114 1 0
-18.893375 20.983212 -0.49285597 5 17
-17.149672 23.261238 -0.84106553 8 15
-3.5690145 4.3760419 -1.5807899 9 1
-4.3967996 5.9636712 -1.4818623 9 2
-17.944584 22.002222 0 10 20
-16.945921 25.505648 -0.35649654 15 18
-5.860466 7.1856375 -1.4425784 14 3
-6.8662405 9.313138 -1.4727926 13 4
-18.903963 20.99497 0.16419819 34 21
-17.185127 23.309328 -0.16831303 8 19
-9.8683071 12.099733 -1.6818521 2 5
-10.812752 16.27449 -1.8239344 4 6
-17.949837 22.008663 0.66085929 9 24
-16.945921 25.505648 0.35649654 15 22
-13.921219 17.069092 -1.540223 6 8
-11.691815 15.858385 -1.6084131 7 7
-19.372501 21.515335 0.84257823 4 25
-18.51033 20.557796 -1.7729032 8 9
-16.487488 24.815651 -1.7351011 6 10
-17.260555 21.163521 1.5904511 8 27
-16.974321 23.023397 1.1653682 12 26
-17.912519 21.962908 -1.3201811 9 12
-17.150013 23.2617 -1.5146027 5 11
-17.236204 21.133663 3.3484824 25 29
-16.965197 23.011023 2.3338587 9 28
-18.92338 21.016533 -1.152179 46 13
-16.587215 24.965752 -1.0467057 6 14
-17.230574 21.126759 7.3049088 18 31
-17.170578 23.289593 5.2755966 21 30
-17.970057 22.033455 -0.66160369 12 16
-2.0447333 2.7937739 -1.6144018 1 0
-18.865326 21.099722 -0.49404272 17 17
-17.089617 23.350004 -0.84211278 8 15
-3.5512919 4.3854804 -1.5797117 11 1
-4.3620553 5.9599934 -1.4771556 9 2
-16.887606 25.611401 -0.35714847 15 18
-5.8900671 7.2736273 -1.4561063 15 3
-6.8946185 9.4203024 -1.4859245 19 4
-18.851885 21.084688 0.16438417 35 21
-17.120188 23.391773 -0.16847576 8 19
-9.8260069 12.134109 -1.6818521 2 5
-10.771219 16.335413 -1.8265369 4 6
-17.893028 22.09605 0.66160369 14 24
-16.878798 25.598042 0.3569622 16 22
-13.793745 17.033857 -1.5326892 6 8
-13.020882 17.790781 -1.7997823 6 7
-17.113146 23.382151 0.50577074 7 23
-18.449095 20.634192 -1.7739265 8 9
-16.438128 24.929731 -1.7390544 6 10
-17.867598 22.064646 1.6534739 9 27
-16.919809 23.11799 1.1671592 12 26
-17.870943 22.068777 -1.3227868 9 12
-17.085218 23.343992 -1.5160682 5 11
-17.179811 21.215302 3.3518949 17 29
-16.903601 23.095844 2.3364625 9 28
-18.849897 21.082464 -1.152179 33 13
-16.528568 25.066893 -1.0485204 6 14
-17.185894 21.222813 7.3173323 18 31
-17.107763 23.374798 5.2813368 21 30
-2.0375896 2.8034711 -1.6160923 1 0
-17.052059 23.461525 -0.84409094 8 15
-3.5319023 4.3912292 -1.5775551 9 1
-4.3122902 5.9331779 -1.4669574 11 2
-17.837021 22.176842 0 15 20
-16.828875 25.707411 -0.3577072 15 18
-5.8411441 7.2623191 -1.4499573 14 3
-6.8376827 9.4078054 -1.4803687 13 4
-18.773899 21.138113 0.16431443 28 21
-17.070749 23.48724 -0.16875474 8 19
-9.8156281 12.203812 -1.6869929 2 5
-10.725719 16.384369 -1.8280241 4 6
-17.8347 22.173958 0.66216201 19 24
-16.824493 25.700718 0.3576141 16 22
-13.737186 17.079502 -1.5326892 6 8
-12.312556 16.940554 -1.7096305 8 7
-17.061386 23.474356 0.50653869 7 23
-18.41238 20.731068 -1.7769964 8 9
-16.368494 25.004145 -1.7404498 6 10
-17.819363 22.154888 1.6557994 9 27
-16.866558 23.206299 1.1687876 12 26
-17.817699 22.152821 -1.3242757 9 12
-17.031204 23.432829 -1.5181615 5 11
-17.801109 22.132195 3.4874134 27 29
-16.850365 23.184015 2.3397169 9 28
-16.473822 25.165041 -1.0503353 6 14
-17.117847 21.282692 7.3183675 12 31
-17.055611 23.46641 5.2892289 21 30
-2.0273011 2.81092 -1.6160923 1 0
-18.587975 21.083904 -0.49062204 16 17
-17.054834 23.647091 -0.84851271 4 15
-3.5061727 4.3921027 -1.5732419 10 1
-4.2377448 5.8757734 -1.4489146 11 2
-18.494297 23.167385 0 16 20
-16.756329 25.802462 -0.35817286 15 18
-5.8021603 7.2682343 -1.4468828 14 3
-6.7961931 9.4231472 -1.4788536 14 4
-18.585203 21.080759 0.16333804 17 21
-17.099203 23.708612 -0.16989388 4 19
-9.7708359 12.239704 -1.6869929 2 5
-10.669937 16.430248 -1.8287675 4 6
-18.494282 23.167368 0.68979865 15 24
-16.758507 25.805815 0.35821941 16 22
-13.676989 17.132853 -1.5329683 6 8
-12.252717 16.988798 -1.7099559 5 7
-18.572363 21.066195 0.81732762 19 25
-17.080511 23.682693 0.50968009 3 23
-18.367956 20.834341 -1.7800664 8 9
-16.300669 25.100805 -1.743008 6 10
-17.762959 22.251253 1.6581249 9 27
-16.80711 23.303614 1.1705786 12 26
-17.758827 22.24608 -1.325951 9 12
-17.022314 23.602003 -1.52507 5 11
-17.747122 22.231417 3.4927757 27 29
-16.800262 23.294121 2.3445988 9 28
-18.554253 21.045654 -1.1430606 6 13
-16.403254 25.258774 -1.0517312 6 14
-17.71949 22.196802 7.6103153 19 31
-17.004019 23.576635 5.2999911 22 30
-2.0132556 2.8120847 -1.6127114 0 0
-18.501091 21.133619 -0.490273 16 17
-3.4860334 4.3982782 -1.5710852 9 1
-4.2331905 5.9128556 -1.4544059 13 2
-18.440641 23.266291 0 16 20
-16.410484 25.464079 -0.35267827 23 18
-5.8184881 7.3411021 -1.4573362 13 3
-6.7678766 9.4532661 -1.4798636 11 4
-18.506233 21.139492 0.16329153 17 21
-17.097832 23.88199 -0.17070754 8 19
-9.7280493 12.273739 -1.6869929 2 5
-10.629775 16.494177 -1.8317418 4 6
-18.438133 23.263126 0.6907292 15 24
-16.416985 25.474163 0.35281795 15 22
-13.619576 17.183622 -1.5332474 6 8
-12.311697 17.196789 -1.7265543 5 7
-18.501345 21.133909 0.81744397 15 25
-17.09086 23.872252 0.51247251 7 23
-13.967183 15.954578 -1.3589699 4 9
-16.23674 25.194481 -1.7455661 6 10
-17.672773 22.297482 1.6569623 9 27
-16.746597 23.39139 1.1720442 12 26
-17.695951 22.326727 -1.3270676 9 12
-17.049109 23.813934 -1.534909 5 11
-17.696533 22.327459 3.4981377 27 29
-18.514898 21.149391 -1.1451774 6 13
-16.332302 25.342764 -1.052848 6 14
-17.665895 22.288805 7.6206684 19 31
-17.047604 23.811832 5.3394523 22 30
-18.343744 23.144039 -0.68719316 21 16
-1.9971266 2.8102305 -1.6076399 0 0
-18.445568 21.219202 -0.49076167 16 17
-17.02829 23.961136 -0.85549444 9 15
-3.4635119 4.4013395 -1.5678504 9 1
-4.2216115 5.9403858 -1.4575437 12 2
-18.379097 23.355669 0 16 20
-16.254688 25.416752 -0.35123476 14 18
-5.8563752 7.4421272 -1.4733239 14 3
-6.7279387 9.4671316 -1.4783484 9 4
-18.450689 21.225096 0.16345426 17 21
-17.051432 23.9937 -0.1710795 8 19
-9.7097368 12.338877 -1.6912767 2 5
-10.576423 16.537895 -1.8324854 4 6
-18.376596 23.352491 0.6914736 15 24
-16.280546 25.457188 0.35179356 22 22
-16.416994 20.862284 -1.8563592 5 8
-12.364751 17.398899 -1.7425016 6 7
-18.456308 21.23156 0.81872398 15 25
-17.039856 23.977411 0.51344979 7 23
-18.3818 21.145845 -1.7956721 8 9
-16.165901 25.27792 -1.7474265 6 10
-17.570131 22.327658 1.6546366 9 27
-16.68799 23.482288 1.1736724 16 26
-17.642612 22.419765 -1.3289289 9 12
-16.977444 23.889589 -1.5359558 5 11
-17.635668 22.410942 3.5015504 27 29
-16.678789 23.469341 2.350457 14 28
-18.448818 21.222942 -1.1456658 6 13
-17.635765 22.411066 7.6413741 20 31
-17.030481 23.964218 5.3602591 22 30
-18.290043 23.242502 -0.68821675 17 16
-18.399733 21.301258 -0.49132013 16 17
-16.936792 23.991648 -0.85467988 4 15
-3.4425511 4.4030948 -1.5646155 10 1
-4.2232885 5.9824581 -1.464604 9 2
-18.322882 23.43535 0 16 20
-16.146885 25.423798 -0.35062945 19 18
-5.840271 7.4698286 -1.4751686 14 3
-6.8652196 9.7248602 -1.5152189 12 4
-18.404842 21.307171 0.16364026 17 21
-16.975973 24.047148 -0.1710795 4 19
-9.6831751 12.384984 -1.6934186 2 5
-10.543633 16.601294 -1.8358314 4 6
-18.332703 23.44791 0.69259024 15 24
-16.140453 25.41367 0.35048977 22 22
-16.375954 20.945189 -1.8591495 5 8
-18.405203 21.30759 0.81942219 16 25
-16.973673 24.043892 0.51372904 3 23
-18.242218 21.118904 -1.7885088 8 9
-16.114243 25.3724 -1.7504498 6 10
-17.453173 22.322973 1.650218 14 27
-16.637188 23.567247 1.1753007 20 26
-17.586863 22.493965 -1.3300457 9 12
-16.948385 24.00807 -1.5401427 5 11
-17.589632 22.497509 3.5064251 27 29
-16.625673 23.550936 2.3533862 14 28
-18.355934 21.250551 -1.1440376 13 13
-17.677126 22.609415 7.690032 33 31
-16.97781 24.049751 5.367434 11 30
-18.340092 23.457361 -0.69286942 13 16
-18.318939 21.365511 -0.49125034 16 17
-16.922153 24.158352 -0.8584035 9 15
-3.4216678 4.409596 -1.5624589 9 1
-4.2778449 6.1071234 -1.491276 6 2
-18.256485 23.527626 0 16 20
-16.079185 25.523413 -0.35118821 4 18
-5.8273931 7.5099192 -1.4788581 15 3
-6.9137626 9.870204 -1.5339065 15 4
-18.329231 21.377516 0.16366351 17 21
-16.958866 24.210762 -0.17180018 8 19
-9.6401577 12.423532 -1.6938471 2 5
-10.486966 16.646563 -1.8365749 4 6
-18.271158 23.546535 0.69352078 15 24
-16.068525 25.506493 0.3509554 7 22
-16.289295 20.992455 -1.8580334 5 8
-12.575408 17.952864 -1.7893676 9 7
-16.945095 24.191105 0.51554406 7 23
-18.167294 21.188646 -1.7887646 8 9
-16.055202 25.485346 -1.7541707 6 10
-16.582804 23.673891 1.1775804 28 26
-17.536146 22.599308 -1.3324653 9 12
-16.917574 24.151815 -1.5453763 5 11
-17.521664 22.580643 3.5093498 27 29
-16.557543 23.637829 2.3559899 14 28
-18.290934 21.332848 -1.1448517 6 13
-16.093918 25.546801 -1.0543836 13 14
-17.632042 22.722889 7.7065959 33 31
-16.948252 24.19561 5.3860884 22 30
-18.119164 23.350657 -0.68775147 4 16
-18.262388 21.450647 -0.491739 16 17
-3.401552 4.4154105 -1.5603021 11 1
-4.2788906 6.1542239 -1.4991207 10 2
-18.198654 23.622904 0 16 20
-16.015427 25.62009 -0.35174698 9 18
-5.8059654 7.5364776 -1.4800879 16 3
-6.9087119 9.9366322 -1.5404724 14 4
-18.254492 21.441372 0.16366351 17 21
-9.5845938 12.441356 -1.6917051 2 5
-10.437235 16.696583 -1.838062 4 6
-18.203493 23.629183 0.6940791 15 24
-16.004827 25.603132 0.35151416 7 22
-16.235397 21.07448 -1.8602656 5 8
-12.631005 18.166866 -1.8062915 6 7
-18.11133 21.273216 -1.7905555 8 9
-16.004238 25.60219 -1.7583567 6 10
-17.300297 22.456783 1.6509157 14 27
-16.516033 23.754606 1.1787201 24 26
-17.483974 22.695206 -1.3345127 9 12
-16.844564 24.227127 -1.5464231 5 11
-17.471807 22.679415 3.5151997 27 29
-16.502239 23.734768 2.3598955 14 28
-18.24226 21.427004 -1.14648 6 13
-16.023708 25.633337 -1.05564 13 14
-17.562044 22.796547 7.7107372 20 31
-16.888397 24.290169 5.39398 22 30
-18.008253 23.375751 -0.68663484 4 16
-18.202898 21.532587 -0.49215785 16 17
-16.798506 24.341717 -0.86073071 9 15
-3.3790994 4.4180779 -1.5570674 9 1
-4.2351055 6.1368394 -1.491276 10 2
-18.14282 23.72123 0 16 20
-15.949095 25.713224 -0.35225922 9 18
-5.7820263 7.5598378 -1.4807029 14 3
-6.8807478 9.9704828 -1.5419877 14 4
