# .PCD v0.7 - Point Cloud Data file format
VERSION 0.7
FIELDS x y z intensity ring
SIZE 4 4 4 4 2
TYPE F F F F U
COUNT 1 1 1 1 1
WIDTH 1364
HEIGHT 1
VIEWPOINT 0 0 0 1 0 0 0
POINTS 1364
DATA ascii
41.927933 21.511034 -1.3714441 15 15
4.4084449 2.5411139 -1.4244363 7 1
5.1370277 2.6355407 -1.1547388 3 2
61.398224 35.391136 0 54 20
8.9819498 5.1773715 -1.6129084 1 3
11.565775 5.933795 -1.654619 2 4
13.034577 7.5133848 -1.6205927 2 5
16.199532 7.3347974 -1.6599811 1 6
20.268721 11.683287 -1.6359289 3 8
18.015932 9.2430344 -1.6530008 2 7
25.420418 11.509814 -1.625102 5 10
29.612461 15.192608 -1.744253 7 11
30.874063 19.866474 -1.4957485 12 13
42.50148 21.627565 -1.3878512 15 15
4.4435949 2.5417821 -1.4330627 8 1
5.1772003 2.6345019 -1.161799 3 2
8.9990683 5.1475596 -1.6129084 1 3
11.592459 5.8990102 -1.655629 2 4
13.045609 7.4622235 -1.6188792 2 5
16.23103 7.2843022 -1.6607246 1 6
20.293493 11.608088 -1.6348127 3 8
18.018055 9.1687784 -1.6503971 2 7
21.711489 13.869065 -1.6511281 7 9
25.385578 11.392759 -1.620451 5 10
31.182274 19.9189 -1.5074722 12 13
43.005085 21.69519 -1.4018147 15 15
4.4758916 2.5395627 -1.4406108 8 1
5.2108774 2.6287816 -1.1672902 3 2
9.0204191 5.1180682 -1.6135232 1 3
11.598808 5.8513622 -1.6536087 2 4
13.057741 7.4087925 -1.6171656 2 5
16.205408 7.2049518 -1.6555198 1 6
20.330418 11.535213 -1.6345336 3 8
18.067747 9.11481 -1.6520244 2 7
21.719307 13.76755 -1.6480581 7 9
25.468977 11.323549 -1.6232417 5 10
30.745495 17.444593 -1.6466434 8 12
31.4744 19.95116 -1.5182189 12 13
43.548786 21.78862 -1.4171745 16 15
4.5178528 2.5436044 -1.4513938 8 1
5.2511363 2.6272836 -1.1743505 3 2
9.0338955 5.0861897 -1.6129084 1 3
11.625245 5.8164201 -1.654619 2 4
13.096098 7.3732576 -1.6188792 2 5
16.178186 7.1286936 -1.6503149 1 6
20.361603 11.463822 -1.6339757 3 8
18.080046 9.045929 -1.6503971 2 7
21.724298 13.669945 -1.6449881 7 9
25.480806 11.227763 -1.6216137 5 10
30.792725 17.336668 -1.6460851 8 12
31.797472 20.008457 -1.5305939 13 13
44.058231 21.841955 -1.4311379 16 15
4.5540533 2.542047 -1.4600202 8 1
5.299387 2.6271818 -1.1829796 4 2
61.531063 34.346294 0 54 20
9.0317717 5.0414839 -1.609219 1 3
11.625156 5.763195 -1.6515884 2 4
13.109146 7.3174515 -1.6171656 2 5
20.372128 11.371607 -1.6314644 3 8
18.098795 8.9725142 -1.6490953 2 7
21.77087 13.58811 -1.6447322 7 9
25.503489 11.126307 -1.620451 5 10
30.831644 17.210051 -1.6447823 8 12
32.11132 20.042017 -1.5421548 13 13
44.650944 21.94195 -1.4478941 17 15
4.5763788 2.533596 -1.4643334 7 1
5.3542891 2.6311548 -1.1931777 4 2
61.713573 34.166153 0 54 20
9.0596886 5.015667 -1.6110637 1 3
11.645205 5.7225776 -1.6515884 2 4
13.120692 7.2639384 -1.6154521 2 5
16.269003 7.0301127 -1.6544045 17 6
20.38726 11.286889 -1.6295112 3 8
18.12285 8.9057617 -1.6484443 2 7
21.821566 13.514128 -1.6449881 7 9
25.542171 11.037208 -1.620451 5 10
32.429131 20.08341 -1.5540414 13 13
45.20509 22.028471 -1.4634866 18 15
4.6016359 2.5276802 -1.4697249 4 1
5.3982439 2.630568 -1.2010224 4 2
9.0728073 4.983696 -1.6104488 1 3
11.660548 5.6821928 -1.6510834 2 4
13.137736 7.2165627 -1.6145953 2 5
16.30687 6.982398 -1.6558915 3 6
20.410587 11.211543 -1.6283952 3 8
18.12361 8.8316469 -1.6458406 2 7
21.852655 13.433333 -1.6439646 7 9
25.530909 10.932017 -1.6174277 5 10
32.740692 20.126463 -1.5657649 13 13
45.908176 22.173103 -1.4837335 19 15
4.6138144 2.5134432 -1.4708033 4 1
5.4356494 2.6253543 -1.2072982 3 2
9.0901499 4.951993 -1.6104488 1 3
11.66602 5.6345496 -1.649063 2 4
13.152371 7.1649485 -1.6133101 2 5
16.33848 6.9285398 -1.6566353 1 6
20.477634 11.155493 -1.6306274 3 8
18.165102 8.7735291 -1.6468171 2 7
21.872154 13.340338 -1.6419181 7 9
25.539507 10.830352 -1.6155673 5 10
33.059837 20.163967 -1.5776515 14 13
46.476036 22.237677 -1.4994425 21 15
4.6297736 2.5001776 -1.4729598 4 1
5.4806166 2.6223443 -1.2151428 3 2
9.1082382 4.9186449 -1.6104488 1 3
11.697331 5.5968943 -1.6505783 2 4
13.182043 7.1185875 -1.6137384 2 5
16.341728 6.8593645 -1.6544045 1 6
20.490295 11.065201 -1.6283952 3 8
18.182749 8.7000113 -1.6455152 2 7
21.914068 13.255955 -1.6414064 7 9
25.380198 10.65322 -1.6030091 5 10
31.132215 16.812067 -1.6481324 8 12
33.417355 20.214363 -1.5911664 14 13
47.160027 22.373043 -1.5191077 23 15
4.6448298 2.4884477 -1.4751164 4 1
5.5353522 2.6260095 -1.2253408 4 2
9.1140461 4.8828111 -1.6086041 1 3
11.705072 5.5529675 -1.649063 2 4
13.212587 7.0785866 -1.6145953 2 5
16.346001 6.7974854 -1.6525457 1 6
20.540943 11.004722 -1.6295112 3 8
18.186287 8.6276999 -1.643237 2 7
21.940798 13.172933 -1.6401273 7 9
25.544439 10.622657 -1.6111487 5 10
31.124399 16.674763 -1.6447823 8 12
33.682953 20.22275 -1.6006105 14 13
47.773338 22.460089 -1.5363294 24 15
4.6602902 2.4758368 -1.4772731 4 1
5.5870786 2.6267009 -1.2347546 4 2
9.1310329 4.8509736 -1.6086041 1 3
11.720791 5.5103955 -1.648558 2 4
13.21614 7.0212374 -1.6120249 2 5
16.347527 6.7312984 -1.6503149 1 6
20.558084 10.921736 -1.6278371 3 8
18.234325 8.5726595 -1.6448643 2 7
21.976349 13.090153 -1.6393598 7 9
33.942177 20.217566 -1.609566 14 13
48.492954 22.592045 -1.5569254 26 15
4.6757202 2.4631438 -1.4794297 4 1
5.6388788 2.6270578 -1.2441682 5 2
62.234257 25.372005 -0.78242058 30 18
9.1479101 4.8190689 -1.6086041 1 3
11.729165 5.4644189 -1.6470428 2 4
13.222975 6.9657903 -1.609883 2 5
16.356174 6.6681762 -1.648828 1 6
62.349072 25.418816 0.78386408 42 22
20.627857 10.866642 -1.6303483 3 8
18.246073 8.500535 -1.643237 2 7
21.98411 12.991015 -1.6365457 7 9
25.769577 10.505884 -1.6206834 5 10
34.08136 20.139616 -1.6128227 14 13
49.137829 22.684048 -1.5750779 28 15
4.6911192 2.4503727 -1.4815862 4 1
5.6800661 2.6221528 -1.2512283 4 2
71.676559 28.930103 -0.89985579 30 18
9.1716852 4.7907643 -1.6098338 1 3
11.748171 5.42344 -1.6470428 2 4
13.250737 6.9214287 -1.6103113 2 5
16.394125 6.6169987 -1.6503149 1 6
20.630299 10.776091 -1.627558 3 8
18.275637 8.4367876 -1.643237 2 7
22.046543 12.924286 -1.6378249 7 9
25.802395 10.414366 -1.620451 5 10
34.320408 20.11956 -1.6208012 14 13
49.932995 22.840038 -1.5980012 30 15
4.6996436 2.4339838 -1.4815862 4 1
5.7248521 2.6186261 -1.259073 4 2
65.127708 33.730171 0 57 20
71.658249 28.632257 -0.89836574 30 18
9.1918612 4.76054 -1.6104488 1 3
11.75981 5.3790994 -1.6460326 2 4
58.839615 26.914049 -0.37605408 24 19
13.274816 6.8751354 -1.6103113 2 5
16.402328 6.5538263 -1.648828 1 6
20.65007 10.69484 -1.6261629 3 8
18.312222 8.3762627 -1.6438879 2 7
22.067366 12.833207 -1.636034 7 9
25.820047 10.316833 -1.6192881 5 10
34.580444 20.110151 -1.6297569 15 13
50.667942 22.962667 -1.6189464 32 15
4.7183909 2.4228413 -1.4848212 4 1
5.7839746 2.6212924 -1.2700557 4 2
71.791237 28.395166 -0.89878476 30 18
9.1943579 4.7212005 -1.6079891 1 3
11.771289 5.3347383 -1.6450225 2 4
58.92593 26.705181 -0.37600762 24 19
13.288121 6.8233023 -1.6090262 2 5
16.454735 6.508245 -1.6518022 1 6
20.67663 10.617219 -1.6253258 3 8
18.315933 8.300765 -1.6416097 2 7
22.06708 12.730163 -1.6327082 7 9
25.900463 10.244259 -1.6220788 5 10
34.823528 20.089165 -1.6378982 15 13
51.411629 23.08374 -1.6401243 33 15
4.7439828 2.4150949 -1.4902127 5 1
5.8396058 2.6219735 -1.2802538 4 2
9.214304 4.6908731 -1.6086041 1 3
11.77174 5.2854924 -1.6424971 2 4
58.934856 26.461657 -0.3754729 24 19
13.308312 6.775075 -1.6085978 2 5
16.440264 6.4362521 -1.6480843 1 6
20.624664 10.499726 -1.6183501 3 8
18.362982 8.2449493 -1.643237 2 7
22.139097 12.668922 -1.6347549 7 9
25.936062 10.153792 -1.6220788 5 10
35.139732 20.108433 -1.6494591 15 13
52.233486 23.234022 -1.6637458 36 15
4.7626996 2.4037282 -1.4934475 5 1
5.8881431 2.6191099 -1.288883 3 2
9.2341499 4.6604633 -1.609219 1 3
11.800992 5.2492094 -1.6440123 2 4
58.93549 26.215145 -0.37489173 24 19
13.303476 6.7142467 -1.6051707 2 5
16.473774 6.3831463 -1.6491997 1 6
73.214729 28.368748 0.91410446 61 22
20.622002 10.407897 -1.615281 3 8
18.384361 8.1775637 -1.6425861 2 7
22.165825 12.581717 -1.6334757 7 9
25.945284 10.053102 -1.620451 5 10
53.074898 23.397758 -1.6880655 38 15
4.7672005 2.3861959 -1.4923693 4 1
5.9398656 2.6185548 -1.2982966 5 2
9.2495556 4.6298137 -1.609219 1 3
11.814706 5.2084436 -1.6435072 2 4
13.343451 6.6789908 -1.6073126 2 5
16.47254 6.3199177 -1.6469691 1 6
18.425972 8.122982 -1.6438879 2 7
22.200474 12.50422 -1.632964 7 9
26.023218 9.9841681 -1.6232417 5 10
53.811691 23.509764 -1.7090107 40 15
4.7888875 2.3772256 -1.4966824 4 1
5.9988356 2.6208284 -1.3092791 4 2
9.2683964 4.6008744 -1.6098338 1 3
11.824639 5.1660609 -1.6424971 2 4
13.361963 6.6329398 -1.6068842 2 5
16.519466 6.2751608 -1.6495714 1 6
73.416222 27.888226 0.91429067 61 22
20.822819 10.336542 -1.6256049 15 8
18.467419 8.068222 -1.6451898 2 7
22.241814 12.430535 -1.632964 7 9
26.063646 9.9006577 -1.6237067 5 10
54.722725 23.680664 -1.7353086 42 15
4.8075247 2.365598 -1.4999173 4 1
6.0511436 2.6185668 -1.3186928 4 2
9.2808542 4.566751 -1.609219 1 3
11.831675 5.1200285 -1.6409819 2 4
13.385035 6.5862603 -1.6068842 2 5
16.530085 6.2132583 -1.6484561 1 6
18.488152 8.0005474 -1.6445389 2 7
22.274593 12.34702 -1.6321965 7 9
26.098047 9.8096228 -1.6237067 5 10
31.337755 15.420103 -1.6269141 8 12
45.005058 22.145258 -1.1671582 11 16
55.625065 23.829454 -1.7611411 43 15
4.8230877 2.3513362 -1.5020739 5 1
6.1075716 2.6164482 -1.3288909 3 2
9.3010826 4.5344338 -1.6098338 1 3
11.839418 5.071938 -1.6394666 2 4
13.384063 6.5249548 -1.6038855 2 5
16.549015 6.1512394 -1.6480843 1 6
20.932121 10.20476 -1.6283952 3 8
18.528345 7.9374356 -1.6455152 2 7
22.3197 12.265291 -1.6321965 7 9
26.103884 9.7027674 -1.6218463 5 10
35.776142 19.659977 -1.6631368 15 13
45.531647 22.197441 -1.1786969 12 16
56.153267 23.824108 -1.7752208 42 15
4.8382025 2.3378394 -1.5042306 5 1
6.1636076 2.6150293 -1.339089 4 2
9.3310881 4.5088201 -1.6122936 0 3
11.868009 5.0352321 -1.6409819 2 4
13.428241 6.4885807 -1.6064559 2 5
16.547956 6.0851912 -1.6458536 1 6
20.928091 10.112539 -1.6253258 3 8
18.555939 7.872715 -1.6455152 2 7
22.348356 12.179671 -1.6311733 7 9
26.141338 9.6129723 -1.6220788 5 10
36.020012 19.630611 -1.6712784 15 13
46.087727 22.269777 -1.1910728 13 16
56.604717 23.782814 -1.786857 42 15
4.8498082 2.3225987 -1.5053089 5 1
6.2341723 2.6193252 -1.352425 5 2
5.7428102 2.7502623 -0.99061966 1 3
11.8782 4.9906974 -1.6399717 2 4
13.425703 6.4296398 -1.6034572 2 5
16.576586 6.0301094 -1.6465973 1 6
20.966866 10.041142 -1.6256049 3 8
18.59066 7.8109779 -1.6461661 2 7
22.369669 12.090192 -1.6296383 7 9
26.107191 9.4970837 -1.6178927 5 10
36.148094 19.537054 -1.6740463 15 13
57.303871 23.841587 -1.8062894 41 15
4.8752851 2.313915 -1.5107003 5 1
6.2867336 2.6156297 -1.3618386 4 2
5.7666578 2.7369795 -0.99307936 2 3
11.891882 4.9476819 -1.6394666 2 4
13.448063 6.3827395 -1.6034572 2 5
16.590034 5.9695158 -1.6458536 1 6
21.016203 9.974741 -1.626721 3 8
18.617809 7.7460413 -1.6461661 2 7
22.376547 11.993181 -1.62708 7 9
26.087578 9.3869724 -1.614637 5 10
57.878437 23.843956 -1.8217657 41 15
4.890305 2.3001606 -1.5128571 5 1
6.3429728 2.61309 -1.3720367 5 2
5.7726007 2.7151496 -0.99246442 2 3
11.912751 4.90765 -1.6399717 2 4
13.473862 6.3374467 -1.6038855 2 5
16.599518 5.9075589 -1.6447383 1 6
21.022011 9.8877277 -1.6244888 3 8
18.629993 7.6749263 -1.6448643 2 7
22.432377 11.922486 -1.6281033 7 9
26.120188 9.295846 -1.614637 5 10
48.008312 22.580765 -1.2345283 17 16
58.88316 24.017769 -1.8507398 40 15
4.9087782 2.2879565 -1.5160918 4 1
6.4101653 2.6146333 -1.3845882 6 2
5.7856264 2.6966512 -0.99307936 2 3
11.907765 4.8570418 -1.6369413 2 4
13.488693 6.2870116 -1.6030288 2 5
16.620039 5.8495755 -1.6447383 1 6
21.096184 9.8328238 -1.627558 3 8
18.645597 7.6053267 -1.6438879 2 7
26.099745 9.1860447 -1.6113813 5 10
48.655903 22.67827 -1.2491376 18 16
59.708115 24.111557 -1.8740124 40 15
4.9272237 2.2756565 -1.5193268 5 1
6.4738059 2.6142766 -1.3963553 4 2
5.7950025 2.6764431 -0.99307936 2 3
11.935681 4.819912 -1.6384566 2 4
13.514164 6.2415662 -1.6034572 2 5
16.614023 5.7823734 -1.642136 1 6
21.141239 9.7641592 -1.6283952 3 8
18.649847 7.5312514 -1.6419351 2 7
26.090158 9.0804634 -1.6088231 5 10
4.9351377 2.2584422 -1.5193268 4 1
6.5338812 2.6120448 -1.4073378 4 2
5.8294683 2.6677101 -0.99738371 3 3
11.937698 4.7723246 -1.6364363 2 4
13.514171 6.1844215 -1.6008868 2 5
16.62281 5.7204514 -1.6410205 1 6
21.182453 9.6936188 -1.6289532 3 8
18.672323 7.4646206 -1.6416097 2 7
26.080166 8.9750366 -1.6062651 5 10
31.482502 14.407178 -1.6127687 8 12
59.733711 23.638218 -1.8695905 40 15
4.950007 2.2443836 -1.5214833 4 1
6.5940189 2.6094286 -1.4183204 4 2
59.020603 26.760544 0 48 20
5.8783412 2.6652999 -1.0041478 3 3
11.954283 4.7306275 -1.6364363 2 4
13.553785 6.1454244 -1.6030288 2 5
16.653988 5.666245 -1.642136 1 6
21.194353 9.6097355 -1.627279 3 8
18.668608 7.3876638 -1.639006 2 7
22.561144 11.589887 -1.6255449 7 9
26.099993 8.8800917 -1.6055673 5 10
31.510765 14.287303 -1.611652 8 12
51.014011 23.130272 -1.3033873 22 16
4.971087 2.2351387 -1.5257967 5 1
6.6679139 2.6144707 -1.4324408 5 2
58.929279 26.496241 0 48 20
5.9335485 2.6678882 -1.0121415 4 3
11.972779 4.6944938 -1.6369413 2 4
13.554891 6.094655 -1.6008868 2 5
16.656609 5.6088076 -1.6406487 1 6
21.271753 9.5643711 -1.6309063 3 8
18.676878 7.3231521 -1.6377041 2 7
22.568996 11.504443 -1.6234983 7 9
26.154255 8.8069649 -1.6071951 5 10
31.5555 14.188229 -1.611652 8 12
4.9858956 2.2209084 -1.5279531 5 1
6.7281914 2.611047 -1.4434233 4 2
59.05064 26.303411 0 48 20
5.9897604 2.6680684 -1.0201353 3 3
11.977995 4.6483679 -1.635426 2 4
13.590612 6.0537786 -1.6026003 2 5
16.660973 5.5456042 -1.6391618 1 6
21.261267 9.4705811 -1.627558 3 8
18.702324 7.2579165 -1.6377041 2 7
22.598326 11.420197 -1.6227309 7 9
26.188625 8.7168827 -1.6074277 5 10
31.593878 14.073121 -1.6110936 8 12
4.9979115 2.2033002 -1.5290315 5 1
6.8004236 2.609077 -1.4567593 4 2
6.0397444 2.6625865 -1.0268993 2 3
12.003166 4.6051817 -1.6364363 2 4
13.606481 5.9983382 -1.6017436 2 5
16.685928 5.4828286 -1.6395335 1 6
21.33399 9.4049654 -1.6303483 3 8
18.692837 7.1717668 -1.6344497 2 7
22.649151 11.336909 -1.6232425 7 9
26.244665 8.6237345 -1.6088231 5 10
31.559937 13.913015 -1.6066266 7 12
5.0193086 2.192884 -1.5333447 5 1
6.8567047 2.60462 -1.4669574 3 2
6.1101117 2.6694446 -1.0373528 4 3
7.3705254 2.7998025 -1.0035799 0 4
13.615362 5.9484105 -1.6004584 2 5
16.677502 5.4188542 -1.6369311 1 6
21.302896 9.3070145 -1.6256049 3 8
18.71279 7.1083283 -1.6341243 2 7
22.679468 11.258194 -1.6227309 7 9
26.299702 8.5452995 -1.610451 5 10
31.653496 13.829084 -1.6090463 7 12
5.0725069 2.196121 -1.5473626 5 1
6.8910036 2.5915308 -1.4724487 2 2
6.1660838 2.6695807 -1.0453466 3 3
13.642314 5.906384 -1.6013151 2 5
16.691587 5.3622971 -1.6365594 1 6
21.359276 9.2474117 -1.627558 3 8
18.73999 7.0476332 -1.6344497 2 7
22.720261 11.184681 -1.6229867 7 9
26.251858 8.4336052 -1.6057998 5 10
31.691854 13.720859 -1.608674 7 12
30.281036 11.387926 -1.6954757 7 11
5.1198492 2.1933141 -1.559224 5 1
6.9082561 2.5677869 -1.4740176 2 2
6.2235188 2.6661198 -1.0533404 3 3
7.4350038 2.7635782 -1.0096407 1 4
13.639301 5.8429985 -1.5983164 2 5
16.708256 5.2969666 -1.6361874 1 6
21.401962 9.168478 -1.6281161 3 8
18.759439 6.9728518 -1.6337988 2 7
22.748684 11.090366 -1.6219633 7 9
26.33353 8.3484373 -1.6088231 5 10
31.670843 13.567607 -1.6049515 7 12
30.320799 11.270189 -1.6952665 7 11
5.1735725 2.1949856 -1.5732419 2 1
6.9355845 2.5504239 -1.47794 2 2
6.2764502 2.6629024 -1.0607194 4 3
7.4483294 2.7389758 -1.0101458 2 4
13.652293 5.7922425 -1.5974597 2 5
16.74185 5.2433686 -1.6376746 1 6
21.386086 9.0734491 -1.6244888 3 8
18.787407 6.9086971 -1.6341243 2 7
22.708189 10.972678 -1.616335 7 9
26.332029 8.246911 -1.6069627 5 10
31.736406 13.464768 -1.6058822 7 12
30.337458 11.155999 -1.6940104 7 11
5.208848 2.1906688 -1.5818683 2 1
6.9583049 2.5339925 -1.4810779 2 2
6.3394351 2.6661565 -1.0699431 5 3
7.4904537 2.7277842 -1.0146915 2 4
13.666758 5.7477856 -1.5970314 2 5
16.750629 5.1883936 -1.6369311 1 6
21.410803 9.0046749 -1.6242096 3 8
18.809019 6.8496442 -1.6341243 2 7
22.764145 10.911641 -1.6178701 7 9
26.388321 8.1736031 -1.6088231 5 10
31.723305 13.341771 -1.6030904 7 12
30.402384 11.071578 -1.6956851 7 11
5.2630706 2.1908073 -1.5958861 2 1
6.982307 2.5137885 -1.4842157 2 2
6.4075465 2.6672072 -1.0797815 4 3
7.5638685 2.7231638 -1.0232776 2 4
13.698744 5.7022433 -1.5983164 2 5
16.75049 5.1211462 -1.6350722 1 6
21.406824 8.9108114 -1.6214195 3 8
18.822742 6.7766128 -1.6331478 2 7
22.746284 10.800742 -1.6137767 7 9
26.441011 8.0838404 -1.6102184 5 10
31.67976 13.187027 -1.5984372 7 12
30.375109 10.935726 -1.6919171 7 11
5.3059177 2.1880257 -1.6066693 2 1
6.9979944 2.4932511 -1.4857846 2 2
6.4638586 2.6655312 -1.0877755 3 3
7.6438766 2.7233665 -1.0328741 2 4
13.702874 5.6507173 -1.5966029 2 5
16.775003 5.0678697 -1.6358156 1 6
21.417812 8.8321619 -1.6200243 3 8
18.826332 6.7074609 -1.6315205 2 7
22.781981 10.725246 -1.6137767 7 9
26.417982 7.9810944 -1.6071951 5 10
31.723322 13.081892 -1.5984372 7 12
30.366053 10.818842 -1.6894048 7 11
5.3317332 2.175842 -1.6120608 1 1
7.0366817 2.4780095 -1.4920604 2 2
62.285156 25.418127 0 51 20
6.5211568 2.6612375 -1.0957693 5 3
7.7398882 2.7256479 -1.0444908 2 4
13.719809 5.5989556 -1.5961745 2 5
16.785835 5.0040808 -1.6350722 1 6
21.438953 8.7490835 -1.6191874 3 8
18.850788 6.6384182 -1.6315205 2 7
22.810284 10.63662 -1.6130093 7 9
26.454708 7.8865013 -1.6076603 5 10
31.771051 12.965538 -1.5984372 7 12
30.567507 10.76453 -1.6984066 7 11
5.3428679 2.158659 -1.613139 1 1
7.0601068 2.4585898 -1.4951984 2 2
6.5890427 2.6621466 -1.1056079 4 3
7.8205547 2.7234058 -1.0540872 2 4
13.731896 5.5480475 -1.5953177 2 5
16.784098 4.9398298 -1.6332133 1 6
21.458269 8.6697054 -1.6183501 3 8
18.862555 6.5686378 -1.6305442 2 7
22.872641 10.568645 -1.6148001 7 9
26.309698 7.7433672 -1.5971954 5 10
31.816122 12.85455 -1.5984372 7 12
30.612446 10.660384 -1.6988254 7 11
5.3603511 2.1461596 -1.6163739 1 1
7.090044 2.4440687 -1.4999051 3 2
6.6560817 2.6649401 -1.1154464 4 3
7.9078493 2.7259812 -1.0646937 2 4
13.727106 5.4960132 -1.5927474 2 5
16.80718 4.8893046 -1.6339568 1 6
21.481693 8.60077 -1.6180712 3 8
18.909481 6.518446 -1.6328224 2 7
26.429747 7.6885648 -1.6030091 5 10
58.689072 26.63493 -1.1249822 45 17
7.1100922 2.4218616 -1.5022585 2 2
6.7319474 2.6667295 -1.1265148 4 3
8.0079327 2.7276869 -1.0768155 2 4
13.739759 5.4427376 -1.5918906 2 5
16.836472 4.8309698 -1.6350722 1 6
21.535328 8.5307999 -1.6197454 3 8
18.914371 6.4426723 -1.6311951 2 7
23.013109 10.444066 -1.6196609 14 9
26.438557 7.5861425 -1.6018465 5 10
5.3608599 2.1030581 -1.6120608 4 1
7.1403875 2.4057827 -1.5069654 2 2
6.7922664 2.664597 -1.1351235 4 3
8.1071815 2.7315207 -1.0889373 2 4
13.765141 5.4000459 -1.5927474 2 5
16.867729 4.7794495 -1.6365594 1 6
21.526354 8.4447603 -1.616955 3 8
18.920525 6.3748178 -1.6298933 2 7
23.080383 10.382426 -1.6219633 7 9
26.49815 7.5082169 -1.6039394 5 10
5.3717585 2.0857251 -1.613139 4 1
7.1599069 2.3845596 -1.5093188 2 2
6.8604779 2.6637588 -1.1449621 4 3
8.1994915 2.7307866 -1.1000489 2 4
13.780199 5.3505206 -1.5923191 2 5
10.2679 2.8707123 -0.9952451 1 6
21.592899 8.3840046 -1.6197454 3 8
18.946445 6.3099885 -1.6302187 2 7
23.109194 10.298542 -1.6214517 7 9
26.43959 7.392014 -1.5988232 5 10
5.3721752 2.0632617 -1.6109824 2 1
7.1872268 2.3644314 -1.5132412 2 2
73.243813 28.130346 0 62 20
6.92554 2.6598539 -1.1541857 4 3
8.2810593 2.7242768 -1.1096451 2 4
13.784865 5.2942772 -1.5906055 2 5
10.328265 2.8468196 -1.0000782 1 6
21.642109 8.311965 -1.6211405 3 8
18.942934 6.2317872 -1.6279405 2 7
23.121218 10.202497 -1.6196609 7 9
26.397211 7.2759647 -1.5946372 5 10
5.3897891 2.0495441 -1.6142174 2 1
7.2062168 2.3442261 -1.5155945 2 2
7.0008206 2.6621618 -1.1652541 4 3
8.3843813 2.7274904 -1.122272 2 4
13.791195 5.2442985 -1.5893204 2 5
10.322276 2.8083744 -0.99859113 2 6
21.665823 8.2387381 -1.6208615 3 8
18.971077 6.1714067 -1.6285914 2 7
23.21344 10.151364 -1.6237541 7 9
26.30945 7.1579933 -1.5878931 5 10
32.0965 12.205153 -1.5995541 7 12
5.397264 2.0297771 -1.6142174 5 1
7.2409015 2.3261979 -1.5210859 2 2
7.0808196 2.6629205 -1.1769373 3 3
8.4812117 2.7246575 -1.1338887 2 4
13.817765 5.1965184 -1.5901771 2 5
10.424823 2.7952797 -1.0075138 2 6
21.718279 8.1677055 -1.6225355 3 8
18.985977 6.0993981 -1.6279405 2 7
23.210196 10.048774 -1.6209401 7 9
26.424217 7.0853076 -1.5932418 5 10
32.047516 12.052276 -1.5949008 7 12
43.391815 11.634947 -1.5688022 17 14
5.4151473 2.0149531 -1.6174523 2 1
7.2601929 2.304466 -1.5234393 2 2
7.1493421 2.6602395 -1.1867759 4 3
8.5965672 2.7286463 -1.1480306 3 4
13.82464 5.1440892 -1.5888919 2 5
10.592383 2.8006101 -1.0227566 3 6
21.698042 8.0737486 -1.6189082 3 8
19.003353 6.0318761 -1.6276151 2 7
23.28182 9.9834204 -1.6234983 7 9
26.448788 6.9930201 -1.5932418 5 10
36.69178 15.733713 -1.6265002 14 13
43.602211 11.528359 -1.5749445 17 14
5.4109569 1.9929893 -1.6142174 5 1
7.2865081 2.2862473 -1.5273616 2 2
7.2285943 2.6624703 -1.1984593 5 3
8.6926479 2.7274439 -1.1596473 3 4
13.84909 5.1009626 -1.5897487 2 5
10.732639 2.7996445 -1.0353969 3 6
21.788355 8.0251904 -1.6236516 3 8
19.027058 5.9700141 -1.6279405 2 7
23.373585 9.9311295 -1.6275916 7 9
26.495022 6.9113135 -1.5946372 5 10
36.839397 15.652577 -1.6307338 15 13
5.4214997 1.9754066 -1.6152955 4 1
7.3356557 2.2735693 -1.5359907 3 2
7.3046899 2.661576 -1.2095276 3 3
8.7968693 2.726449 -1.1722742 3 4
13.844391 5.0444164 -1.5871783 2 5
10.896636 2.8018327 -1.0502681 2 6
21.801239 7.9436159 -1.6225355 3 8
19.009699 5.8917527 -1.6246859 2 7
23.367636 9.8324432 -1.6247774 7 9
26.433903 6.7969031 -1.5895211 5 10
5.4138656 1.9512495 -1.6109824 2 1
7.4260583 2.273212 -1.5532491 3 2
7.3808641 2.6601892 -1.220596 3 3
8.9049807 2.7259293 -1.1854061 3 4
13.869394 4.9987659 -1.5880352 2 5
11.064635 2.8038986 -1.0655109 2 6
21.836338 7.8701882 -1.6230937 3 8
19.026335 5.8242064 -1.6243604 2 7
23.398123 9.7492952 -1.6245216 7 9
26.50391 6.7163782 -1.5923116 5 10
5.4315295 1.9362184 -1.6142174 0 1
7.5090375 2.2699742 -1.5689384 2 2
7.4682875 2.662277 -1.2335091 3 3
9.0321865 2.7304204 -1.2010634 3 4
62.24522 25.681065 0.39135107 30 21
13.901745 4.9556599 -1.5897487 2 5
11.23278 2.8048141 -1.0807537 2 6
21.856161 7.7912307 -1.6225355 3 8
19.038918 5.7554445 -1.6237096 2 7
23.487366 9.6903925 -1.6283591 7 9
26.507826 6.6189775 -1.5911489 5 10
30.715191 9.2851696 -1.681659 7 11
5.4455204 1.9198098 -1.6163739 0 1
7.6071196 2.2706759 -1.5877658 1 2
7.5371757 2.6572199 -1.2433476 3 3
9.1405201 2.7283862 -1.2141953 3 4
62.293739 25.447006 0.39109531 30 21
13.911455 4.9044623 -1.5888919 2 5
11.424271 2.8103039 -1.0982273 2 6
21.845591 7.7016296 -1.6197454 3 8
19.051252 5.6866755 -1.6230587 2 7
23.480396 9.5917473 -1.6255449 7 9
26.519135 6.5235524 -1.5904511 5 10
30.693829 9.1619091 -1.6787282 7 11
71.656349 28.994707 -1.3492805 45 17
5.4482198 1.9004709 -1.6152955 0 1
7.7011375 2.2709513 -1.6058086 1 2
7.6205854 2.6582444 -1.2556458 3 3
9.2636967 2.7317266 -1.2293475 3 4
13.893849 4.8465104 -1.5850365 2 5
11.59996 2.8127573 -1.1142136 3 6
21.844639 7.6199384 -1.6177921 3 8
19.031767 5.612186 -1.619804 2 7
23.500977 9.5093317 -1.6247774 7 9
26.459127 6.4158063 -1.5855675 5 10
58.86285 17.134657 -1.7841808 42 15
7.7579761 2.2583048 -1.6160066 1 2
7.7045474 2.6574004 -1.267944 3 3
9.3646126 2.7259881 -1.2414693 3 4
13.914442 4.7992749 -1.5854648 2 5
11.799524 2.8175714 -1.1324307 2 6
21.833384 7.530623 -1.6150018 3 8
19.058897 5.5479422 -1.6204549 2 7
23.474743 9.4034843 -1.6206843 7 9
26.500782 6.3280387 -1.5867302 5 10
31.782173 10.962092 -1.5660516 7 12
59.106758 16.982092 -1.7897661 42 15
5.4540634 1.8599023 -1.613139 12 1
7.7808909 2.2355449 -1.6191446 1 2
7.792336 2.6572819 -1.2808572 4 3
9.4922953 2.7272522 -1.2571265 3 4
72.391037 28.7055 0.45260864 64 21
13.916053 4.745544 -1.5837513 2 5
11.991505 2.8192079 -1.1499041 2 6
21.840654 7.4479303 -1.6136068 3 8
19.066652 5.4780822 -1.6194786 2 7
23.544531 9.3362036 -1.6232425 7 9
26.487722 6.2272754 -1.5846373 5 10
32.164387 10.968449 -1.5829887 7 12
59.261841 16.802946 -1.7926751 42 15
5.4714727 1.8445456 -1.6163739 8 1
7.7848735 2.2073026 -1.61836 0 2
7.8914514 2.6603701 -1.295615 4 3
9.6315517 2.7309048 -1.2742989 3 4
13.932531 4.6969423 -1.5837513 2 5
12.179758 2.8186405 -1.1670058 2 6
21.832487 7.3601789 -1.6110955 3 8
19.066477 5.4060593 -1.6178513 2 7
23.524952 9.2335472 -1.6196609 7 9
26.482065 6.1284814 -1.5830094 5 10
30.813393 8.7367487 -1.678519 7 11
5.4742236 1.8242161 -1.6152955 10 1
7.9719357 2.6565471 -1.3072983 3 3
9.7518425 2.7282684 -1.288946 3 4
13.990347 4.662107 -1.5884635 2 5
12.406985 2.8256307 -1.1878253 2 6
21.816406 7.2700429 -1.6080263 3 8
19.077557 5.3373189 -1.6172004 2 7
23.538439 9.1441402 -1.6183817 7 9
26.464363 6.0271301 -1.5806838 5 10
32.467621 10.819427 -1.5941564 7 12
5.4732404 1.8026874 -1.613139 14 1
7.792531 2.1508126 -1.6167911 1 2
8.0712576 2.6583803 -1.3220561 4 3
9.8913555 2.7301085 -1.3061186 3 4
73.258881 28.165489 0.45616552 111 21
8.5784359 2.8254263 -0.97286969 1 5
12.607203 2.8249786 -1.2060423 2 6
21.788588 7.1763725 -1.6041198 3 8
19.088383 5.2685752 -1.6165494 2 7
23.573936 9.0633574 -1.6186376 7 9
26.504725 5.9390869 -1.5818466 5 10
32.508984 10.707283 -1.5943424 7 12
50.56913 13.767764 -1.5252749 23 15
5.4794998 1.7835698 -1.613139 18 1
7.8037753 2.1246269 -1.6175755 1 2
8.1518965 2.6534314 -1.3337394 5 3
10.019512 2.727875 -1.3217758 3 4
73.349281 27.906729 0.45611903 41 21
8.6147184 2.8040791 -0.9758684 1 5
12.834789 2.8289571 -1.2268618 2 6
21.817303 7.1015024 -1.604399 3 8
19.125891 5.2071438 -1.6181767 2 7
23.560663 8.963974 -1.6155677 7 9
26.521393 5.845665 -1.581614 5 10
32.439777 10.559104 -1.5891309 7 12
50.964424 13.684464 -1.5357475 24 15
5.4820261 1.7632511 -1.6120608 27 1
7.8111453 2.0973716 -1.6175755 2 2
8.2514133 2.6540027 -1.3484972 3 3
10.163103 2.7288959 -1.3394535 4 4
8.6206684 2.7727709 -0.97544003 1 5
13.074233 2.8339112 -1.2487966 2 6
21.857153 7.0301833 -1.605515 3 8
19.117001 5.1331081 -1.6158985 2 7
23.576868 8.8760443 -1.6145443 7 9
26.455782 5.7344346 -1.5764978 5 10
32.54491 10.467817 -1.5924813 7 12
51.595509 13.661049 -1.5533183 26 15
5.4991593 1.7476081 -1.6152955 21 1
7.8222108 2.0711029 -1.61836 2 2
8.3547955 2.6551166 -1.36387 2 3
10.310655 2.7299733 -1.3576361 2 4
8.6681957 2.7547135 -0.97972393 2 5
13.278805 2.8297701 -1.2673854 2 6
21.839727 6.9405665 -1.6024458 3 8
19.16563 5.0745234 -1.6185021 2 7
23.607702 8.7937088 -1.6145443 7 9
26.491257 5.6454 -1.5774281 5 10
32.539356 10.34086 -1.5904337 7 12
52.090763 13.617188 -1.5669326 27 15
7.8210878 2.0445316 -1.6167911 2 2
8.4535894 2.6572993 -1.3786278 4 3
10.457384 2.7336929 -1.3758186 4 4
8.7488928 2.7501247 -0.98786318 2 5
13.521498 2.8371062 -1.2896919 2 6
21.84239 6.865931 -1.6010506 3 8
19.154478 5.0072241 -1.6162239 2 7
23.601509 8.7070589 -1.6122419 7 9
26.430698 5.5457397 -1.5727769 5 10
52.660675 13.569977 -1.5826415 28 15
5.5253439 1.7156668 -1.6196089 1 1
7.8395715 2.0201564 -1.6191446 0 2
8.5458565 2.6535618 -1.3921558 2 3
10.609033 2.7338107 -1.3945063 4 4
8.8533916 2.7490542 -0.99857295 3 5
13.78096 2.8413646 -1.3134857 2 6
21.885277 6.7955666 -1.6024458 3 8
19.152538 4.9353619 -1.6145968 2 7
23.646753 8.6300993 -1.6132652 7 9
26.489006 5.4615149 -1.5751024 5 10
32.626301 10.130747 -1.5913644 7 12
53.122383 13.491368 -1.5950922 29 15
5.5239344 1.6941091 -1.6174523 2 1
7.8541789 1.9947077 -1.6207134 0 2
8.6533155 2.6538441 -1.4081435 3 3
10.753119 2.7309446 -1.4121839 4 4
8.9693966 2.7507813 -1.0105679 3 5
14.048419 2.8454189 -1.3380229 2 6
21.924124 6.723805 -1.6035618 3 8
19.212154 4.8792663 -1.6181767 2 7
23.68049 8.5488539 -1.6135209 7 9
26.511822 5.3698025 -1.575335 5 10
32.646191 10.012105 -1.5906199 7 12
5.5187545 1.6714683 -1.6142174 2 1
8.7646599 2.6545572 -1.424746 3 3
10.916555 2.7319269 -1.4323869 3 4
9.0740986 2.7482774 -1.0212775 3 5
14.316073 2.8476477 -1.3625602 2 6
21.920729 6.639143 -1.6016086 3 8
11.730042 2.9355063 -0.98711389 1 7
23.725224 8.4715157 -1.6145443 7 9
26.506905 5.2725577 -1.5739397 5 10
32.612106 9.8772459 -1.5872698 7 12
30.759899 7.6978312 -1.6617714 6 11
5.528533 1.6523337 -1.6152955 2 1
7.8606343 1.9365807 -1.6191446 7 2
8.8349209 2.6405263 -1.4345846 2 3
11.084458 2.7308164 -1.4530947 3 4
9.1946135 2.748029 -1.0337008 3 5
14.60395 2.8493097 -1.3889562 2 6
21.956383 6.5621877 -1.6024458 3 8
11.744592 2.8934495 -0.98743933 3 7
23.774933 8.3911495 -1.6158235 7 9
26.526049 5.1753759 -1.5739397 5 10
32.640427 9.7553682 -1.5868974 7 12
30.83057 7.5955558 -1.6640742 6 11
5.5339828 1.6339898 -1.6152955 2 1
7.8670135 1.910501 -1.6191446 5 2
8.8815365 2.6224041 -1.4407337 2 3
11.166717 2.7118325 -1.4626912 3 4
9.3142891 2.7501807 -1.0461241 3 5
14.875389 2.8510911 -1.4138653 2 6
21.932102 6.4757757 -1.5990975 3 8
11.823856 2.8714187 -0.99329752 3 7
63.205009 15.349311 1.135314 27 23
23.8064 8.3135719 -1.6160793 7 9
26.523458 5.0836177 -1.5727769 5 10
32.61129 9.6289625 -1.5839194 7 12
30.80901 7.4819555 -1.6615621 6 11
5.5396528 1.6146611 -1.6152955 2 1
7.8888936 1.8866755 -1.6222824 13 2
8.9209919 2.6002312 -1.445653 2 3
11.230144 2.6857553 -1.4697622 3 4
9.442193 2.7521474 -1.059404 3 5
15.194464 2.8572917 -1.4432356 2 6
21.946911 6.3969393 -1.5985394 3 8
11.98115 2.8653629 -1.0056649 4 7
63.203751 15.115551 1.1343366 27 23
23.789999 8.2147808 -1.6130093 7 9
16.310007 3.0670676 -0.96650314 2 10
32.579487 9.4960518 -1.5807552 7 12
56.362061 13.271483 -1.6851565 37 15
5.5415549 1.5942481 -1.6142174 2 1
7.8725247 1.8537307 -1.6175755 14 2
8.9604034 2.5778155 -1.4505723 2 3
11.278074 2.6556299 -1.4748129 3 4
63.323097 14.910587 -0.37809986 24 19
9.562582 2.751056 -1.0718273 3 5
15.392345 2.8389053 -1.4610809 2 6
21.992119 6.3269053 -1.6002135 3 8
12.161826 2.8637257 -1.0199851 3 7
23.87142 8.1497374 -1.6165909 7 9
16.407009 3.026046 -0.97161931 2 10
32.554844 9.3656921 -1.5779636 7 12
57.381794 13.300406 -1.714247 40 15
5.5507894 1.5759504 -1.6152955 2 1
7.9018717 1.8315585 -1.6222824 9 2
8.9883547 2.5519254 -1.4536468 2 3
11.345257 2.6296935 -1.482389 3 4
9.6830711 2.7491655 -1.0842506 3 5
15.464863 2.7965086 -1.4670292 2 6
21.979517 6.2403069 -1.5977023 3 8
12.377586 2.8689749 -1.0372343 3 7
23.90728 8.0689306 -1.6171025 7 9
16.555002 2.9936383 -0.97975886 2 10
32.564266 9.245471 -1.5768467 7 12
5.5488396 1.5544852 -1.613139 2 1
9.0276566 2.529062 -1.4585661 2 3
11.40079 2.6006618 -1.4884498 3 4
9.815156 2.7496769 -1.097959 3 5
15.576493 2.7605751 -1.4766954 1 6
22.005013 6.1646166 -1.5979813 3 8
12.593533 2.872741 -1.0544837 3 7
23.87093 7.9639468 -1.6127535 7 9
16.923161 2.9992411 -1.0009215 2 10
32.584801 9.1285028 -1.5762885 7 12
66.135223 18.527519 -1.5981778 36 16
5.5582128 1.5351642 -1.6142174 2 1
7.9032946 1.7723923 -1.619929 1 2
9.0597239 2.5022726 -1.4622555 2 3
11.448963 2.5675437 -1.4935007 3 4
9.9555054 2.7496853 -1.1125243 3 5
15.672836 2.7184436 -1.4848745 3 6
21.981302 6.0711799 -1.594633 3 8
12.810152 2.8728039 -1.071733 3 7
23.881001 7.8701606 -1.6114743 7 9
17.343225 3.0081713 -1.0251073 2 10
32.610336 9.0068922 -1.5759161 7 12
5.5630078 1.517696 -1.6142174 2 1
7.9049935 1.7467099 -1.6191446 2 2
9.0904179 2.4800417 -1.4659449 2 3
11.511216 2.5435512 -1.5005716 3 4
10.090707 2.7529399 -1.1266611 3 5
15.78338 2.6865711 -1.4945407 1 6
21.988716 5.9989471 -1.5937959 3 8
13.037113 2.8807178 -1.0899585 3 7
23.844885 7.7753015 -1.6073811 7 9
17.722633 3.0166616 -1.0469676 3 10
32.642323 8.9054565 -1.5761023 7 12
58.83009 12.762528 -1.7519484 43 15
5.5687947 1.4963232 -1.6142174 2 1
7.9078102 1.7155107 -1.61836 2 2
9.122777 2.4512708 -1.4696344 2 3
11.567431 2.5094244 -1.5066324 3 4
10.23947 2.7513242 -1.142083 3 5
15.895728 2.6429274 -1.5042069 1 6
22.023149 5.9175739 -1.594633 3 8
13.262363 2.8771212 -1.1078587 3 7
23.859365 7.6787891 -1.6063577 7 9
18.159515 3.0193195 -1.0720836 3 10
32.668564 8.7779741 -1.57573 7 12
5.5697441 1.477834 -1.613139 2 1
7.9169955 1.69148 -1.6191446 2 2
9.1762762 2.4347639 -1.4770133 2 3
11.617943 2.4821939 -1.5121883 3 4
10.378759 2.7538216 -1.1566482 3 5
16.017946 2.6115651 -1.5149884 1 6
21.979925 5.8319874 -1.5901686 3 8
13.501364 2.8845901 -1.1270608 3 7
23.871962 7.6001668 -1.6055902 7 9
18.614265 3.034869 -1.0983624 3 10
32.69598 8.6753044 -1.57573 7 12
5.5785961 1.4593564 -1.6142174 2 1
7.919014 1.6630262 -1.61836 2 2
9.2076626 2.4087176 -1.4807029 2 3
11.684787 2.4538543 -1.5197643 3 4
10.538363 2.7568276 -1.1733553 3 5
16.10169 2.5675478 -1.5220522 3 6
22.019451 5.7602715 -1.5915638 3 8
13.749351 2.8874214 -1.1469136 3 7
23.886921 7.5131917 -1.6048228 7 9
19.090067 3.0440691 -1.1258041 3 10
32.753124 8.5681915 -1.5770329 7 12
30.894772 6.4880319 -1.6544445 6 11
5.5876365 1.4398624 -1.6152955 2 1
7.9250555 1.6339922 -1.61836 2 2
9.2470474 2.3828456 -1.485622 2 3
11.744222 2.4214296 -1.5263304 3 4
10.675484 2.7509356 -1.1874921 2 5
16.315628 2.5403805 -1.5413846 3 6
22.009499 5.671566 -1.5893315 3 8
14.021449 2.8909497 -1.1687193 3 7
23.818989 7.3960023 -1.5984269 6 9
19.594309 3.0508785 -1.1548736 3 10
32.726265 8.4331388 -1.5742409 7 12
5.5849152 1.419426 -1.613139 2 1
7.9265862 1.606921 -1.6175755 1 2
9.2817144 2.3589807 -1.4899265 2 3
11.872743 2.4069076 -1.5419877 3 4
10.834874 2.7537215 -1.2041993 2 5
16.698004 2.5432265 -1.5767033 1 6
22.020454 5.5965767 -1.5887735 3 8
14.292747 2.8975039 -1.1905251 3 7
23.809042 7.3064299 -1.5961245 6 9
20.153049 3.0694549 -1.1871989 3 10
32.695969 8.3097963 -1.5714492 7 12
5.5975533 1.4008156 -1.6152955 2 1
7.9401174 1.5793864 -1.6191446 1 2
9.3094692 2.329741 -1.4930011 2 3
12.083858 2.4036269 -1.5682515 3 4
11.010789 2.7555046 -1.22262 2 5
17.097219 2.5399425 -1.6135092 1 6
21.99824 5.5051689 -1.5857041 3 8
14.55743 2.8956506 -1.2116798 3 7
23.862406 7.22721 -1.5979153 6 9
20.67765 3.071847 -1.2174312 3 10
32.706825 8.1850462 -1.5705186 7 12
30.903332 6.1470499 -1.6513042 6 11
37.241123 11.279223 -1.5853044 14 13
5.598187 1.3823013 -1.6142174 2 1
7.9411907 1.5536826 -1.61836 1 2
9.393486 2.3194344 -1.5052992 3 3
12.328891 2.4121296 -1.5990609 1 4
11.173831 2.7590363 -1.2397555 2 5
17.140583 2.4913766 -1.616855 1 6
22.034796 5.4408197 -1.5870993 3 8
14.863808 2.9080827 -1.2364147 4 7
23.877346 7.1499233 -1.5974036 6 9
21.303665 3.0964787 -1.2537099 3 10
65.079842 16.069479 3.9039192 52 27
32.619877 8.0544815 -1.5651209 7 12
30.844084 6.0346007 -1.6471174 6 11
37.395061 11.19772 -1.5903522 14 13
5.6032157 1.3617748 -1.6142174 2 1
7.9429779 1.5238286 -1.6175755 1 2
9.5286655 2.3157945 -1.5255913 2 3
12.458452 2.3901043 -1.6147182 2 4
11.353908 2.7593913 -1.2586046 2 5
17.078623 2.4184892 -1.6101632 1 6
22.046833 5.3581414 -1.5865413 3 8
15.164101 2.9091721 -1.2604985 4 7
23.865107 7.0510545 -1.5948453 6 9
21.967247 3.1107631 -1.2920817 3 10
32.610352 7.9254408 -1.5632596 7 12
30.862068 5.9207644 -1.646908 6 11
5.611681 1.3431027 -1.6152955 2 1
7.9443951 1.4953656 -1.6167911 1 2
9.6750717 2.3156366 -1.5477281 1 3
12.458921 2.3451304 -1.613708 2 4
11.525917 2.7586188 -1.276597 2 5
17.098793 2.3604882 -1.6112784 1 6
22.04212 5.2755728 -1.5848671 3 8
15.479764 2.9137406 -1.2858843 4 7
23.870413 6.9621115 -1.5935662 6 9
22.662308 3.1285315 -1.3323139 4 10
32.595074 7.801322 -1.5612123 7 12
5.6050878 1.3208568 -1.6120608 1 1
7.9495659 1.467627 -1.6167911 1 2
9.8254366 2.3153954 -1.5704796 1 3
12.470933 2.3023496 -1.614213 4 4
11.721281 2.7621572 -1.2971596 3 5
17.150351 2.3066311 -1.615368 1 6
22.07205 5.2013488 -1.5857041 3 8
15.819161 2.9204903 -1.3132228 4 7
23.906076 6.8820643 -1.5943336 6 9
23.456697 3.1548011 -1.3783599 4 10
32.590992 7.680171 -1.5597233 7 12
5.6134162 1.3021522 -1.613139 2 1
7.9546404 1.4398667 -1.6167911 1 2
9.8912125 2.2944787 -1.5797032 0 3
12.482799 2.2595069 -1.6147182 4 4
11.912935 2.7634604 -1.3172938 3 5
17.126705 2.2426097 -1.6123939 1 6
22.0823 5.1224623 -1.5851461 3 8
16.150942 2.9234765 -1.3399103 2 7
23.906918 6.7920218 -1.5927987 6 9
24.132751 3.1599977 -1.4174294 4 10
63.180485 14.656067 3.7771761 50 27
32.59425 7.5609345 -1.5586066 7 12
26.794794 3.5085716 -0.94368237 5 14
5.6294179 1.2841405 -1.6163739 2 1
7.963727 1.411388 -1.6175755 1 2
9.9072628 2.2599704 -1.5809331 0 3
12.490996 2.2137427 -1.6147182 4 4
12.105222 2.7613523 -1.3374281 3 5
22.128159 5.0477095 -1.5870993 3 8
16.522703 2.9282703 -1.3698523 4 7
23.931652 6.7043591 -1.5927987 6 9
24.350159 3.0977354 -1.4295224 4 10
63.521873 14.490132 3.7943852 50 27
32.617847 7.4405379 -1.5584204 7 12
27.100929 3.4476781 -0.95401263 5 14
5.622149 1.2639152 -1.613139 2 1
7.9642572 1.3856915 -1.6167911 1 2
12.513527 2.1772134 -1.6167384 4 4
12.300083 2.7651813 -1.3579906 3 5
17.161333 2.1284387 -1.6142526 4 6
22.151691 4.9799213 -1.5876573 3 8
16.88139 2.9371727 -1.3988181 2 7
23.941053 6.6259527 -1.5920312 6 9
24.581692 3.0487506 -1.4425454 4 10
32.672249 7.345047 -1.5599095 7 12
28.254171 3.5042307 -0.99421686 5 14
5.6305056 1.2441304 -1.6142174 2 1
7.9731493 1.3571479 -1.6175755 1 2
9.9301348 2.1941869 -1.582163 2 3
12.51751 2.1306653 -1.6162332 2 4
12.535369 2.7698457 -1.3828372 3 5
17.196697 2.0688505 -1.616855 1 6
13.523966 2.9882884 -0.96849889 1 8
17.27327 2.9401658 -1.4303875 2 7
23.957476 6.5360518 -1.5915195 6 9
24.822651 2.9862916 -1.4560337 4 10
32.61702 7.2071362 -1.5560008 7 12
29.723427 3.5758801 -1.0454494 6 14
5.6423421 1.2261057 -1.6163739 2 1
7.9817076 1.3299547 -1.61836 1 2
9.9377337 2.159513 -1.582163 1 3
12.73539 2.7674561 -1.4038283 3 5
17.172169 2.0051191 -1.6138809 1 6
13.557709 2.9461496 -0.97017306 1 8
17.519379 2.9191725 -1.4499151 2 7
24.010979 6.4606876 -1.5935662 6 9
25.074865 2.9278824 -1.4702197 4 10
32.681023 7.1017299 -1.5578622 7 12
19.050842 3.1743531 -1.0121775 2 11
31.601904 3.690016 -1.1110604 7 14
61.258682 16.253891 -1.1062732 45 17
5.6465878 1.2064012 -1.6163739 2 1
7.9863014 1.302083 -1.61836 1 2
9.9529419 2.1264596 -1.5833927 0 3
12.528163 2.0425861 -1.6157283 4 4
12.873317 2.7504017 -1.4179651 3 5
17.179066 1.94516 -1.6138809 1 6
13.614738 2.9088073 -0.97352135 1 8
17.643572 2.8766 -1.4593533 2 7
23.987091 6.3645434 -1.5904963 6 9
25.469818 2.8839099 -1.4927776 4 10
32.678265 6.9817557 -1.5565592 7 12
19.073635 3.1097569 -1.0128056 2 11
61.091713 15.992941 -1.102294 45 17
5.6543269 1.1884632 -1.6174523 2 1
7.9944477 1.2762123 -1.6191446 1 2
9.9986172 2.1015744 -1.5895418 1 3
12.53095 2.0004072 -1.6152232 8 4
12.960205 2.7240605 -1.4265327 3 5
17.169584 1.8864453 -1.6123939 1 6
13.811744 2.9030423 -0.98691458 3 8
17.775057 2.8375626 -1.4694425 2 7
23.996475 6.2819357 -1.5897287 6 9
26.467607 2.9080315 -1.5506841 5 10
32.744244 6.8823986 -1.5586066 7 12
19.312628 3.0830162 -1.0249475 2 11
64.328606 13.521006 -1.5295981 34 16
60.988384 15.738632 -1.0994318 45 17
5.6471238 1.1663826 -1.6142174 2 1
7.9988537 1.2483003 -1.6191446 1 2
10.009763 2.067462 -1.5901568 1 3
13.024161 2.6900694 -1.4325302 4 5
17.176065 1.8265041 -1.6123939 1 6
14.091429 2.9105077 -1.0061674 3 8
17.899084 2.793329 -1.4788808 2 7
23.987335 6.1901603 -1.5876821 6 9
26.529221 2.8211193 -1.5537072 5 10
32.627193 6.7389688 -1.551906 7 12
19.777147 3.0864193 -1.049022 2 11
60.918922 15.494086 -1.0971979 45 17
5.658711 1.1481936 -1.6163739 2 1
8.0031624 1.2203693 -1.6191446 1 2
9.997551 2.0285759 -1.5870821 1 3
12.568145 1.9164647 -1.6182537 2 4
13.10363 2.6588218 -1.4402412 4 5
17.178375 1.7661256 -1.6120222 1 6
14.355691 2.912874 -1.024304 3 8
18.034845 2.7500591 -1.4892955 2 7
24.020403 6.1093364 -1.5884496 6 9
26.574657 2.7321668 -1.5558003 5 10
32.677933 6.6305904 -1.5532089 7 12
20.30905 3.0968435 -1.0766554 2 11
60.941601 15.273549 -1.0966394 45 17
5.6589065 1.1276797 -1.6152955 2 1
7.9957352 1.1906903 -1.6167911 1 2
12.578684 1.8731632 -1.6187587 2 4
13.163535 2.6231658 -1.4458103 4 5
17.156693 1.7033919 -1.6094196 1 6
14.627964 2.9149902 -1.0429988 3 8
18.162634 2.7047007 -1.4990592 2 7
24.002865 6.0157413 -1.5858914 6 9
26.619795 2.6429305 -1.5578933 5 10
32.67345 6.5110078 -1.551906 7 12
20.868919 3.1077092 -1.1057541 3 11
40.305149 4.0016727 -1.4144069 13 14
60.998428 15.061703 -1.0967093 45 17
5.6741486 1.1101396 -1.6185305 2 1
8.0037241 1.1633387 -1.6175755 1 2
9.9959545 1.9556949 -1.5846225 6 3
12.565512 1.826393 -1.6162332 2 4
13.219446 2.5863669 -1.4509509 4 5
17.182354 1.6453955 -1.6112784 1 6
14.916085 2.9183121 -1.0628097 3 8
18.29821 2.6596391 -1.5094738 2 7
23.984961 5.9223552 -1.5833329 6 9
26.593082 2.5465741 -1.5558003 5 10
32.637154 6.3854156 -1.5491141 7 12
21.567459 3.1348233 -1.1421801 3 11
61.049332 14.8371 -1.0966394 45 17
5.6781793 1.0893366 -1.6185305 2 1
8.0157022 1.1350974 -1.6191446 1 2
9.9991741 1.9183025 -1.5840077 9 3
12.556406 1.7781031 -1.614213 2 4
13.267894 2.5453937 -1.4552348 4 5
17.196203 1.5831419 -1.6120222 1 6
15.216671 2.9192591 -1.0834576 3 8
18.532835 2.6244206 -1.5280249 2 7
23.963839 5.8240418 -1.5805188 6 9
26.606216 2.44946 -1.5560329 5 10
32.605404 6.2552195 -1.5465084 7 12
22.2393 3.1492903 -1.1771405 3 11
61.160419 14.64949 -1.0977564 45 17
58.051216 8.0243263 -1.7055198 39 15
5.6779757 1.0697892 -1.6174523 2 1
8.0194206 1.1085117 -1.6191446 1 2
10.013247 1.8865989 -1.5852374 12 3
12.570094 1.7375438 -1.6152232 2 4
13.330977 2.5116937 -1.4612323 4 5
17.19739 1.5257599 -1.6116502 1 6
15.543891 2.9286294 -1.1060587 1 8
18.999542 2.626276 -1.565778 2 7
23.994661 5.7473373 -1.5812863 6 9
26.606234 2.3605168 -1.5555677 5 10
32.5867 6.1396704 -1.5446472 7 12
22.961859 3.1739807 -1.2148224 3 11
43.199879 3.8327124 -1.5144986 16 14
61.363007 14.471698 -1.100479 45 17
5.6740994 1.0485612 -1.6152955 1 1
8.0154676 1.0794626 -1.6175755 1 2
12.556421 1.691004 -1.6126978 2 4
13.429613 2.4817631 -1.4710852 4 5
17.226421 1.4677446 -1.6138809 1 6
15.848307 2.9287324 -1.1269855 1 8
19.336535 2.6040986 -1.592791 2 7
24.006811 5.6617064 -1.5807747 6 9
26.570547 2.2638931 -1.5530096 5 10
32.541142 6.0135322 -1.5414832 7 12
23.72497 3.1950998 -1.2545977 4 11
43.320538 3.6910446 -1.5182678 16 14
61.605446 14.313371 -1.1039695 45 17
5.677546 1.0297378 -1.6152955 2 1
8.0267811 1.0538956 -1.6191446 1 2
10.021969 1.817687 -1.5846225 1 3
12.601302 1.6545184 -1.6177485 2 4
13.500379 2.4485669 -1.4779394 4 5
17.211348 1.4089824 -1.6120222 1 6
16.19166 2.9366853 -1.1507027 1 8
19.380638 2.5446277 -1.5957202 2 7
24.002125 5.5766387 -1.5792397 6 9
26.597807 2.1773915 -1.5541724 5 10
32.584492 5.9098573 -1.5425998 7 12
24.658237 3.2375629 -1.3033748 4 11
43.300671 3.5447476 -1.517151 16 14
5.6924829 1.0119343 -1.6185305 2 1
8.0226297 1.0248743 -1.6175755 1 2
10.036036 1.7840737 -1.5858524 1 3
12.575513 1.6064956 -1.613708 2 4
13.751612 2.4445796 -1.5044994 4 5
17.239985 1.3507569 -1.6142526 1 6
16.575035 2.9464905 -1.1772103 2 8
19.381493 2.4759455 -1.5950692 2 7
24.009771 5.4901457 -1.5784721 6 9
26.565435 2.0814083 -1.5518469 5 10
32.604923 5.796072 -1.5425998 7 12
25.560909 3.2653532 -1.3504771 4 11
5.6923594 0.99040455 -1.6174523 2 1
8.0302258 0.9959476 -1.61836 1 2
74.695015 5.5770149 -0.87201035 30 18
10.050295 1.7486347 -1.5870821 2 3
12.553751 1.5569773 -1.6101725 2 4
14.022995 2.4398384 -1.5332015 2 5
17.217016 1.2854881 -1.6116502 1 6
16.955256 2.9500179 -1.2034386 2 8
19.406263 2.4068592 -1.5963711 2 7
24.018047 5.399487 -1.5777047 6 9
26.652527 1.9899794 -1.5564979 5 10
32.708618 5.6909199 -1.5465084 7 12
26.809521 3.325047 -1.4157925 5 11
5.6880174 0.9702282 -1.6152955 2 1
8.0295887 0.96884459 -1.6175755 1 2
74.645271 5.3244634 -0.87121874 30 18
10.048246 1.7139701 -1.5858524 2 3
12.578543 1.5177182 -1.6126978 2 4
14.313273 2.441473 -1.5640454 2 5
17.169542 1.224707 -1.6068171 1 6
17.354355 2.9602025 -1.2310623 2 8
19.418097 2.3429737 -1.5966965 2 7
24.039719 5.3206782 -1.5779605 6 9
26.61915 1.8987496 -1.5541724 5 10
32.668224 5.5723515 -1.5437167 7 12
27.899084 3.3662839 -1.472734 5 11
57.359489 6.7179155 -1.6807346 37 15
5.6913695 0.9503687 -1.6152955 1 1
8.0212345 0.93944305 -1.6152221 1 2
74.68335 5.065239 -0.8714515 30 18
10.046371 1.677585 -1.5846225 2 3
12.579822 1.4733427 -1.6121927 2 4
14.333478 2.3934641 -1.5653306 2 5
17.213449 1.1674654 -1.6105349 1 6
17.746353 2.9633601 -1.2581278 2 8
24.054241 5.2358875 -1.5777047 6 9
26.681393 1.8096085 -1.5574282 5 10
32.687477 5.4582915 -1.5437167 7 12
28.20425 3.3032682 -1.4882253 5 11
57.390541 6.5185409 -1.6809675 37 15
5.6946526 0.93049473 -1.6152955 2 1
8.032259 0.91232127 -1.6167911 1 2
10.059967 1.6437783 -1.5858524 1 3
12.584888 1.4294186 -1.6121927 2 4
14.333895 2.3421295 -1.5644739 2 5
17.201521 1.1063448 -1.6090478 1 6
18.158266 2.9670241 -1.2865883 2 8
19.461708 2.2105026 -1.5989747 5 7
24.084084 5.1543899 -1.5784721 6 9
26.619802 1.7120975 -1.5534748 5 10
32.682671 5.3402824 -1.5425998 7 12
28.525192 3.2399523 -1.5045542 5 11
64.396355 10.522234 -1.5183387 34 16
36.611385 4.0289941 -1.071928 8 15
5.697866 0.91060954 -1.6152955 2 1
8.0392942 0.88470483 -1.6175755 1 2
43.668365 2.6555657 -0.50932074 9 18
10.061741 1.608026 -1.5852374 1 3
12.581914 1.384609 -1.6111826 2 4
14.330201 2.290194 -1.5631887 4 5
17.209253 1.0465311 -1.6094196 1 6
18.613762 2.9747751 -1.3181185 2 8
19.469307 2.14255 -1.5989747 2 7
24.113649 5.0727491 -1.5792397 6 9
26.693377 1.6232806 -1.5574282 5 10
20.154114 3.2209477 -0.95072395 2 12
28.814266 3.1709402 -1.5192083 5 11
5.6972046 0.8901214 -1.6142174 2 1
8.030632 0.8553924 -1.6152221 1 2
43.64143 2.5010674 -0.50890166 9 18
10.071198 1.5735065 -1.5858524 1 3
12.594562 1.3415247 -1.6121927 2 4
14.357757 2.2432311 -1.5653306 4 5
17.220755 0.98691249 -1.6101632 1 6
19.081354 2.9812376 -1.3504853 2 8
19.397381 2.0661352 -1.5924655 2 7
14.780512 3.0555174 -0.96729392 2 9
26.678947 1.5289564 -1.5562655 5 10
20.192869 3.1548986 -0.95202678 2 12
29.222364 3.1126549 -1.5401427 5 11
5.7002773 0.87022752 -1.6142174 2 1
8.0413733 0.82815665 -1.6167911 1 2
10.068815 1.5371463 -1.5846225 1 3
12.618903 1.2995826 -1.6147182 2 4
125.02063 12.875496 -0.73046464 30 19
14.353704 2.1912951 -1.5640454 4 5
17.200233 0.92550623 -1.6079326 1 6
19.572882 2.988076 -1.3845265 2 8
19.424303 2.0004501 -1.5940928 2 7
14.791089 3.0039015 -0.96729392 2 9
26.628298 1.4328095 -1.5530096 5 10
20.44865 3.1217744 -0.96356648 2 12
5.7032795 0.85032845 -1.6142174 2 1
8.0442142 0.80008745 -1.6167911 1 2
10.074118 1.5019971 -1.5846225 1 3
12.615464 1.2547497 -1.613708 2 4
125.08868 12.441475 -0.73060411 30 19
14.35733 2.1406012 -1.563617 2 5
17.195402 0.86507225 -1.6071891 1 6
20.029158 2.9862404 -1.4160564 2 8
19.423233 1.9318587 -1.593442 2 7
14.918923 2.9756873 -0.97496879 2 9
26.609207 1.3386651 -1.5516143 5 10
20.965277 3.1258109 -0.98739046 2 12
30.837318 3.0671177 -1.6240896 6 11
5.7100239 0.8309682 -1.6152955 2 1
8.0508633 0.7723754 -1.6175755 1 2
10.08321 1.4673891 -1.5852374 1 3
12.615819 1.2103235 -1.6132029 2 4
125.20701 12.011981 -0.73104578 30 19
17.222187 0.80615646 -1.6094196 1 6
20.260584 2.9484818 -1.4316819 2 8
19.413984 1.862519 -1.5921401 2 7
15.179933 2.9726856 -0.99134195 2 9
26.645628 1.24726 -1.5534748 5 10
21.612656 3.145246 -1.0173565 2 12
30.800121 2.9548705 -1.6215774 6 11
5.7243314 0.81265414 -1.6185305 2 1
8.0496044 0.74390483 -1.6167911 1 2
10.092186 1.4327362 -1.5858524 1 3
12.623918 1.1666404 -1.613708 2 4
125.25615 11.575557 -0.73109233 30 19
14.387677 2.0425453 -1.5653306 7 5
17.220919 0.74585795 -1.6090478 1 6
20.409029 2.8973658 -1.4414479 2 8
19.448156 1.797303 -1.5944183 2 7
15.503823 2.9799526 -1.0118084 2 9
26.665777 1.1549258 -1.554405 5 10
22.311852 3.1674998 -1.0497422 3 12
30.84605 2.8506401 -1.6234616 6 11
5.7156863 0.79108453 -1.6152955 2 1
8.0521517 0.71580368 -1.6167911 1 2
10.081465 1.3953339 -1.5833927 1 3
12.62396 1.122219 -1.6132029 2 4
14.410476 1.9944944 -1.5670441 4 5
17.207499 0.68511117 -1.6075608 1 6
20.557358 2.845259 -1.4512137 3 8
19.438429 1.7279975 -1.5931165 2 7
15.800485 2.9798234 -1.030484 2 9
26.641716 1.0607315 -1.5527772 5 10
23.01145 3.1849198 -1.0821278 3 12
30.859789 2.7433102 -1.6236709 6 11
57.237728 4.9070244 -1.6718912 36 15
5.7066922 0.77157712 -1.6120608 2 1
8.0543604 0.69050515 -1.6167911 1 2
43.104111 1.5805707 -0.50214976 9 18
10.113215 1.367364 -1.587697 1 3
12.615564 1.0815398 -1.6116877 2 4
14.436376 1.9518797 -1.5691861 2 5
17.181707 0.63003045 -1.6049584 1 6
20.708549 2.7999132 -1.4612586 3 8
19.467592 1.6689682 -1.5950692 2 7
16.163013 2.9956436 -1.0535086 2 9
