# .PCD v0.7 - Point Cloud Data file format
VERSION 0.7
FIELDS x y z intensity ring
SIZE 4 4 4 4 2
TYPE F F F F U
COUNT 1 1 1 1 1
WIDTH 1312
HEIGHT 1
VIEWPOINT 0 0 0 1 0 0 0
POINTS 1312
DATA ascii
-7.7455764 4.2405763 1.6100149 1 30
-10.500397 5.0987153 -0.27162042 5 16
-2.8341689 1.5645453 -1.5095925 1 0
-10.894788 4.6920371 -0.20705535 2 17
-8.5899239 4.7418923 -0.28555271 2 15
-4.6594458 2.2826388 -1.4524722 5 1
-6.0950904 3.3646705 -1.3924329 4 2
-10.506924 5.1472888 0 7 20
-7.8813806 4.86764 -0.107843 2 18
-7.6809282 3.7628477 -1.3306648 2 3
-8.2399244 4.5486822 -1.198033 1 4
-10.85218 4.673687 0.068673581 2 21
-8.5724049 4.7322216 -0.056910265 2 19
-9.8964901 4.8482404 -1.1870638 2 5
-7.8715158 4.861547 -0.86363637 7 6
-7.8847828 4.869741 0.10788957 7 22
-10.49208 5.140017 -0.81698787 3 8
-8.1567087 4.5027452 -0.76059514 0 7
-10.811048 4.6559725 0.34257016 1 25
-8.543232 4.7161174 0.17033549 2 23
-10.899802 4.6941967 -0.7605831 2 9
-7.8855691 4.8702269 -0.53976274 5 10
-10.481978 5.1350679 0.67976147 3 27
-8.5374508 4.7129264 0.39730307 2 26
-10.502719 5.1452289 -0.54478639 3 12
-8.1726265 4.5115323 -0.48923656 0 11
-9.3340483 4.5727029 1.2762158 1 29
-8.4708309 4.6761494 0.78988636 2 28
-10.880075 4.6857009 -0.48262557 2 13
-7.8771133 4.8650045 -0.32330894 4 14
-9.2571926 4.5350518 2.7621171 1 31
-10.507671 5.147655 -0.27227181 7 16
-2.8255227 1.5726658 -1.507902 1 0
-10.801323 4.6965489 -0.20558935 3 17
-8.5139265 4.738791 -0.28357452 2 15
-4.6479964 2.2971828 -1.4513938 5 1
-6.0695992 3.3782959 -1.389295 4 2
-7.8881111 4.9099169 -0.10816895 7 18
-7.6571159 3.7843823 -1.32882 2 3
-8.2309303 4.5812774 -1.199043 1 4
-10.762436 4.6796403 0.068208627 2 21
-8.5069027 4.7348819 -0.056584794 2 19
-9.8688107 4.8774695 -1.1857786 2 5
-7.8680229 4.8974133 -0.86512345 6 6
-10.482469 5.180758 0.2720857 4 24
-7.8915057 4.9120297 0.10821552 9 22
-10.495537 5.1872172 -0.81866199 6 8
-8.1653261 4.5447621 -0.76287335 0 7
-10.710396 4.6570125 0.33989382 1 25
-8.4777946 4.7186799 0.16935815 2 23
-10.799154 4.6956058 -0.75469899 2 9
-7.8820815 4.9061637 -0.54069293 6 10
-10.410292 5.1450863 0.67627317 4 27
-8.4580898 4.7077122 0.3943722 2 26
-8.1638098 4.5439186 -0.48965529 0 11
-9.2539635 4.5735936 1.2674413 1 29
-8.4056873 4.678546 0.78532994 1 28
-10.794014 4.6933708 -0.47953182 2 13
-7.8872333 4.9093704 -0.32442573 4 14
-9.1789589 4.5365238 2.7434819 1 31
-10.496809 5.1878462 -0.2724579 7 16
-2.8168547 1.5807444 -1.5062115 2 0
-10.696974 4.6956406 -0.20391393 2 17
-8.4450331 4.7391295 -0.28182909 2 15
-4.6330552 2.3099549 -1.4492372 5 1
-6.0543504 3.3975413 -1.3885106 3 2
-10.420617 5.1955256 0 8 20
-7.626174 3.8022683 -1.3257456 2 3
-8.2252703 4.6158042 -1.2005583 1 4
-10.654471 4.6769834 0.06762743 2 21
-8.4484663 4.741056 -0.056305826 2 19
-9.8374882 4.9047885 -1.1840651 2 5
-7.8711233 4.9375448 -0.86735415 7 6
-10.414218 5.1923351 0.27078295 5 24
-10.480938 5.2256002 -0.818941 4 8
-8.1494131 4.573235 -0.76287335 0 7
-10.624515 4.6638336 0.33768293 1 25
-8.4019814 4.7149696 0.16817139 2 23
-10.702286 4.6979723 -0.74907076 2 9
-7.8682919 4.9357686 -0.5409255 16 10
-10.420858 5.1956463 0.67813361 1 27
-8.3962955 4.7117791 0.3922554 2 26
-8.1687994 4.5841146 -0.4909113 0 11
-9.1775417 4.5757513 1.2591542 1 29
-8.3371544 4.6785908 0.78044802 2 28
-10.682416 4.6892505 -0.47529826 2 13
-9.1077423 4.5409508 2.7269175 1 31
-7.6664276 4.3021965 1.6028402 0 30
-10.417797 5.1941199 -0.27087602 7 16
-2.8113196 1.5905676 -1.5062115 2 0
-10.618358 4.7054062 -0.20272715 3 17
-8.3866787 4.7449527 -0.28043276 2 15
-4.6284046 2.3278441 -1.4503155 5 1
-6.0253839 3.4089973 -1.3845882 5 2
-10.391698 5.2264771 0 3 20
-7.6022625 3.8235378 -1.3239008 2 3
-8.2021999 4.6405797 -1.1995481 1 4
-10.561285 4.6801152 0.067139238 2 21
-8.3761625 4.7390032 -0.055933863 2 19
-9.8025427 4.9301634 -1.1819232 2 5
-10.402032 5.2316747 -0.8141976 3 8
-8.171567 4.6232491 -0.76645339 0 7
-10.513127 4.6587749 0.33465752 2 25
-8.3402195 4.718668 0.16726387 3 23
-10.60918 4.7013392 -0.7436983 2 9
-7.8645153 4.9717383 -0.54185575 4 10
-10.506115 5.2840228 0.68487775 2 27
-8.3380547 4.7174425 0.39030144 2 26
-10.387581 5.2244062 -0.54162228 3 12
-8.1562262 4.6145692 -0.49112067 0 11
-8.2721939 4.6801805 0.77589166 2 28
-10.589249 4.6925068 -0.47187886 3 13
-9.029706 4.5414667 2.7082827 1 31
-7.695888 4.3541226 1.6121674 0 30
-10.406748 5.2340465 -0.27106211 1 16
-2.8120487 1.6039637 -1.5095925 2 0
-10.5179 4.7048826 -0.20112152 3 17
-8.3214426 4.7464657 -0.27880368 2 15
-4.6133809 2.3405011 -1.4481589 5 1
-6.0100412 3.4280658 -1.3838037 4 2
-10.494676 5.3242512 0 2 20
-7.5677209 3.8393228 -1.3202113 2 3
-8.1962929 4.6750813 -1.2010634 1 4
-8.3144026 4.7424498 -0.055631641 2 19
-9.7675419 4.9553552 -1.1797812 2 5
-10.541762 5.3481398 0.27506337 0 24
-10.394382 5.2733698 -0.81503469 1 8
-10.467603 4.6823835 0.33372658 6 25
-8.2820091 4.7239733 0.16642615 3 23
-10.508896 4.7008548 -0.73781425 2 9
-7.8201699 4.9819965 -0.53999525 2 10
-11.66635 5.9186754 0.76185381 3 27
-8.2764053 4.720777 0.38818467 2 26
-10.490435 5.3220997 -0.54795057 1 12
-8.2233429 4.6905107 -0.49614492 0 11
-9.0710201 4.6019897 1.2489171 2 29
-8.1969366 4.6754484 0.77035886 2 28
-8.9552231 4.5432425 2.6906829 1 31
-7.7045693 4.3946075 1.6171898 0 30
-10.509666 5.3318563 -0.27422589 1 16
-2.799866 1.6106442 -1.5062115 2 0
-8.2485371 4.7450337 -0.2769419 2 15
-4.6013422 2.3556385 -1.4470805 5 1
-5.9906363 3.4461591 -1.3822348 5 2
-10.489331 5.3699708 0 2 20
-7.5465617 3.8634319 -1.3189815 2 3
-10.47649 4.7325168 0.066813767 4 21
-8.2414885 4.7409792 -0.055259679 2 19
-9.7386923 4.9856844 -1.178496 2 5
-7.7845993 4.9995413 -0.86363637 3 6
-10.539886 5.3958526 0.27552864 0 24
-10.481541 5.3659821 -0.82340544 1 8
-8.2799616 4.7631106 -0.7797972 2 7
-10.483165 4.7355313 0.33477387 4 25
-8.2161055 4.7263775 0.16544881 2 23
-7.7816987 4.9976783 -0.53859997 3 10
-11.641023 5.9595747 0.76162124 2 27
-8.2070818 4.7211862 0.38574225 2 26
-8.3688602 4.2844043 -0.43795094 0 12
-8.9763441 4.5954032 1.2381927 2 29
-8.1417313 4.6835933 0.76677889 2 28
-10.489838 4.7385459 -0.46894792 4 13
-8.8834829 4.547863 2.6741185 1 31
-7.6781778 4.4169302 1.6150373 0 30
-10.500731 5.3758068 -0.27450505 0 16
-2.7879546 1.6167705 -1.5028306 2 0
-10.480324 4.778367 -0.20105173 5 17
-8.1835012 4.745717 -0.27531281 2 15
-4.5862465 2.3681514 -1.444924 5 1
-5.9819641 3.4690173 -1.3830193 5 2
-10.431428 5.3863659 0 1 20
-7.880928 5.1003513 -0.10928649 1 18
-7.5260062 3.8861244 -1.3177518 2 3
-8.3033638 4.815227 -1.2217714 2 4
-8.172987 4.7396197 -0.054910969 4 19
-9.7070951 5.0123501 -1.1767825 3 5
-7.7871609 5.0396676 -0.86586696 1 6
-10.520988 5.432611 0.27552864 0 24
-7.8775702 5.0981779 0.10923994 2 22
-8.3744507 4.3242269 -0.65905923 0 8
-8.2184505 4.765985 -0.77556622 2 7
-10.488399 4.7820487 0.33547205 2 25
-8.1511221 4.7269397 0.16447149 2 23
-10.474988 4.7759342 -0.73781425 3 9
-7.8178439 5.0595245 -0.54232079 2 10
-10.516679 5.4303861 0.68929631 2 27
-8.1317759 4.7157207 0.38297412 2 26
-8.2970495 4.2842598 -0.43497294 0 12
-8.2137556 4.7632623 -0.49761033 2 11
-8.8932228 4.5920997 1.2289306 1 29
-8.0701532 4.679985 0.76157153 2 28
-10.487779 4.7817659 -0.46959922 3 13
-7.8632374 5.088902 -0.3270781 1 14
-8.8160582 4.5522547 2.6585894 1 31
-7.6354795 4.4279122 1.6092974 0 30
-10.520988 5.432611 -0.27552864 1 16
-2.7794478 1.6241778 -1.5011402 2 0
-10.482589 4.8214512 -0.20140077 5 17
-8.1262932 4.7486215 -0.27391648 2 15
-4.5749516 2.3815687 -1.4438457 4 1
-5.953495 3.4789407 -1.379097 5 2
-7.5025597 3.9055846 -1.315907 2 3
-8.2462387 4.8187118 -1.2157105 3 4
-8.119236 4.7444973 -0.054655239 3 19
-9.6621981 5.0298209 -1.1733553 3 5
-7.8371339 5.1089625 -0.87330258 1 6
-8.2998943 4.3206511 -0.65431571 0 8
-8.1612949 4.7690749 -0.77166069 2 7
-10.505176 4.8318405 0.3365193 4 25
-8.0870581 4.7256947 0.16349414 3 23
-10.4736 4.817317 -0.7388376 3 9
-10.509239 5.4707627 0.68999398 2 27
-8.0781364 4.7204804 0.381183 2 26
-8.1835585 4.2600904 -0.42976144 0 12
-8.146183 4.7602444 -0.49447018 1 11
-8.8180799 4.5904007 1.2206435 1 29
-8.0270519 4.6906295 0.75896782 1 28
-10.49365 4.826539 -0.4705762 3 13
-8.7392244 4.5493517 2.6399543 1 31
-7.559598 4.4174714 1.5963829 2 30
-11.676999 6.0786595 -0.30632904 3 16
-2.7765994 1.6361947 -1.5028306 2 0
-10.4721 4.8632088 -0.20154038 3 17
-8.0640526 4.7519855 -0.27240375 2 15
-4.5627813 2.3965294 -1.4427674 4 1
-5.937324 3.4987466 -1.3783125 5 2
-7.9253507 5.2079625 -0.11040404 4 18
-7.4706979 3.923867 -1.3128324 2 3
-8.187499 4.8247299 -1.2096497 2 4
-8.0638847 4.7518864 -0.054399516 2 19
-8.3233671 4.3717184 -1.0127097 1 5
-11.636939 6.1121202 0.30586377 2 24
-7.922008 5.2057662 0.11035748 4 22
-8.2486763 4.3324881 -0.65152544 0 8
-8.0888042 4.766571 -0.76645339 2 7
-10.498274 4.8753633 0.33686841 3 25
-8.0317812 4.7329688 0.16272624 2 23
-10.470355 4.8623981 -0.73986089 3 9
-7.9258299 5.2082772 -0.55232072 4 10
-10.503258 5.5166712 0.69092417 2 27
-8.0194597 4.7257075 0.37922904 2 26
-8.1219034 4.2659025 -0.42734182 0 12
-8.0770588 4.7596498 -0.49133 2 11
-8.7449579 4.593152 1.2128438 0 29
-7.9548507 4.6876349 0.75376058 2 28
-10.497639 4.8750682 -0.47155318 6 13
-7.9377637 5.2161198 -0.33168483 2 14
-8.6711826 4.5544028 2.6244252 1 31
-7.495892 4.4171796 1.5863383 0 30
-10.532368 5.5319614 -0.27683139 0 16
-2.7739878 1.6477283 -1.5045211 1 0
-10.469545 4.9065223 -0.20181963 3 17
-7.9958515 4.7494774 -0.27065834 2 15
-4.5509839 2.4106393 -1.441689 5 1
-5.9284472 3.5214543 -1.379097 5 2
-11.629281 6.1599865 0 2 20
-7.9371376 5.2554688 -0.11082312 4 18
-7.4394927 3.9406714 -1.3097578 2 3
-8.1262569 4.8269372 -1.2030838 1 4
-10.416636 4.8817267 0.066860259 1 21
-7.9922242 4.7473226 -0.054027554 3 19
-8.3010273 4.3970232 -1.0118531 1 5
-7.9066367 5.2352734 -0.88519937 4 6
-11.647337 6.1695509 0.30670124 2 24
-7.9204631 5.2444282 0.11059029 3 22
-8.1841373 4.3351068 -0.64761913 0 8
-8.0241299 4.766274 -0.76189697 2 7
-10.495673 4.918767 0.33733383 4 25
-7.9567561 4.7262549 0.16153948 2 23
-10.467775 4.9056926 -0.74088418 3 9
-7.9242492 5.2469349 -0.55348355 3 10
-8.8571796 4.6916151 0.58371586 1 27
-7.9513717 4.7230568 0.37678662 2 26
-8.0999012 4.2904873 -0.42696962 0 12
-8.0191832 4.7633357 -0.48881787 2 11
-8.6797533 4.5976329 1.2060192 0 29
-7.9007344 4.6929784 0.75018048 7 28
-10.487795 4.9150748 -0.47187886 5 13
-7.9295082 5.2504172 -0.33210364 2 14
-7.4262948 4.4111648 1.5748587 0 30
-11.67914 6.1863971 -0.30753872 2 16
-2.7591763 1.6513331 -1.4994496 1 0
-10.485761 4.9565973 -0.20244791 2 17
-7.9457498 4.7554336 -0.26949471 2 15
-4.5463629 2.4275322 -1.4427674 5 1
-5.9032741 3.5330369 -1.375959 5 2
-8.8459682 4.7233081 0 1 20
-24.03186 16.02726 -0.33628762 30 18
-7.4228978 3.963459 -1.3091431 2 3
-8.072753 4.8314433 -1.1975279 2 4
-10.440169 4.9350462 0.067115985 1 21
-7.931818 4.7470956 -0.053725336 3 19
-8.233777 4.3964286 -1.0054271 1 5
-7.912426 5.2769327 -0.88780177 3 6
-7.9429588 5.2972956 0.11114907 4 22
-8.1556368 4.3547053 -0.64650303 0 8
-7.9638085 4.7662416 -0.75766599 2 7
-10.500994 4.963798 0.33803201 2 25
-7.899859 4.7279682 0.16070175 4 23
-10.476712 4.9523201 -0.74267501 4 9
-7.9200945 5.2820468 -0.55441374 3 10
-8.110302 4.3304987 -0.42827246 0 12
-7.9724956 4.7714405 -0.4869338 1 11
-8.6259336 4.6058207 1.2006569 0 29
-7.9022326 4.7293892 0.75180781 5 28
-10.489505 4.9583673 -0.472693 3 13
-7.9286814 5.2877736 -0.33280161 2 14
-7.3744826 4.4135375 1.5669663 0 30
-2.7471871 1.6572094 -1.4960687 1 0
-10.482834 5.0000558 -0.20272715 3 17
-7.8880181 4.758357 -0.26809835 7 15
-4.5175123 2.4324303 -1.4362975 5 1
-5.8875475 3.5515959 -1.3751746 3 2
-8.7906857 4.7332973 0 2 20
-7.9376984 5.3339128 -0.11133532 4 18
-7.4020567 3.9855974 -1.3079132 2 3
-10.444541 4.981791 0.067255467 1 21
-8.2043743 4.4176006 -1.0037136 1 5
-7.9104862 5.3156271 -0.88966072 3 6
-8.7777433 4.7263284 0.23198003 2 24
-7.9410191 5.3361444 0.1113819 4 22
-8.1614666 4.3944979 -0.64817721 0 8
-7.9198132 4.7775373 -0.7550624 3 7
-10.498038 5.007308 0.33849746 2 25
-7.9278259 4.7823706 0.16160928 5 23
-10.480981 4.9991722 -0.74421 3 9
-7.9214954 5.3230247 -0.55580908 3 10
-8.7230768 4.6968937 0.57697171 2 27
-7.8985057 4.7646837 0.37580964 3 26
-8.0986538 4.3606763 -0.42845857 0 12
-7.9181671 4.7765441 -0.484631 2 11
-8.5608654 4.6095519 1.1938322 0 29
-7.9027438 4.76724 0.75343508 6 28
-10.508207 5.0121584 -0.47432128 4 13
-7.9367194 5.3332553 -0.33391839 2 14
-8.3482704 4.4950809 2.5405679 3 31
-7.315228 4.412828 1.5576391 0 30
-8.7953491 4.7358084 -0.2324453 2 16
-10.493266 5.0523219 -0.20328563 3 17
-7.8705254 4.7872343 -0.26809835 7 15
-4.5051827 2.4471321 -1.4352193 5 1
-5.8644381 3.567035 -1.3728212 2 2
-8.7205553 4.736845 0 2 20
-7.9445906 5.3809128 -0.11170784 3 18
-7.3839269 4.0108128 -1.3072983 2 3
-7.8955894 4.8024797 -1.1763147 3 4
-7.9113164 4.8120456 -0.053818323 5 19
-8.1846333 4.4457417 -1.0032852 1 5
-7.9239273 5.3669176 -0.89337844 3 6
-8.707653 4.7298365 0.23058425 2 24
-7.9379673 5.3764272 0.11161471 3 22
-8.1558247 4.4300938 -0.64901423 0 8
-7.8886261 4.798244 -0.75376058 6 7
-10.497627 5.0544219 0.33907926 2 25
-7.8999939 4.8051586 0.16139986 4 23
-10.487764 5.0496726 -0.74600083 3 9
-7.938302 5.3766537 -0.55836719 3 10
-8.6601877 4.7040544 0.57394844 2 27
-7.9014778 4.8060613 0.37678662 5 26
-8.1212406 4.4113078 -0.43050599 0 12
-7.8971949 4.8034563 -0.48442167 3 11
-8.4741392 4.6029959 1.1840826 0 29
-7.915874 4.8148179 0.75636423 4 28
-10.507772 5.0593061 -0.47513545 3 13
-7.9435987 5.3802414 -0.33503518 3 14
-7.2687483 4.4212046 1.551182 0 30
-8.7287378 4.7412896 -0.23114258 2 16
-2.7420261 1.6796571 -1.4994496 1 0
-10.495332 5.0939946 -0.20363468 5 17
-7.8724947 4.8223801 -0.26868016 8 15
-4.4907141 2.4575751 -1.4330627 5 1
-5.8465133 3.5813437 -1.3712522 2 2
-8.6600151 4.7392545 0 2 20
-7.9805198 5.4418998 -0.11245287 2 18
-7.3574209 4.0264006 -1.3048387 2 3
-7.8838468 4.8293338 -1.1768199 3 4
-10.493155 5.0929384 0.067790166 4 21
-7.9132147 4.8473234 -0.053934563 6 19
-8.205513 4.4905248 -1.0075691 1 5
-7.92348 5.4030046 -0.89523739 2 6
-8.6366243 4.7264533 0.22909541 2 24
-8.1698704 4.4710193 -0.65124643 0 8
-7.8973098 4.8375807 -0.75603878 6 7
-10.510472 5.1013436 0.34001017 8 25
-7.9053216 4.8424883 0.16181871 6 23
-10.496985 5.0947976 -0.74779159 3 9
-7.9609613 5.4285631 -0.56115788 3 10
-8.5998278 4.706316 0.57092524 2 27
-7.899972 4.8392115 0.37743795 4 26
-8.1108465 4.4387178 -0.43069208 0 12
-7.8888779 4.8324156 -0.48484036 6 11
-8.414361 4.6048183 1.1777455 0 29
-7.9143076 4.8479929 0.75766599 5 28
-10.509803 5.1010184 -0.47594956 3 13
-7.9927125 5.4502139 -0.33782712 3 14
-7.2179103 4.4214077 1.5432897 0 30
-8.6611795 4.7398915 -0.22974677 2 16
-2.7268922 1.6835051 -1.4943783 1 0
-10.499037 5.1411519 -0.20405354 7 17
-7.8760262 4.862433 -0.26937833 4 15
-4.4821086 2.4732356 -1.4330627 5 1
-5.8339763 3.6017296 -1.3712522 3 2
-8.5908861 4.7404666 0 2 20
-8.0109243 5.5036964 -0.11315133 2 18
-7.3364 4.0482388 -1.3036088 2 3
-7.87707 4.8630772 -1.1783352 3 4
-7.9064569 4.8812199 -0.054004308 5 19
-8.2037182 4.5268264 -1.0092827 1 5
-7.9636583 5.4712234 -0.90192932 2 6
-8.5745564 4.7314558 0.22788572 2 24
-11.620786 7.9837575 0.16413929 2 22
-8.1646948 4.5052934 -0.65208352 0 8
-7.890552 4.8714004 -0.75701517 5 7
-10.496192 5.1397591 0.34012651 8 25
-7.9155951 4.8868613 0.16237719 8 23
-10.489893 5.1366744 -0.74855912 3 9
-8.0044994 5.4992824 -0.56557643 3 10
-8.5344 4.7092972 0.56766945 1 27
-7.9102392 4.8835549 0.37874058 5 26
-8.1162939 4.4785857 -0.43180886 0 12
-7.8957543 4.8746123 -0.48630577 2 11
-8.3530464 4.6092262 1.1714082 0 29
-7.8973365 4.8755894 0.75766599 8 28
-8.003293 5.4984536 -0.33908352 3 14
-8.1154842 4.4781389 2.4836278 4 31
-7.2258716 4.4610462 1.5483119 0 30
-8.5885611 4.7391839 -0.22825794 2 16
-2.7209992 1.6930138 -1.4943783 1 0
-10.488199 5.181313 -0.20419316 7 17
-7.8793745 4.9025702 -0.27007651 2 15
-4.4667158 2.4851208 -1.4309061 5 1
-5.8147078 3.6179285 -1.3696833 3 2
-8.5253506 4.7431998 0 2 20
-8.0113974 5.5452857 -0.11343072 0 18
-7.3153167 4.0699806 -1.3023789 2 3
-7.8701549 4.8968339 -1.1798503 3 4
-8.2226191 4.5747709 -1.0135666 1 5
-8.0001822 5.5375228 -0.9082495 2 6
-8.5090656 4.7341394 0.226583 3 24
-11.648755 8.0629721 0.16493087 2 22
-8.1663523 4.5434666 -0.65347862 0 8
-7.8904247 4.9094458 -0.75864238 3 7
-10.424417 5.1498032 0.33838111 7 25
-10.486214 5.1803322 -0.74958241 3 9
-8.0016708 5.5385528 -0.5667392 3 10
-8.4481182 4.7002306 0.56301832 2 27
-8.1110868 4.5127182 -0.43236724 0 12
-7.8956485 4.9126959 -0.48735246 3 11
-8.2883358 4.6113334 1.1645836 0 29
-8.0004854 5.5377321 -0.33978149 3 14
-8.113308 4.5139546 2.4877687 5 31
-7.2303033 4.4987164 1.5526168 0 30
-8.5160542 4.738028 -0.22676909 2 16
-2.7150726 1.7025014 -1.4943783 1 0
-10.419935 5.1929173 -0.20321584 6 17
-4.4512949 2.4969285 -1.4287494 5 1
-5.7920737 3.631952 -1.3673298 3 2
-8.4564114 4.743576 0 2 20
-8.0083952 5.5846558 -0.11366355 0 18
-7.2976179 4.0935574 -1.301764 2 3
-7.8530126 4.9242754 -1.1798503 3 4
-10.407025 5.1864839 0.067580938 5 21
-7.9026847 4.9554224 -0.054213531 12 19
-8.2239418 4.6131735 -1.0157084 1 5
-8.0004044 5.5790834 -0.91048014 2 6
-8.433198 4.7305546 0.22500111 1 24
-8.1782837 4.5875616 -0.65571088 0 8
-10.406376 5.1861601 0.33838111 1 25
-10.435913 5.2008801 -0.74728 3 9
-8.0084925 5.5847235 -0.5685997 3 10
-8.3794193 4.7003875 0.55952996 2 27
-8.0952845 4.5410037 -0.43236724 0 12
-8.2514114 4.6285825 1.1616586 0 29
-10.40573 5.1858377 -0.47366998 2 13
-8.0073385 5.583919 -0.34089831 3 14
-8.0840235 4.5346866 2.4836278 2 31
-7.1878839 4.5072026 1.5468771 0 30
-8.4436598 4.736423 -0.22528024 2 16
-2.7088144 1.7124412 -1.4943783 1 0
-10.418696 5.2400584 -0.20356487 2 17
-7.854229 4.9652371 -0.27042562 3 15
-4.4354086 2.5094333 -1.4265928 5 1
-5.7720923 3.6489649 -1.3657609 3 2
-8.3763037 4.7390842 0 2 20
-7.942059 5.5817723 -0.11301164 0 18
-7.2722449 4.1144381 -1.2999192 2 3
-7.8349113 4.9530253 -1.1798503 3 4
-8.1862106 4.6315351 -1.0131382 1 5
-7.9994531 5.6221099 -0.91271085 2 6
-8.3670759 4.7338634 0.22369835 2 24
-11.623484 8.1691208 0.16539653 4 22
-8.1579418 4.6155415 -0.65543187 0 8
-7.88205 4.9828248 -0.76124609 5 7
-10.494457 5.2781625 0.34187198 0 25
-7.8293138 4.9494867 0.1616791 43 23
-10.39895 5.2301269 -0.74600083 2 9
-11.666683 8.199482 -0.83045781 2 10
-8.3273802 4.7114043 0.55720443 2 27
-8.1168404 4.5922871 -0.43441457 0 12
-7.8839259 4.9840107 -0.48881787 3 11
-8.2240257 4.6529293 1.1601963 0 29
-8.4549999 4.2524219 -0.38557938 0 13
-11.597567 8.1509066 -0.49501449 1 14
-8.0269947 4.5414548 2.4712043 2 31
-8.3809986 4.7417407 -0.22407058 2 16
-2.6997633 1.7199379 -1.4926877 1 0
-10.482377 5.3180103 -0.2051705 1 17
-7.7930131 4.964694 -0.26891291 5 15
-4.4232764 2.5229907 -1.4255145 4 1
-5.7527051 3.6648753 -1.364192 3 2
-8.3145428 4.7425284 0 2 20
-7.2544069 4.1378379 -1.2993045 2 3
-7.8108826 4.976078 -1.1788402 4 4
-10.501633 5.3277793 0.0684411 2 21
-8.2114496 4.6837254 -1.0182788 1 5
-8.3192406 4.7452083 0.2228609 2 24
-11.624278 8.230444 0.16581559 2 22
-8.2076368 4.6815505 -0.66073328 0 8
-7.8377109 4.9931693 -0.75864238 1 7
-10.475971 5.3147602 0.34187198 0 25
-7.8086166 4.9746346 0.16160928 22 23
-10.476748 5.3151546 -0.75290823 1 9
-11.706432 8.2886124 -0.83534151 2 10
-8.2553854 4.708786 0.55348355 2 27
-8.1632357 4.6562243 -0.43776479 0 12
-7.8226862 4.9835978 -0.48609638 2 11
-8.1939402 4.6737385 1.1582464 0 29
-7.8915086 5.0274425 0.76384974 1 28
-8.3652573 4.2439346 -0.38215998 0 13
-7.9573965 4.538816 2.4546399 2 31
-7.0426083 4.4866338 1.522483 1 30
-8.3296604 4.7511516 -0.22314003 2 16
-2.6909935 1.7269235 -1.4909973 1 0
-10.518093 5.3800616 -0.20621765 2 17
-7.7899656 4.9991479 -0.26937833 1 15
-4.414885 2.5376453 -1.4255145 4 1
-5.7372184 3.6818137 -1.3634075 3 2
-8.2536869 4.7441621 0 2 20
-11.67508 8.3246765 -0.16693315 3 18
-7.2337914 4.1579332 -1.2980746 2 3
-7.7809796 4.993381 -1.1768199 4 4
-10.469662 5.355289 0.06834811 1 21
-10.740054 7.6579757 -1.2313231 1 6
-8.2341175 4.7329135 0.22099982 2 24
-11.642514 8.3014555 0.1664675 4 22
-7.7942667 5.0019078 -0.75603878 2 7
-10.458288 5.3494716 0.34187198 0 25
-8.4084768 4.300982 -0.60529423 0 9
-8.1912565 4.7082777 0.55022776 2 27
-7.8978038 5.0683517 0.38232282 1 26
-7.8061161 5.0095119 -0.48609638 2 11
-8.3191128 4.2552714 -0.38069451 0 13
-7.8954039 4.5382237 2.440146 2 31
-7.0011954 4.4929605 1.5167431 0 30
-8.25492 4.7448711 -0.22155814 2 16
-2.6849494 1.7363063 -1.4909973 1 0
-10.435272 5.3837376 -0.20496106 1 17
-7.8463321 5.0740757 -0.27193832 1 15
-4.4026675 2.5511098 -1.4244363 4 1
-5.7243319 3.7018178 -1.3634075 3 2
-8.1886225 4.7448673 0 2 20
-8.5566053 6.1462784 -0.12265046 0 18
-7.2123942 4.1791954 -1.2968448 2 3
-7.7401786 5.0054283 -1.1732844 3 4
-11.663067 6.0171781 0.076275557 1 21
-7.9435678 5.1369562 -0.054980706 2 19
-8.2619629 4.787364 -1.02856 2 5
-10.78442 7.7465353 -1.2395022 1 6
-8.1725664 4.7355638 0.21979016 3 24
-11.688181 8.3957138 0.16753848 2 22
-8.2411785 4.7753205 -0.66603482 2 8
-7.8303242 5.0637236 -0.76124609 1 7
-10.421784 5.3767791 0.34129015 0 25
-7.9424915 5.13626 0.16509975 4 23
-8.3224611 4.2937021 -0.60017765 0 9
-8.1229448 4.7068105 0.5467394 2 27
-8.2246971 4.7657704 -0.44279018 3 12
-7.8757925 5.0931273 -0.49153933 1 11
-8.0726233 4.6776519 1.1455719 1 29
-7.9608841 5.1481543 0.77393889 4 28
-8.2544832 4.2586308 -0.37841493 1 13
-7.842742 4.5444479 2.4287581 2 31
-6.9425125 4.4895921 1.5074159 0 30
-8.1829462 4.7415786 -0.2200693 2 16
-2.6819088 1.7476479 -1.4926877 1 0
-10.519301 5.4736705 -0.20698555 1 17
-4.3837566 2.5606351 -1.4212013 5 1
-5.7015157 3.7153544 -1.3610542 3 2
-8.1167459 4.7411447 0 2 20
-7.1875219 4.1983676 -1.2950001 5 3
-7.689414 5.0107546 -1.1682338 3 4
-7.9389915 5.1733904 -0.055073701 6 19
-8.1902552 4.7840834 -1.021706 3 5
-10.744406 7.774797 -1.2380151 1 6
-8.1180029 4.7418785 0.21876657 2 24
-8.1762209 4.7758851 -0.66212845 2 8
-7.9446182 5.1770568 0.16551863 5 23
-8.2684698 4.3024607 -0.59736347 0 9
-7.0330944 5.089242 -0.50557697 0 10
-8.0788794 4.7190266 0.54487896 2 27
-7.9425912 5.175736 0.38623074 4 26
-8.1459064 4.7581778 -0.43943992 2 12
-8.0116787 4.6797729 1.1392348 2 29
-7.9662457 5.1911502 0.77621716 3 28
-8.2324753 4.283731 -0.37808925 0 13
-7.0148115 5.0760121 -0.30236924 0 14
-7.7834578 4.5464649 2.4152994 2 31
-6.8971248 4.4944649 1.5009586 0 30
-8.1283607 4.7479296 -0.21904573 2 16
-2.6727622 1.7550086 -1.4909973 1 0
-10.500133 5.5103536 -0.20698555 1 17
-7.9176674 5.1989565 -0.27566192 4 15
-4.3781114 2.5778749 -1.4222796 5 1
-5.6885128 3.7352328 -1.3610542 2 2
-8.0587845 4.7450914 0 2 20
-8.5748987 6.2506309 -0.12353518 0 18
-7.1557937 4.2134018 -1.2919254 7 3
-7.642025 5.0179625 -1.1636881 2 4
-11.634943 6.1058898 0.076368548 3 21
-7.957665 5.2252202 -0.055329423 5 19
-8.1289558 4.7864089 -1.0161369 2 5
-10.533755 7.6785293 -1.2168238 1 6
-8.0566034 4.7438073 0.21755689 2 24
-11.674533 8.5100937 0.16819037 4 22
-8.0872927 4.7618775 -0.65626889 2 8
-7.9314151 5.2079835 -0.77458984 4 7
-10.52561 5.5237241 0.34594461 1 25
-7.9565873 5.2245126 0.1661469 4 23
-8.186245 4.296051 -0.59250271 0 9
-8.0004196 4.7107258 0.54069293 1 27
-7.9512033 5.2209773 0.38753334 5 26
-8.084487 4.7602253 -0.4370203 2 12
-7.933537 5.2093768 -0.497401 4 11
-7.9508195 4.6815205 1.1328975 2 29
-7.954742 5.2233009 0.77686805 2 28
-8.1962395 4.3012962 -0.3771123 0 13
-7.7275877 4.5500793 2.4028761 2 31
-6.8517914 4.4990735 1.4945015 0 30
-8.0669422 4.7498946 -0.21783605 2 16
-2.6666195 1.7643275 -1.4909973 1 0
-7.9194775 5.2397995 -0.27636006 3 15
-4.3591495 2.5872438 -1.4190449 5 1
-5.6623549 3.7464092 -1.3579162 3 2
-8.0008955 4.7486944 0 2 20
-7.1172509 4.2242332 -1.2876211 6 3
-7.5781336 5.0139546 -1.156617 2 4
-11.641841 6.1614351 0.076554537 1 21
-7.9627275 5.2684155 -0.055492155 4 19
-8.0711584 4.7903967 -1.0109962 3 5
-10.587142 7.7741833 -1.2261182 1 6
-7.9884138 4.7412863 0.21616112 2 24
-11.676995 8.5744677 0.16865602 4 22
-8.0397396 4.771749 -0.65375769 2 8
-7.926486 5.2444367 -0.77589166 2 7
-8.8524027 4.6851273 0.29148716 0 25
-7.9583144 5.2654953 0.16656578 4 23
-8.1641417 4.3208656 -0.59199107 0 9
-7.9392862 4.7121277 0.53766966 2 27
-7.9629288 5.2685485 0.38899884 4 26
-8.0300255 4.7659836 -0.43497294 2 12
-7.9519491 5.2612839 -0.49970376 2 11
-7.9497604 5.2598357 0.77816987 2 28
-8.170578 4.3242722 -0.37662381 0 13
-6.6569877 4.8882542 -0.28840944 0 14
-7.6551752 4.5435023 2.3852766 2 31
-6.8065081 4.5034204 1.4880441 0 30
-8.0021696 4.7494502 -0.21653332 2 16
-2.6604445 1.7736251 -1.4909973 1 0
-8.8630867 4.7304597 -0.17536178 2 17
-7.9210997 5.2807198 -0.27705824 3 15
-4.3533964 2.6044223 -1.420123 4 1
-5.6492424 3.7661519 -1.3579162 3 2
-7.9396462 4.7498984 0 2 20
-11.672718 8.6342039 -0.16902854 3 18
-7.0888953 4.2409358 -1.2851615 7 3
-7.5209661 5.0139642 -1.1505561 2 4
-7.9709144 5.3139291 -0.05567814 4 19
-8.0066071 4.789958 -1.0049988 3 5
-10.540729 7.7968817 -1.2238876 1 6
-7.9237704 4.7404008 0.21485835 2 24
-11.682365 8.6413403 0.16916823 4 22
-7.978518 4.7731533 -0.65013033 2 8
-7.9346685 5.2897654 -0.77849537 2 7
-7.9565234 5.3043351 0.16691481 4 23
-8.1490097 4.3493381 -0.59199107 0 9
-6.6583757 4.9251404 -0.48232135 0 10
-7.9611154 5.3073964 0.38981295 4 26
-7.9721932 4.7693696 -0.43273944 2 12
-7.9501534 5.3000884 -0.50075048 2 11
-7.8975005 4.7246847 1.1299726 2 29
-7.9578881 5.3052449 0.78077358 2 28
-8.1660109 4.3584123 -0.3771123 0 13
-7.6027961 4.5483775 2.3738885 2 31
-6.7612777 4.5075068 1.4815868 0 30
-7.9340658 4.7465601 -0.21513751 4 16
-2.6422002 1.7748146 -1.4842354 1 0
-8.7866526 4.7291436 -0.17417502 2 17
-7.9158969 5.3172536 -0.27752373 4 15
-4.3376827 2.6156232 -1.4179665 4 1
-5.6262951 3.7792861 -1.3555628 3 2
-7.8750625 4.7486639 0 7 20
-11.680998 8.7035713 -0.16958731 3 18
-7.0672803 4.2615709 -1.2839316 7 3
-7.4671874 5.0158472 -1.1450003 3 4
-8.777277 4.7240973 0.057933159 2 21
-7.9622784 5.3484092 -0.055747878 4 19
-7.9455647 4.7911768 -0.99942976 3 5
-6.7832828 5.0542588 -0.78965282 0 6
-11.687412 8.7083511 0.16968045 4 22
-7.9208045 4.7762465 -0.64678204 2 8
-7.945941 5.3374348 -0.7814244 2 7
-8.7490644 4.7089133 0.28915992 2 25
-7.9612002 5.3476849 0.16740347 4 23
-8.1478386 4.3853221 -0.59301436 0 9
-7.8959379 4.7612519 0.53697199 4 27
-7.9558129 5.3440661 0.39046425 3 26
-7.9007497 4.7641535 -0.42976144 5 12
-7.9415536 5.3344879 -0.50137854 2 11
-7.901361 4.7645221 1.1328975 4 29
-11.705455 7.8627696 1.1511446 3 28
-8.1683455 4.396359 -0.37792644 0 13
-7.5471697 4.5509448 2.361465 2 31
-6.7585702 4.539856 1.4844567 0 30
-2.6359885 1.7840273 -1.4842354 1 0
-8.7208796 4.7330804 -0.17319769 2 17
-7.920465 5.3605413 -0.27833825 4 15
-4.3219419 2.6267486 -1.4158099 5 1
-5.6098194 3.796705 -1.3547784 3 2
-7.8892012 4.7948236 0 7 20
-11.676134 8.7635031 -0.16995981 3 18
-7.0388494 4.2780051 -1.281472 6 3
-7.4134841 5.0174189 -1.1394445 2 4
-8.704483 4.7241817 0.057561196 2 21
-7.9634352 5.3896236 -0.055887364 3 19
-7.8812103 4.7899671 -0.99343228 2 5
-6.7082624 5.0348754 -0.78296089 0 6
-7.8904829 4.7956028 0.21485835 6 24
-11.679334 8.7659054 0.17000639 4 22
-7.8938527 4.7976508 -0.64594495 6 8
-7.9503727 5.3807831 -0.78370267 5 7
-8.6693192 4.7050967 0.28706539 1 25
-8.1535311 4.4251633 -0.59454936 0 9
-7.8929191 4.7970834 0.5379023 5 27
-7.8943143 4.7979312 -0.43031982 6 12
-7.9427309 5.3756108 -0.50263453 2 11
-7.8982501 4.8003235 1.1348474 2 29
-11.701046 7.9192252 1.1534228 4 28
-8.1353855 4.4153152 -0.3771123 0 13
-7.4850125 4.54917 2.3469713 1 31
-6.7394223 4.5612164 1.4837393 0 30
-7.8973179 4.799757 -0.21504447 6 16
-2.6324275 1.7957194 -1.4859259 1 0
-8.6613779 4.7419634 -0.17235997 2 17
-7.9602189 5.4300909 -0.28043276 2 15
-4.3122859 2.6425707 -1.4158099 4 1
-5.5796661 3.8061886 -1.3508561 4 2
-7.8852172 4.8320651 0 4 20
-11.675839 8.8303642 -0.17042546 3 18
-7.0062728 4.2934475 -1.2783974 7 3
-7.3589888 5.0199599 -1.1338887 2 4
-8.6309738 4.7253175 0.057189234 2 21
-11.690748 7.9748845 -0.082250208 2 19
-7.8737755 4.8250537 -0.99471742 2 5
-6.6707058 5.045013 -0.78073025 0 6
-7.8899035 4.8349366 0.21532363 4 24
-11.672649 8.8279514 0.17037891 4 22
-7.8728147 4.8244643 -0.64566594 2 8
-7.9569464 5.4278584 -0.78630632 2 7
-8.6029167 4.7099571 0.28543633 2 25
-11.649519 7.9467597 0.24614875 1 23
-8.1547642 4.4646006 -0.59582847 0 9
-7.8957124 4.8384967 0.53929758 5 27
-11.651541 7.9481387 0.57462406 2 26
-7.8971176 4.8393574 -0.43143657 3 12
-7.9757738 5.440702 -0.50598407 2 11
-7.9043002 4.8437591 1.1382598 6 29
-11.701585 7.9822769 1.156352 4 28
-8.1436882 4.4585366 -0.37825209 0 13
-6.4277997 4.8613048 -0.28142953 0 14
-7.455112 4.5684962 2.3428299 2 31
-6.7064066 4.5747986 1.4801519 0 30
-7.8967223 4.8391151 -0.21550974 6 16
-2.6324337 1.8085445 -1.4893068 1 0
-8.5965815 4.7436085 -0.17138264 2 17
-7.9948964 5.4926839 -0.28229454 2 15
-4.3034987 2.6568568 -1.4158099 4 1
-5.5637803 3.8224492 -1.3500715 4 2
-7.8997827 4.877099 0 6 20
-6.5328546 4.9748983 -0.095596589 0 18
-6.971818 4.3042006 -1.274708 4 3
-7.3063254 5.0196195 -1.128333 2 4
-8.5627241 4.724926 0.05684052 1 21
-11.697206 8.0362587 -0.082482681 2 19
-7.8712678 4.8594952 -0.99643105 6 5
-6.6064095 5.0309119 -0.77515358 0 6
-7.8908391 4.8715777 0.21578889 4 24
-6.5328546 4.9748983 0.095596589 0 22
-7.8805389 4.8652186 -0.64761913 5 8
-8.0013361 5.497108 -0.79249007 3 7
-8.5382404 4.7114158 0.28380725 2 25
-11.662658 8.0125227 0.24698645 2 23
-8.1713696 4.5089755 -0.59813094 0 9
-6.5413074 4.9813352 -0.47883299 0 10
-7.9068074 4.8814363 0.54115808 7 27
-11.648178 8.0025749 0.57576382 2 26
-7.9014258 4.8781137 -0.43255332 5 12
-8.0136585 5.5055737 -0.50954288 2 11
-7.8949509 4.8741164 1.1392348 5 29
-11.704624 8.0413551 1.1592811 4 28
-8.1358557 4.4893789 -0.37857774 0 13
-6.5452194 4.9843144 -0.28729266 0 14
-7.3840308 4.5586891 2.3252304 2 31
-7.897645 4.8757796 -0.215975 5 16
-2.6201432 1.8135961 -1.4859259 1 0
-8.5205584 4.7405329 -0.17019588 2 17
-7.9986868 5.5364866 -0.28310907 2 15
-4.2941985 2.6718626 -1.4158099 4 1
-5.5375032 3.8329182 -1.3469337 2 2
-7.8895035 4.9088712 0 5 20
-6.9533949 4.3264222 -1.274093 3 3
-7.2561331 5.0225096 -1.1232822 1 4
-8.4972439 4.727562 0.056515057 1 21
-11.698683 8.0975294 -0.082691915 2 19
-7.8677645 4.8953452 -0.99814457 5 5
-6.5287666 5.0078874 -0.76808977 0 6
-6.486887 4.9757633 0.095177501 1 22
-7.8872247 4.9074535 -0.64957225 5 8
-8.0116014 5.5454254 -0.7954191 3 7
-8.4588518 4.7062016 0.28171271 2 25
-11.63133 8.050909 0.24691665 2 23
-8.1555805 4.5374722 -0.59813094 0 9
-7.906672 4.9195538 0.54232079 13 27
-11.659607 8.0704823 0.57771778 2 26
-7.9080977 4.9204412 -0.43385619 4 12
-8.0173836 5.549428 -0.51100832 2 11
-7.8509212 4.8848658 1.1353348 1 29
-11.709264 8.1048527 1.1625357 3 28
-8.137599 4.5274677 -0.37939191 0 13
-7.3221459 4.55586 2.3107367 1 31
-6.5715709 4.5486736 1.4571927 0 30
-7.904345 4.9181061 -0.21662636 7 16
-2.6108229 1.8206576 -1.4842354 1 0
-8.4516363 4.7408962 -0.16914873 2 17
-8.0022697 5.5803838 -0.2839236 2 15
-4.2783189 2.6827435 -1.4136533 4 1
-5.5144382 3.845494 -1.3445803 1 2
-6.9549937 4.361167 -1.2771677 2 3
-7.1994991 5.0205717 -1.1172214 1 4
-8.4248734 4.7258835 0.056143094 0 21
-11.68347 8.1474695 -0.082784906 2 19
-7.8641052 4.9312305 -0.99985814 5 5
-7.8972921 4.9520407 0.21690552 15 24
-8.011816 5.5870409 -0.79737186 3 7
-8.400527 4.7122269 0.28031638 1 25
-11.645802 8.1212015 0.24782418 1 23
-8.177989 4.5873957 -0.60094512 0 9
-6.4558125 4.9878178 -0.47511208 2 10
-8.0110693 5.5865202 -0.51184571 2 11
-7.8035498 4.893259 1.1309476 0 29
-11.707062 8.1639214 1.1651393 3 28
-8.1391726 4.5656219 -0.38020602 0 13
-6.4469957 4.9810057 -0.28450069 6 14
-7.2636442 4.554708 2.2972779 2 31
-6.5266027 4.5513272 1.4507353 1 30
-2.5985186 1.8255926 -1.4808545 1 0
-8.3862972 4.7428083 -0.16817139 2 17
-4.2624145 2.6935465 -1.4114966 4 1
-5.5009799 3.8647206 -1.3445803 2 2
-6.448833 5.0184736 -0.095130935 4 18
-6.9196792 4.3727512 -1.2734782 3 3
-7.1429672 5.018301 -1.1111604 1 4
-8.3560972 4.725729 0.055794377 0 21
-11.687686 8.2111988 -0.083017379 2 19
-7.8602905 4.9671516 -1.0015717 11 5
-6.4370694 5.0093188 -0.76139784 4 6
-7.8326302 4.9496722 0.21560279 4 24
-6.4425206 5.0135612 0.095037811 4 22
-7.8966217 4.9901104 -0.65319961 10 8
-8.0020494 5.62185 -0.79834825 1 7
-8.3353014 4.7139683 0.27868733 2 25
-8.1966705 4.6355667 -0.60350341 0 9
-6.4068465 4.9857998 -0.47278652 4 10
-11.655304 8.1884489 0.58032304 1 26
-8.0209351 5.6351185 -0.51372981 0 11
-7.7327204 4.8865361 1.123148 0 29
-11.711113 8.2276573 1.168394 4 28
-8.1231852 4.594007 -0.38020602 0 13
-6.4295678 5.0034814 -0.28450069 4 14
-7.2019734 4.5511413 2.2827842 2 31
-6.4752555 4.5491991 1.4428432 1 30
-2.5950897 1.8367459 -1.4825449 1 0
-8.3141031 4.7403569 -0.16705443 2 17
-26.728659 18.917942 -0.95300591 6 15
-4.2529874 2.7084081 -1.4114966 4 1
-5.4778523 3.8771002 -1.3422269 3 2
-6.440721 5.0483546 -0.095270626 6 18
-6.897707 4.3926315 -1.2722483 4 3
-7.0930195 5.0202789 -1.1061096 1 4
-8.290905 4.7271309 0.055468909 0 21
-11.698133 8.2796745 -0.083296351 2 19
-7.8596787 5.005239 -1.0037136 3 5
-6.4226799 5.034214 -0.76176959 4 6
-7.1135254 5.0347924 -0.71145099 0 7
-8.2701693 4.7153082 0.27705824 2 25
-11.647581 8.2438955 0.24908075 2 23
-6.4428344 5.0500116 -0.47674003 5 10
-11.656012 8.2498617 0.58178854 2 26
-7.8190656 4.9793754 -0.43180886 6 12
-7.6955252 4.9007015 1.120223 0 29
-11.698593 8.2800007 1.1700213 4 28
-8.1557102 4.6500478 -0.38248566 0 13
-6.4435267 5.0505538 -0.28589669 7 14
-6.430429 4.5513124 1.4363859 0 30
-7.8220525 4.9812775 -0.21578889 8 16
-2.5975175 1.852107 -1.4876164 1 0
-8.2489614 4.7414465 -0.16607711 2 17
-26.56805 18.943808 -0.94963139 6 15
-4.2402658 2.7211571 -1.4104184 4 1
-5.4642854 3.8961976 -1.3422269 3 2
-6.8690257 4.408143 -1.2697887 5 3
-7.0463748 5.0242743 -1.1015639 1 4
-8.2223358 4.7261419 0.055120192 0 21
-11.695215 8.339035 -0.083482333 2 19
-7.8187299 5.0176082 -1.0007149 2 5
-6.4300766 5.0763454 -0.76474386 6 6
-6.4387569 5.0831985 0.095503449 28 22
-7.7977872 5.004168 -0.64789808 2 8
-6.9400964 4.9484944 -0.69582897 0 7
-8.1981955 4.7122669 0.27519643 2 25
-11.66758 8.3193302 0.25012788 2 23
-8.2471704 4.7404175 -0.60964334 2 9
-7.9044275 5.0726037 0.54697192 1 27
-11.666194 8.3183422 0.5837425 2 26
-7.8117256 5.013113 -0.43236724 2 12
-7.6349339 4.8996582 1.1138859 0 29
-11.708572 8.3485594 1.1739267 4 28
-8.1914043 4.7083631 -0.38492808 1 13
-7.1245031 4.5720935 2.2682903 2 31
-6.3888707 4.5554543 1.4306461 1 30
-2.5789363 1.8531528 -1.4808545 1 0
-8.1934671 4.7495847 -0.16530919 2 17
-26.498444 19.041054 -0.94963139 6 15
-4.2302642 2.7366793 -1.4104184 4 1
-5.446784 3.9139092 -1.3414423 3 2
-7.8789945 5.0971479 0 1 20
-6.8495054 4.4311414 -1.2691739 5 3
-6.9892464 5.0222802 -1.0955032 1 4
-8.1634331 4.7321744 0.054841224 0 21
-11.703553 8.409852 -0.083761305 2 19
-7.7802525 5.0332685 -0.99814457 2 5
-7.9205112 5.1240063 0.219511 2 24
-7.8363495 5.0695596 -0.65264159 1 8
-7.0287533 5.0506687 -0.70656908 0 7
-8.1497383 4.7242355 0.27414921 2 25
-8.1917524 4.7485905 -0.60682923 1 9
-11.681067 8.3936939 0.58602208 3 26
-7.8805246 5.0981379 -0.43720648 1 12
-7.5902576 4.9103556 1.1099861 0 29
-11.716747 8.4193325 1.1778322 3 28
-7.0590372 4.5666938 2.2527611 2 31
-6.3401761 4.5558763 1.4234713 1 30
-7.9003654 5.1109729 -0.21895269 1 16
-8.1232443 4.7430377 -0.16419223 2 17
-26.334822 19.049227 -0.94590783 5 15
-4.2184176 2.747854 -1.40934 4 1
-5.4281039 3.9264054 -1.3398734 3 2
-6.8256145 4.4461679 -1.2673291 5 3
-6.9444966 5.023284 -1.0909575 0 4
-8.0898018 4.7235112 0.054446008 1 21
-11.693278 8.4583035 -0.083877549 3 19
-7.7843947 5.0707121 -1.0007149 2 5
-7.9311781 5.166326 0.22025542 7 24
-7.8905964 5.1398911 -0.65850115 1 8
-6.8513379 4.9558978 -0.69029623 0 7
-8.0761566 4.7155442 0.27217105 2 25
-11.694935 8.4595022 0.25194293 2 23
-8.1216364 4.7420993 -0.60273594 2 9
-7.9399819 5.1720605 0.55185562 3 27
-11.699974 8.4631462 0.58830166 2 26
-7.5381989 4.9103413 1.1046238 0 29
-11.716079 8.4747963 1.1804359 3 28
-8.1108446 4.7357979 -0.38264847 2 13
-6.4535913 5.1666045 -0.28868863 0 14
-7.0025673 4.5614338 2.2393024 4 31
-6.2971349 4.5550165 1.417014 1 30
-2.5636592 1.8680813 -1.479164 3 0
-8.06528 4.7470188 -0.16335453 2 17
-26.15184 19.056263 -0.94171876 5 15
-4.2023606 2.7583342 -1.4071834 4 1
-5.4111962 3.9430182 -1.339089 3 2
-7.9419913 5.2129431 0 4 20
-6.3860731 5.14923 -0.095503449 0 18
-6.8067498 4.4677963 -1.2667142 5 3
-6.9076796 5.0334721 -1.087927 0 4
-8.0491362 4.7375174 0.054283276 1 21
-11.708942 8.5320454 -0.084203012 3 19
-7.8597417 5.1589561 -1.0127097 3 5
-7.9398417 5.2115321 0.22099982 3 24
-11.673031 9.412219 0.17456968 2 22
-8.4418087 6.1513577 -0.85269976 1 7
-8.0183001 4.719368 0.27077469 2 25
-11.694427 8.5214682 0.25257123 3 23
-8.0568733 4.7420712 -0.59915423 2 9
-6.4223313 5.1784658 -0.48046088 0 10
-7.9452486 5.2150812 0.55348355 4 27
-11.699434 8.5251169 0.58976716 2 26
-7.9434104 5.2138743 -0.44260404 4 12
-7.4911432 4.9170165 1.1002365 0 29
-11.715425 8.5367699 1.183365 3 28
-8.0460453 4.7356982 -0.38036889 2 13
-6.3888402 5.1514611 -0.28659469 0 14
-6.9446125 4.5582862 2.2258439 2 31
-6.271656 4.5700159 1.4148616 1 30
-7.9431853 5.213727 -0.22109289 6 16
-2.560045 1.8791637 -1.4808545 4 0
-7.9970655 4.7445335 -0.16230738 2 17
-26.014248 19.095379 -0.9391588 5 15
-4.1830673 2.7666118 -1.4039485 4 1
-5.3879132 3.9549196 -1.3367356 3 2
-7.9437637 5.2538743 0 4 20
-6.191082 5.0277672 -0.092849284 0 18
-6.7845182 4.4871688 -1.2654843 5 3
-6.8420863 5.0223341 -1.080351 1 4
-7.9775081 4.7329302 0.053911313 1 21
-11.701658 8.5894327 -0.084365748 2 19
-6.3501987 5.1569853 -0.76362854 0 6
-7.9416146 5.2524529 0.22155814 4 24
-11.695992 9.4982948 0.17540786 4 22
-7.9310699 5.2454791 -0.66491872 2 8
-6.8165731 5.0036063 -0.69029623 0 7
-7.9501958 4.7167263 0.26902926 2 25
-11.700074 8.5882692 0.25333914 3 23
-7.9922075 4.7416515 -0.59557265 2 9
-6.2740235 5.0951238 -0.47069356 0 10
-7.9536414 5.2604074 0.55534393 4 27
-11.705045 8.591918 0.59155828 2 26
-7.9451575 5.254796 -0.44372079 3 12
-7.4308844 4.9146643 1.0938994 0 29
-11.714479 8.5988436 1.1862941 3 28
-7.9882174 4.739284 -0.37841493 2 13
-6.256 5.0804868 -0.28142953 0 14
-6.9157681 4.5739751 2.2217028 4 31
-6.2588377 4.5942087 1.4155791 1 30
-7.9516201 5.2590704 -0.22183731 5 16
-2.5531402 1.8885344 -1.4808545 4 0
-7.9418693 4.7512274 -0.16153948 2 17
-25.670855 18.988497 -0.92926806 5 15
-4.1793089 2.7861984 -1.406105 4 1
-5.3702278 3.9723084 -1.3359511 3 2
-7.937767 5.2918301 0 3 20
-6.3273935 5.1770663 -0.095177501 0 18
-6.7548723 4.5032358 -1.2630248 7 3
-6.7917314 5.0237818 -1.0753003 0 4
-7.929215 4.7436571 0.05370209 2 21
-11.705471 8.6584291 -0.084621467 2 19
-7.908658 5.2724242 -1.0238478 3 5
-6.2418656 5.1070876 -0.75284702 0 6
-7.9489279 5.2992706 0.22230259 4 24
-11.704439 9.5765591 0.17605975 2 22
-7.9051499 5.2700853 -0.66436064 1 8
-6.7981882 5.0285573 -0.69029623 0 7
-11.703886 8.6572571 0.25410703 2 23
-7.9370933 4.7483697 -0.59275854 2 9
-6.1780429 5.0548677 -0.46487963 0 10
-7.9642105 5.3094592 0.55743694 4 27
-11.69918 8.6537762 0.59286094 2 26
-7.9491167 5.2993965 -0.44502366 3 12
-7.3797874 4.9198446 1.0890245 0 29
-11.711731 8.6630602 1.1892233 3 28
-7.929635 4.7439079 -0.37646097 3 13
-6.8603792 4.5735736 2.2092795 3 31
-6.2482843 4.6217985 1.417014 2 30
-7.9489279 5.2992706 -0.22230259 4 16
-2.5465322 1.8974351 -1.4808545 4 0
-25.524261 19.018267 -0.926359 5 15
-4.1567678 2.7921789 -1.4017919 4 1
-5.3626189 3.9957168 -1.33752 1 2
-7.9325285 5.3284278 0 4 20
-6.1549463 5.0719409 -0.092849284 0 18
-6.7292686 4.5201759 -1.26118 5 3
-6.7296066 5.014267 -1.0682292 1 4
-7.8886309 4.7568474 0.053539354 2 21
-11.700835 8.7183561 -0.084807456 2 19
-7.9034114 5.3088694 -1.0255615 3 5
-6.2178526 5.1237788 -0.75210345 0 6
-7.9469795 5.3381348 0.22276783 3 24
-7.9205585 6.5268817 0.11948409 1 22
-7.9297671 5.3265729 -0.667988 2 8
-6.7198524 5.006999 -0.68411249 0 7
-7.8956966 4.7611084 0.26833108 5 25
-11.696043 8.7147856 0.2545957 2 23
-7.8897047 4.7574949 -0.59045607 2 9
-6.2374034 5.1398892 -0.47069356 0 10
-7.9588881 5.3461342 0.55836719 3 27
-11.697743 8.716053 0.59432632 2 26
-7.9504704 5.3404799 -0.44614041 3 12
-7.3131332 4.9123688 1.0817124 0 29
-11.716584 8.7300911 1.1928033 3 28
-7.8993378 4.7633038 -0.37580964 7 13
-6.3737378 5.2522349 -0.28840944 0 14
-6.8058858 4.571641 2.1968563 2 31
-7.9502997 5.3403649 -0.2228609 4 16
-2.5373263 1.9036937 -1.479164 4 0
-7.8922539 4.7947927 -0.16119042 7 17
-25.509026 19.138796 -0.9281044 5 15
-4.1506767 2.8081064 -1.4028703 4 1
-5.3399272 4.0064163 -1.3351666 1 2
-7.9346933 5.3681521 0 3 20
-6.1380925 5.0923247 -0.092849284 0 18
-6.701148 4.5336075 -1.2587204 4 3
-6.7002459 5.02703 -1.066209 1 4
-7.8967423 4.7975197 0.05370209 6 21
-11.703856 8.7811155 -0.085039929 2 19
-7.9121151 5.3528771 -1.0289886 3 5
-6.1824365 5.1291132 -0.74987286 0 6
-7.9524183 5.3801441 0.22341919 3 24
-11.715939 9.7198534 0.17722386 2 22
-7.935194 5.3684912 -0.66994113 2 8
-6.5246291 4.8952689 -0.66588688 0 7
-7.8935337 4.7955699 0.26879653 4 25
-11.699071 8.7775259 0.25529379 2 23
-7.8875299 4.7919226 -0.59147936 4 9
-6.220324 5.1605458 -0.47069356 0 10
-11.703943 8.7811813 0.5961175 2 26
-7.949265 5.3780107 -0.44707105 3 12
-7.2737851 4.92102 1.0783 0 29
-6.556519 4.9191952 0.66914147 0 28
-7.9039922 4.8019242 -0.37678662 7 13
-6.202455 5.145721 -0.28142953 0 14
-6.7618866 4.5746994 2.1875386 2 31
-6.1096582 4.5839267 1.3926198 1 30
-7.9524183 5.3801441 -0.22341919 4 16
-2.5306659 1.9125391 -1.479164 4 0
-7.8993459 4.8369327 -0.1616791 5 17
-6.6412201 5.0190721 -0.24226595 0 15
-4.1281176 2.8138995 -1.3985571 4 1
-5.3227806 4.0226674 -1.3343822 2 2
-11.687118 7.9664335 0 2 20
-6.6918135 4.5614228 -1.2599502 4 3
-6.6573334 5.0312495 -1.0621684 0 4
-7.8867698 4.8292322 0.053748582 1 21
-11.695471 8.8387985 -0.085202664 2 19
-7.400456 5.0444636 -0.96473026 2 5
-6.1308761 5.1225724 -0.74578321 0 6
-7.777729 6.4985785 0.11799403 1 22
-7.9361897 5.4096422 -0.6716153 2 8
-6.5870175 4.9781084 -0.67402333 0 7
-7.9006147 4.8377099 0.26961109 4 25
-6.5632534 4.9601488 0.14359841 0 23
-7.8945856 4.8340182 -0.59327018 2 9
-6.1256638 5.1182175 -0.46487963 0 10
-6.5460587 4.947154 0.33428824 0 26
-7.9799681 5.4394836 -0.4498629 2 12
-7.2139158 4.9173102 1.0719628 0 29
-6.5138631 4.9228225 0.66653782 1 28
-7.9076343 4.8420081 -0.3777636 4 13
-6.7075658 4.5721602 2.1751153 2 31
-6.0590863 4.5791268 1.3847276 0 30
-8.0062847 5.4574218 -0.22546636 3 16
-2.5207548 1.9196051 -1.4774735 3 0
-7.8951759 4.8742561 -0.16195834 4 17
-6.5146279 4.961019 -0.23830965 0 15
-4.1209512 2.8311923 -1.3996353 4 1
-5.2861581 4.0255146 -1.3288909 2 2
-11.651246 8.0046854 0 4 20
-6.665277 4.579205 -1.2581054 4 3
-6.6135931 5.0363827 -1.0581278 1 4
-7.8996487 4.8770175 0.053957812 2 21
-6.5554633 4.992116 -0.047890175 2 19
-7.9194994 5.4408855 -1.034986 3 5
-6.1029186 5.1373143 -0.74466789 0 6
-11.6415 7.9979897 0.32866165 1 24
-7.735498 6.5115867 0.11771464 2 22
-8.0018196 5.4974413 -0.67887002 2 8
-6.568728 5.0022173 -0.67402333 0 7
-7.9066453 4.8813372 0.27042562 6 25
-7.8937979 4.8734055 -0.59454936 4 9
-6.1832376 5.2049251 -0.47069356 0 10
-11.644703 8.0001898 0.82278347 2 27
-8.0291376 5.5162096 -0.45377153 2 12
-6.5720134 5.0047193 -0.43292308 0 11
-7.1598492 4.9189878 1.0666007 0 29
-7.906837 4.8814554 -0.37857774 4 13
-6.318388 5.3186922 -0.28840944 0 14
-6.6684713 4.5813994 2.1678684 2 31
-6.0266094 4.5893831 1.3811402 1 30
-8.0224838 5.5116382 -0.22648993 2 16
-2.5143752 1.927954 -1.4774735 4 0
-7.8925529 4.9088607 -0.16223757 7 17
-4.1083722 2.8426507 -1.3985571 4 1
-5.2696667 4.0406361 -1.3281064 3 2
-11.657531 8.0660381 0 4 20
-7.7626843 6.5785775 -0.11845967 0 18
-6.6338034 4.5900383 -1.2550309 2 3
-6.5590692 5.0293145 -1.0520669 1 4
-6.4976077 4.9821873 -0.047587954 2 19
-7.3617887 5.0937433 -0.96430194 1 5
-6.0402737 5.1189003 -0.73909128 0 6
-11.654376 8.0638552 0.32977828 1 24
-7.7230167 6.5449605 0.11785433 1 22
-8.003233 5.537569 -0.68054414 2 8
-7.8979321 4.9122062 -0.59608436 2 9
-6.0136223 5.0963144 -0.45906574 0 10
-11.657515 8.0660267 0.82557416 1 27
-8.0272284 5.554172 -0.45470214 2 12
-6.5331912 5.0094719 -0.43145767 1 11
-7.1075835 4.9178548 1.0612383 0 29
-6.4571915 4.9511971 0.66425961 3 28
-7.9143624 4.9224253 -0.37971753 14 13
-6.621469 4.5815039 2.1575158 2 31
-5.9801288 4.5853992 1.3739655 1 30
-8.0337582 5.5586901 -0.22732741 2 16
-2.504761 1.9345032 -1.475783 4 0
-6.4427352 4.9759207 -0.23691331 5 15
-4.0921049 2.8525689 -1.3964005 4 1
-5.2338004 4.0422235 -1.3226151 3 2
-11.662118 8.1295567 0 2 20
-6.6112561 4.6086464 -1.253801 2 3
-6.5069284 5.0254989 -1.0465111 1 4
-7.8933816 4.9476709 0.05414379 6 21
-7.2493496 5.0534554 -0.95187867 0 5
-6.0041928 5.1244411 -0.73686063 0 6
-11.706864 9.9915409 0.17917956 4 22
-8.0034952 5.5791636 -0.68221831 2 8
-6.4777322 5.0029497 -0.66816515 1 7
-6.4634733 4.9919372 0.14255126 8 23
-5.9198618 5.0524669 -0.45325184 0 10
-6.4717517 4.9983306 0.33314839 8 26
-8.0176268 5.5890145 -0.45526052 2 12
-7.0578041 4.9199309 1.0563636 0 29
-7.8903594 4.9457765 -0.37939191 7 13
-5.8259377 4.9723048 -0.26746976 0 14
-6.5642314 4.5758662 2.144057 4 31
-5.9453998 4.5918136 1.3696606 1 30
-8.0274286 5.5958471 -0.22769961 1 16
-2.5008545 1.94546 -1.4774735 4 0
-6.428483 5.0008335 -0.23702969 8 15
-4.0789704 2.8646214 -1.3953221 4 1
-5.2134671 4.0556502 -1.3210462 3 2
-11.663131 8.1909037 0 2 20
-11.693151 10.050593 -0.17950551 3 18
-6.5757217 4.6180654 -1.2501116 3 3
-7.8151922 4.9367404 0.053725336 9 21
-6.4721394 5.0347943 -0.047657698 7 19
-7.2446842 5.0878716 -0.95359218 0 5
-5.9832487 5.1427712 -0.73648882 0 6
-11.637068 8.1725988 0.33089492 2 24
-11.690117 10.047986 0.17945895 5 22
-8.0068302 5.6231189 -0.6841715 1 8
-6.4586353 5.0242896 0.14283049 12 23
-6.0536056 5.2032452 -0.46487963 0 10
-11.676081 8.1999979 0.83092296 1 27
-6.4605746 5.0257978 0.33347407 14 26
-11.653769 8.1843281 -0.66334772 1 12
-6.4444613 5.0132632 -0.42789882 3 11
-7.0113468 4.9240007 1.0519762 0 29
-6.463376 5.0279775 0.66849059 17 28
-6.5229244 4.5809865 2.1357749 3 31
-5.901382 4.5907922 1.3632034 1 30
-11.669793 8.1955824 -0.33182544 1 16
-2.4854877 1.9474701 -1.4724021 3 0
-6.4267244 5.0355721 -0.23761149 5 15
-4.0689468 2.8788416 -1.3953221 4 1
-5.1900167 4.0665665 -1.3186928 3 2
-11.670388 8.2569771 0 2 20
-11.682189 10.112291 -0.17987803 3 18
-6.5595622 4.6409903 -1.2501116 7 3
-6.4404526 5.046329 -1.0414603 3 4
-7.7877908 4.9575467 0.053655591 10 21
-7.1749358 5.076376 -0.94673795 0 5
-5.9291258 5.1323471 -0.73202753 0 6
-11.634585 8.2316465 0.33163932 1 24
-11.691261 10.120144 0.18001772 5 22
-11.638703 8.2345591 -0.99695951 1 8
-6.4489241 5.0529666 -0.66881603 4 7
-7.8022842 4.966773 -0.59275854 2 9
-5.8089652 5.0283341 -0.44743794 0 10
-6.4457889 5.0505095 -0.4291549 2 11
-6.9649482 4.9278069 1.0475889 0 29
-6.4489241 5.0529666 0.66881603 4 28
-7.811811 4.9728374 -0.37727511 5 13
-6.4690452 4.5769477 2.1233516 2 31
-5.8636389 4.5943742 1.358181 1 30
-2.4815202 1.9583801 -1.4740926 3 0
-4.0525994 2.8885565 -1.3931655 4 1
-5.1665525 4.0773692 -1.3163394 3 2
-11.661037 8.311595 0 2 20
-11.692043 10.192433 -0.1805765 3 18
-6.5304475 4.6546831 -1.2476519 6 3
-7.0729694 5.0413747 -0.93559986 0 5
-5.8841548 5.1294589 -0.7286815 0 6
-11.651369 8.3047037 0.33294207 1 24
-11.692043 10.192433 0.1805765 5 22
-7.9052615 5.0711904 0.27333468 1 25
-6.4453797 5.0866008 0.14331917 32 23
-7.8252172 5.0198421 -0.59582847 1 9
-5.8666296 5.114181 -0.45325184 0 10
-11.693341 8.3346205 0.83627176 2 27
-6.9186072 4.9313502 1.0432017 0 29
-11.726462 9.2543554 1.2194908 3 28
-7.8482285 5.0346041 -0.3798804 1 13
-5.9242167 5.164382 -0.27444965 0 14
-6.3083 4.4963441 2.0757289 3 31
-5.8259416 4.5977492 1.3531587 1 30
-2.4721742 1.9643431 -1.4724021 2 0
-7.8804607 5.092247 -0.16377339 1 17
-4.0367398 2.8974874 -1.391009 4 1
-5.1499319 4.0920391 -1.3155549 3 2
-11.662658 8.371212 0 2 20
-11.697261 10.265447 -0.18118183 3 18
-6.5085549 4.6717048 -1.2464222 6 3
-6.4401278 5.1172047 -1.0470161 16 4
