# .PCD v0.7 - Point Cloud Data file format
VERSION 0.7
FIELDS x y z intensity ring
SIZE 4 4 4 4 2
TYPE F F F F U
COUNT 1 1 1 1 1
WIDTH 1272
HEIGHT 1
VIEWPOINT 0 0 0 1 0 0 0
POINTS 1272
DATA ascii
-2.1596029 -2.7198613 -1.6194733 1 0
-43.875271 -55.257683 -2.0534427 35 15
-3.3518183 -4.6731482 -1.6099041 2 1
-4.4878025 -5.6520576 -1.4434233 14 2
-49.72493 -69.327141 0 58 20
-70.067894 -79.89711 -1.2371678 30 18
-4.1142616 -5.7361569 -1.0982289 10 3
-44.48814 -68.899956 0.47666997 30 21
-63.020317 -79.369461 -0.58902591 30 19
-12.931683 -18.029518 -2.3899779 5 5
-14.83934 -16.921024 -2.100908 2 6
-70.160194 -80.002365 1.2387977 63 22
-4.7745609 -6.6567545 -0.57284021 0 8
-5.3672061 -6.7596021 -0.70461643 1 7
-44.56332 -69.016388 2.3908927 30 25
-4.3284826 -6.7036347 -0.51140451 1 9
-5.9267082 -6.7581148 -0.52348381 0 10
-49.82468 -69.466217 4.9785609 58 27
-44.893646 -56.540249 5.8937173 56 28
-44.421665 -68.796997 -3.3363693 62 13
-70.248718 -80.10331 -3.7205656 63 14
-49.790718 -69.418861 -1.9878819 41 16
-2.1672919 -2.7090974 -1.6177827 1 0
-44.948109 -69.055618 -1.4382179 43 17
-63.432419 -79.290016 -2.955133 29 15
-3.3621528 -4.6514673 -1.6066693 2 1
-4.5182881 -5.6478243 -1.4465612 12 2
-50.107552 -69.322731 0 58 20
-70.664787 -79.984489 -1.2425227 30 18
-4.1398869 -5.7274456 -1.0994587 13 3
-5.3839321 -6.7298717 -1.0970184 1 4
-44.801453 -68.830307 0.47732091 30 21
-63.49818 -79.372215 -0.59076941 30 19
-12.429213 -17.195551 -2.2854512 5 5
-5.9647212 -6.7513852 -0.840958 0 6
-35.77607 -49.49543 1.4210987 44 24
-70.762772 -80.095398 1.2442455 63 22
-16.400028 -22.689093 -1.9576457 11 8
-44.959919 -69.073761 2.3985727 30 25
-4.3639107 -6.7044544 -0.51268369 0 9
-5.9725876 -6.7602892 -0.52534419 0 10
-50.228649 -69.490265 4.9934444 58 27
-45.360394 -56.700127 2.9582798 39 26
-44.821758 -68.861504 -3.3474414 61 13
-70.793274 -80.129929 -3.7338274 63 14
-2.1767359 -2.701515 -1.6177827 1 0
-45.175743 -68.878227 -1.4377991 43 17
-63.834259 -79.223763 -2.9609509 29 15
-3.3806374 -4.6428161 -1.6077474 2 1
-4.5478206 -5.6442332 -1.449699 14 2
-50.506996 -69.364044 0 58 20
-71.124359 -79.940514 -1.245689 30 18
-4.1645088 -5.7193499 -1.1006886 13 3
-45.186249 -68.894249 0.47885525 30 21
-45.534843 -56.51263 -0.42180547 27 19
-13.111868 -18.007252 -2.3994024 5 5
-35.522579 -48.785118 1.4042562 44 24
-71.267929 -80.101883 1.2482036 63 22
-16.476786 -22.628479 -1.9573667 11 8
-13.752464 -17.067982 -1.7893676 3 7
-45.253407 -68.996643 2.4013655 30 25
-45.767059 -56.800827 1.2732577 36 23
-4.3938565 -6.6991935 -0.51345122 0 9
-50.651917 -69.563072 5.0113516 58 27
-20.081192 -27.578609 -1.5891309 7 12
-44.921886 -55.751896 5.8448992 55 28
-45.189011 -68.89846 -3.3568854 61 13
-71.32235 -80.163048 -3.7469497 63 14
-50.629852 -69.532768 -2.0014675 40 16
-2.1897788 -2.7002952 -1.6211637 1 0
-45.495472 -68.89283 -1.4410802 43 17
-46.471756 -57.306 -2.1472306 33 15
-3.395206 -4.6321731 -1.6077474 1 1
-4.5778818 -5.6451511 -1.4536214 9 2
-50.890182 -69.43087 0 57 20
-46.898624 -52.379631 -0.81850791 30 18
-4.189465 -5.7158027 -1.1025332 13 3
-13.723577 -16.923038 -2.7733552 19 4
-45.495018 -68.892136 0.47983164 30 21
-45.878429 -56.574348 -0.42333984 27 19
-15.097802 -16.86227 -2.1128047 2 6
-35.791496 -48.831322 1.4088157 44 24
-49.630692 -55.430992 0.86618978 54 22
-4.9324918 -6.7295337 -0.58344316 1 8
-21.007843 -25.905529 -2.7227809 7 7
-45.577885 -69.017624 2.4070671 30 25
-45.743744 -56.40826 1.267673 36 23
-6.0306106 -6.7354035 -0.52650702 0 10
-51.03072 -69.622612 5.0271649 57 27
-20.205526 -27.566954 -1.5921091 7 12
-47.605385 -58.703918 6.1700311 59 28
-45.532963 -68.949593 -3.3663297 61 13
-48.561184 -54.236492 -2.5422189 57 14
-36.150833 -49.321575 -1.4229598 31 16
-2.2047191 -2.6974812 -1.6245446 1 0
-45.76189 -68.720955 -1.44115 43 17
-64.853867 -79.348923 -2.9824779 29 15
-3.415256 -4.6222 -1.6088258 2 1
-4.619381 -5.6518283 -1.4598972 3 2
-51.365578 -69.518059 0 57 20
-46.783234 -51.848766 -0.81301332 30 18
-4.2184272 -5.7092099 -1.104378 14 3
-5.5168881 -6.7499309 -1.1096451 0 4
-45.909973 -68.943336 0.48141244 30 21
-46.277569 -56.620762 -0.42501366 27 19
-4.9559956 -6.7074337 -0.89833015 0 5
-19.916876 -22.073408 -2.77531 4 6
-51.392078 -69.553925 2.0123549 30 24
-71.9674 -79.759789 1.2506715 63 22
-19.657703 -26.604692 -2.3131247 8 8
-5.5177317 -6.7509632 -0.71177644 1 7
-45.955589 -69.011833 2.4130018 30 25
-49.386932 -60.425079 1.3621953 42 23
-4.4759169 -6.7215161 -0.51754445 1 9
-6.1286564 -6.7922468 -0.53278601 1 10
-51.456673 -69.641342 5.0427465 57 27
-45.984539 -56.262238 2.9603968 39 26
-20.342093 -27.530941 -1.5945286 7 12
-45.914787 -68.950562 -3.3749597 61 13
-50.142895 -55.572201 -2.6138327 59 14
-36.292416 -49.118076 -1.4210987 31 16
-2.2118177 -2.68697 -1.6228542 1 0
-65.359154 -79.399887 -2.9929504 29 15
-3.4290702 -4.6071606 -1.6077474 2 1
-4.6540384 -5.6538391 -1.464604 3 2
-51.736897 -69.511604 0 57 20
-72.406769 -79.685699 -1.2534653 30 18
-4.25249 -5.7134738 -1.1080674 14 3
-5.5454607 -6.7367601 -1.1106553 1 4
-46.299671 -69.005203 0.48297009 30 21
-65.573845 -79.660698 -0.59967333 30 19
-12.822434 -17.227707 -2.3132963 5 5
-72.269585 -79.534729 1.2510906 63 22
-19.76475 -26.555122 -2.3147988 8 8
-5.5615344 -6.7562871 -0.71438015 1 7
-46.329868 -69.050209 2.4199834 30 25
-44.519108 -54.082893 1.2227156 33 23
-4.4971285 -6.7025371 -0.51728863 0 9
-51.871117 -69.69194 5.0594902 57 27
-46.421959 -56.39452 2.9758654 39 26
-20.461929 -27.491821 -1.5963899 7 12
-65.365761 -79.407913 -5.3901854 63 11
-46.815704 -56.872852 6.0134859 57 28
-46.244255 -68.922615 -3.3814726 61 13
-51.866154 -69.685272 -2.0213809 40 16
-2.2188702 -2.6764419 -1.6211637 1 0
-46.843067 -69.291077 -1.4599286 42 17
-65.888557 -79.475983 -3.0044703 29 15
-3.4405105 -4.5889988 -1.6055909 2 1
-4.6887665 -5.6556764 -1.4693109 2 2
-52.14959 -69.557816 0 57 20
-49.822582 -54.448074 -0.85920513 30 18
-4.2818918 -5.7112446 -1.1105272 14 3
-46.658997 -69.018799 0.48420221 30 21
-65.989365 -79.597588 -0.60092866 30 19
-13.45505 -17.946524 -2.4161096 6 5
-6.1542339 -6.7255883 -0.8509959 0 6
-52.238621 -69.676567 2.0264056 30 24
-19.890837 -26.530663 -2.3187051 8 8
-21.286934 -25.676691 -2.7227809 7 7
-46.727367 -69.119934 2.4281287 30 25
-66.100403 -79.731522 1.8077902 44 23
-4.5450892 -6.723175 -0.52010274 0 9
-6.1678386 -6.7404561 -0.53208834 1 10
-52.315285 -69.778824 5.0790253 57 27
-45.12376 -54.429111 2.8804474 38 26
-20.615294 -27.496952 -1.6008569 7 12
-65.882202 -79.468323 -5.4098635 63 11
-46.710648 -69.0952 -3.3979187 60 13
-47.02409 -51.389771 -2.4324951 54 14
-52.231426 -69.666969 -2.0261264 40 16
-2.2272675 -2.6694577 -1.6211637 1 0
-47.033516 -69.103897 -1.4590909 42 17
-66.360764 -79.53569 -3.0145938 29 15
-3.4595509 -4.5843163 -1.6077474 2 1
-4.7140493 -5.6499524 -1.4716642 6 2
-52.550976 -69.636292 0 56 20
-46.880322 -50.910583 -0.80570275 30 18
-4.3093367 -5.7103834 -1.1129867 15 3
-14.083086 -16.879068 -2.798104 19 4
-47.033134 -69.103333 0.48582953 30 21
-66.546616 -79.758438 -0.6037184 30 19
-5.1003008 -6.7585053 -0.91203856 1 5
-20.039482 -21.76226 -2.7615545 4 6
-43.419308 -57.535744 1.6772726 35 24
-5.0836573 -6.7364507 -0.59013975 1 8
-14.193064 -17.010881 -1.8085696 3 7
-47.072517 -69.161194 2.4347615 30 25
-50.280483 -60.262913 1.3699441 42 23
-4.5886488 -6.7418623 -0.52266103 0 9
-6.1484094 -6.6769834 -0.52859998 1 10
-42.994377 -56.97266 4.1567078 55 27
-45.645317 -54.707504 2.9027553 38 26
-20.730461 -27.470325 -1.6030904 7 12
-66.377205 -79.555397 -5.4299607 63 11
-74.002129 -88.694122 9.4298172 63 28
-46.997192 -69.050522 -3.402966 60 13
-74.077538 -80.445923 -3.8188424 63 14
-2.2375011 -2.660886 -1.6211637 1 0
-67.000191 -79.678116 -3.029721 29 15
-3.477128 -4.5709991 -1.6077474 2 1
-4.7483306 -5.6468201 -1.4755865 7 2
-60.042004 -78.930634 0 44 20
-52.307278 -56.368195 -0.89524597 30 18
-4.3384104 -5.7032323 -1.1148314 15 3
-47.442982 -69.133316 0.48731738 30 21
-67.091797 -79.787048 -0.60588044 30 19
-5.1165824 -6.7262096 -0.91032493 1 5
-6.2768917 -6.7642031 -0.86140573 0 6
-60.074181 -78.972939 2.3089132 30 24
-74.711853 -80.512161 1.2787032 63 22
-5.1094866 -6.7168813 -0.59013975 0 8
-47.47121 -69.174446 2.4416268 30 25
-47.945267 -57.017574 1.3003439 38 23
-6.3016658 -6.7909002 -0.53953016 1 10
-20.85272 -27.412785 -1.6043932 7 12
-66.959839 -79.630127 -5.45257 63 11
-74.052208 -88.064529 9.3930407 63 28
-47.458729 -69.156258 -3.4171321 60 13
-74.750259 -80.553551 -3.8375487 63 14
-2.2481914 -2.6566107 -1.6228542 1 0
-35.029697 -50.70266 -1.0756965 45 17
-67.309586 -79.53743 -3.0323973 29 15
-3.4914711 -4.5600524 -1.6077474 2 1
-4.78125 -5.6498394 -1.4802934 6 2
-60.331013 -78.795601 0 44 20
-50.848919 -54.452518 -0.86735386 30 18
-4.3683205 -5.705265 -1.117906 15 3
-5.690485 -6.7242508 -1.1212618 1 4
-47.782715 -69.161621 0.48857275 30 21
-49.169411 -58.101807 -0.44237965 28 19
-13.735156 -17.938866 -2.4336736 6 5
-60.431377 -78.926682 2.3131006 30 24
-20.284523 -26.492697 -2.3332145 8 8
-5.7070775 -6.7438579 -0.72121471 0 7
-47.808754 -69.199318 2.447794 30 25
-52.154522 -61.629211 1.4092469 43 23
-4.6469493 -6.7260842 -0.52394021 0 9
-42.920116 -56.056019 4.1115918 55 27
-44.843658 -52.990215 2.8281794 37 26
-74.186859 -87.664062 9.3751411 63 28
-47.816608 -69.210686 -3.4272275 59 13
-42.8409 -45.87698 -2.1919675 48 14
-2.2555614 -2.6455941 -1.6211637 1 0
-47.587646 -55.816528 -2.1346633 33 15
-3.5081611 -4.547225 -1.6077474 2 1
-4.8222842 -5.6561556 -1.4865692 12 2
-36.791897 -47.689102 0 44 20
-43.245827 -45.971661 -0.7347852 30 18
-4.398859 -5.7017345 -1.1203657 16 3
-48.177593 -69.189552 0.49001411 30 21
-67.698204 -79.40461 -0.60646164 30 19
-13.220213 -17.135839 -2.3312888 5 5
-20.316425 -21.596992 -2.7678745 4 6
-43.311237 -56.13937 1.649915 36 24
-20.400988 -26.443451 -2.3354468 8 8
-21.587204 -25.320074 -2.7162719 6 7
-48.231129 -69.266434 2.4564047 30 25
-47.59795 -55.828609 1.2805878 37 23
-43.078934 -55.838261 4.1071734 55 27
-46.302956 -54.309685 2.9076397 38 26
-74.166245 -86.991112 9.33218 63 28
-48.184151 -69.198967 -3.4353693 59 13
-74.954453 -79.678917 -3.8200991 63 14
-2.2647824 -2.6377048 -1.6211637 1 0
-48.747593 -69.489624 -1.4816395 41 17
-47.79261 -55.662212 -2.135129 33 15
-3.5240121 -4.5349517 -1.6077474 2 1
-4.8496637 -5.6482162 -1.4889226 11 2
-43.238911 -55.642929 0 54 20
-75.165611 -79.346573 -1.2724171 30 18
-4.4332857 -5.70507 -1.1240551 16 3
-14.441784 -16.819788 -2.8218424 13 4
-48.588802 -69.263268 0.49173442 30 21
-47.8876 -55.772839 -0.42724541 27 19
-5.2490191 -6.7548141 -0.92146307 1 5
-15.88881 -16.772598 -2.1566741 2 6
-43.663971 -56.189926 1.6558703 36 24
-75.135345 -79.314621 1.2719048 63 22
-5.2371426 -6.7395306 -0.59683639 0 8
-21.696232 -25.268764 -2.7188754 6 7
-48.589729 -69.264587 2.4623392 30 25
-47.930622 -55.822945 1.2842877 37 23
-6.4371691 -6.7952256 -0.54511148 1 10
-44.59671 -57.390244 4.2327533 57 27
-48.090851 -56.00956 3.007617 40 26
-21.379061 -27.512108 -1.6230056 8 12
-45.050629 -57.974377 9.0149193 53 29
-74.357773 -86.601624 9.3181849 63 28
-74.98745 -79.158501 -3.8076746 63 14
-2.2735174 -2.6301796 -1.6211637 1 0
-48.966232 -69.311256 -1.4812905 41 17
-48.003086 -55.533661 -2.1362925 33 15
-3.5414054 -4.5262742 -1.6088258 2 1
-4.8786278 -5.6439714 -1.4920604 9 2
-37.019531 -47.314701 0 44 20
-48.244751 -50.591198 -0.81385142 30 18
-4.4594874 -5.6996756 -1.1258998 18 3
-5.8410296 -6.7573524 -1.1369191 2 4
-48.979782 -69.330437 0.49336174 30 21
-5.2591386 -6.7217102 -0.91932118 1 5
-43.81065 -55.994438 1.6543815 36 24
-75.163322 -78.818993 1.2679468 63 22
-5.2570047 -6.7189832 -0.59655732 0 8
-41.134422 -58.225403 2.0747368 30 25
-48.120708 -55.669735 1.2844273 37 23
-44.690819 -57.119381 4.2236838 57 27
-48.265873 -55.837673 3.0069656 40 26
-21.475105 -27.447353 -1.6233778 8 12
-69.092995 -79.932091 -5.5371447 63 11
-45.428574 -58.062305 9.0519676 53 29
-45.929695 -53.135002 5.733592 54 28
-75.012276 -78.660599 -3.7956693 63 14
-2.2874441 -2.6276968 -1.6245446 1 0
-49.316853 -69.293068 -1.4845715 41 17
-48.146744 -55.308468 -2.1340816 33 15
-3.5571823 -4.513885 -1.6088258 2 1
-4.9163246 -5.6476178 -1.4975517 12 2
-62.413132 -79.19912 0 63 20
-48.265903 -50.260941 -0.81124383 30 18
-4.4964795 -5.7058058 -1.1302042 15 3
-14.631487 -16.80789 -2.8364894 19 4
-48.463089 -55.671871 -0.42898902 27 19
-14.095052 -17.88591 -2.452951 6 5
-6.4854555 -6.7535272 -0.87404609 0 6
-43.953846 -55.775219 1.6524274 36 24
-75.285606 -78.397484 1.2653857 63 22
-20.808033 -26.404346 -2.3507931 8 8
-5.8949146 -6.7717705 -0.7329312 0 7
-41.569244 -58.407227 2.0863731 30 25
-69.823822 -80.209969 1.856238 44 23
-4.7843847 -6.7223411 -0.52880102 1 9
-6.4445491 -6.7109299 -0.54185575 1 10
-43.567589 -55.285076 4.0992665 55 27
-45.547646 -52.322762 2.8262253 37 26
-21.595509 -27.403612 -1.6252391 8 12
-46.292877 -53.178844 5.7557235 54 28
-49.387768 -69.392708 -3.4700518 58 13
-75.10363 -78.207985 -3.7864556 63 14
-2.2989926 -2.6224222 -1.6262352 1 0
-49.735542 -69.367516 -1.489877 41 17
-70.11602 -79.980171 -3.0954657 29 15
-3.5753121 -4.504458 -1.6099041 2 1
-4.9515233 -5.6481194 -1.5022585 13 2
-62.768791 -79.081032 0 63 20
-48.407688 -50.057648 -0.8106851 30 18
-4.5286555 -5.7055545 -1.1332787 17 3
-49.823853 -69.490685 0.49696514 30 21
-70.313278 -80.20517 -0.61992198 30 19
-14.199433 -17.889557 -2.4602337 6 5
-16.199108 -16.751249 -2.1752632 2 6
-62.903458 -79.250702 2.3544161 30 24
-52.044518 -53.818439 0.87159121 55 22
-20.927366 -26.365934 -2.3538625 8 8
-22.010468 -25.10697 -2.7257099 7 7
-42.04546 -58.641945 2.0999875 30 25
-70.338028 -80.233406 1.862451 44 23
-75.155746 -77.717407 -6.2962241 63 10
-43.770237 -55.145172 4.1001964 55 27
-45.895996 -52.352795 2.8364835 37 26
-21.755621 -27.409433 -1.6300783 8 12
-48.530693 -55.358147 -3.858207 58 11
-74.373047 -84.836082 9.2101336 63 28
-75.145523 -77.706833 -3.7748692 63 14
-37.657047 -47.443298 -1.4094671 30 16
-2.3057332 -2.6116633 -1.6245446 1 0
-50.120228 -69.391251 -1.4941355 40 17
-45.978092 -52.078571 -2.0217919 36 15
-3.5934188 -4.4949589 -1.6109824 2 1
-4.9867845 -5.6484423 -1.5069654 13 2
-43.902077 -54.916508 0 54 20
-75.323219 -77.348465 -1.2569112 30 18
-4.5658197 -5.7113218 -1.1375831 17 3
-50.138725 -69.416855 0.49768582 30 21
-52.728863 -59.725052 -0.46304682 29 19
-5.4012532 -6.7563543 -0.93174446 1 5
-6.5963526 -6.7737107 -0.88259691 1 6
-63.364487 -79.261772 2.3613019 30 24
-75.342758 -77.368523 1.2572371 63 22
-5.3893652 -6.7414837 -0.60353303 1 8
-5.9869018 -6.7812581 -0.738464 0 7
-70.87442 -80.278206 1.8692225 44 23
-6.6026797 -6.7802081 -0.55115795 2 10
-44.059704 -55.113682 4.1092663 55 27
-47.766071 -54.103786 2.9403687 39 26
-21.798769 -27.267784 -1.6261698 8 12
-48.720993 -55.18541 -3.8579977 57 11
-48.934811 -55.427597 6.0359426 58 28
-75.276863 -77.300858 -3.7678893 63 14
-2.3152902 -2.6031947 -1.6245446 1 0
-50.562515 -69.465767 -1.4997202 40 17
-71.279106 -80.142609 -3.1214142 29 15
-3.6050375 -4.4757586 -1.6088258 2 1
-5.0257006 -5.6506429 -1.5124567 13 2
-44.158264 -54.823765 0 54 20
-75.410149 -76.871994 -1.2536515 30 18
-4.6015987 -5.7130179 -1.1412725 17 3
-5.9939861 -6.7393341 -1.1480306 2 4
-50.569363 -69.475174 0.49942943 30 21
-52.880959 -59.456665 -0.46246564 29 19
-5.4160013 -6.7241225 -0.93003082 1 5
-6.6127691 -6.7409596 -0.88148159 1 6
-44.314384 -55.01759 1.6438665 37 24
-75.460571 -76.923401 1.2544898 63 22
-5.4090319 -6.7154703 -0.60297495 0 8
-35.614521 -48.929337 1.7612573 30 25
-4.9285059 -6.7710724 -0.53673172 0 9
-6.6358767 -6.7645149 -0.55185562 1 10
-45.614059 -56.63118 4.2348466 57 27
-71.380325 -80.256416 4.3758702 45 26
-49.066288 -55.167645 -3.8693025 58 11
-45.545021 -56.545464 8.9149866 52 29
-74.564896 -83.83699 9.1593618 63 28
-35.858791 -49.264923 -2.4824929 45 13
-75.260147 -76.719086 -3.7529523 63 14
-2.3219442 -2.5923965 -1.6228542 1 0
-36.163719 -49.321091 -1.0675288 45 17
-46.493633 -51.909058 -2.0280757 36 15
-3.6230655 -4.4661384 -1.6099041 2 1
-5.0532451 -5.64183 -1.5148101 12 2
-46.108318 -56.837543 0 56 20
-75.545914 -76.474564 -1.2514631 30 18
-4.6339626 -5.7122669 -1.1443471 18 3
-50.962933 -69.504677 0.50091726 30 21
-46.904831 -52.368149 -0.40860081 26 19
-13.837876 -17.057896 -2.3659883 5 5
-17.300177 -17.512838 -2.2979493 3 6
-44.352478 -54.673126 1.6381904 37 24
-75.484077 -76.411964 1.2504387 63 22
-21.337603 -26.302778 -2.368372 8 8
-15.156013 -16.921335 -1.8544593 3 7
-35.983696 -49.075569 1.7710317 30 25
-75.397972 -76.324806 -6.2480845 63 10
-71.681374 -80.030579 4.3771729 45 26
-74.676216 -83.374252 9.1372309 63 28
-36.073078 -49.197472 -2.485424 45 13
-75.361732 -76.288116 -3.7447159 63 14
-64.542244 -79.560959 -2.3839135 45 16
-2.3397853 -2.5958607 -1.6296161 1 0
-51.307098 -69.515045 -1.5080973 40 17
-71.977692 -79.855225 -3.1287451 29 15
-3.6395137 -4.4577188 -1.6109824 2 1
-5.084074 -5.6404953 -1.5187324 13 2
-46.271465 -56.673828 0 56 20
-75.455856 -75.904984 -1.2460151 30 18
-4.6593833 -5.7068672 -1.1461918 16 3
-15.09239 -16.744162 -2.8693192 20 4
-51.382938 -69.617798 0.50289333 30 21
-14.555403 -17.827627 -2.4790826 6 5
-6.7387567 -6.7788663 -0.89226311 0 6
-44.432964 -54.422009 1.6348404 37 24
-75.557381 -76.007103 1.2476914 63 22
-21.447882 -26.269615 -2.3714411 8 8
-50.139378 -55.626835 1.3071852 38 23
-6.7594204 -6.7996535 -0.55836719 1 10
-71.996651 -79.876259 4.3810811 45 26
-48.736904 -54.070866 5.9425359 57 28
-75.389648 -75.838371 -3.7342463 63 14
-64.920845 -79.5158 -2.3886595 45 16
-2.3468468 -2.5845838 -1.6279256 1 0
-51.800224 -69.647438 -1.5150783 39 17
-50.135761 -55.214546 -2.1705031 32 15
-3.6607218 -4.4502988 -1.613139 2 1
-5.1258073 -5.6450548 -1.5250082 11 2
-46.22477 -56.194935 0 56 20
-75.609039 -75.503563 -1.2439662 30 18
-4.6953349 -5.708066 -1.1498814 14 3
-6.1350846 -6.7565727 -1.1616677 1 4
-51.764271 -69.599098 0.50412542 30 21
-53.044029 -58.417419 -0.45860654 29 19
-5.5556951 -6.7539964 -0.94202572 1 5
-44.619438 -54.243351 1.6343752 37 24
-75.583565 -75.478119 1.2435471 63 22
-43.384624 -58.332333 2.1156964 30 25
-72.337883 -79.665749 1.8782978 44 23
-6.7786465 -6.7691898 -0.5579021 1 10
-72.299675 -79.623672 4.381732 45 26
-65.382225 -79.484436 -4.7941947 45 12
-50.808098 -55.954987 6.1700311 59 28
-75.437981 -75.332741 -3.7229388 63 14
-65.412544 -79.521294 -2.3960104 45 16
-2.353858 -2.5732892 -1.6262352 1 0
-52.139103 -69.569107 -1.5175216 39 17
-48.05476 -52.534519 -2.0720606 35 15
-3.6720934 -4.4309187 -1.6109824 2 1
-5.1649957 -5.6464868 -1.5304995 8 2
-65.83622 -79.44104 0 63 20
-75.612587 -74.955589 -1.239496 30 18
-4.7288356 -5.7060328 -1.1529559 13 3
-6.162488 -6.7369671 -1.1621728 2 4
-52.239719 -69.703362 0.50626421 30 21
-47.477646 -51.903606 -0.40883327 26 19
-5.5702624 -6.7213383 -0.94031221 0 5
-17.615557 -17.462496 -2.3154228 3 6
-44.807755 -54.067123 1.634003 37 24
-75.640991 -74.983749 1.2399617 63 22
-5.5786538 -6.7314634 -0.61134577 0 8
-6.1808496 -6.7570405 -0.74757683 0 7
-52.309616 -69.796623 2.53844 30 25
-73.782036 -80.660149 1.9081066 44 23
-5.1015663 -6.8070102 -0.54517412 0 9
-25.911955 -25.686806 -2.1248651 9 10
-45.439686 -54.829643 4.1471729 55 27
-49.11697 -53.695747 2.9647927 39 26
-65.882195 -79.496521 -4.8094573 45 12
-73.533073 -80.38797 -5.7096443 63 11
-47.769032 -57.640339 9.1918745 55 29
-50.881004 -55.624233 6.1540837 59 28
-75.50351 -74.847458 -3.7126086 63 14
-65.928123 -79.551941 -2.4041991 45 16
-2.354564 -2.5578804 -1.6211637 1 0
-52.557304 -69.669983 -1.5233159 39 17
-47.621098 -51.733177 -2.0463445 36 15
-3.6859946 -4.4193616 -1.6109824 2 1
-5.1986461 -5.6475492 -1.5352063 6 2
-66.300667 -79.491875 0 63 20
-75.639664 -74.512787 -1.2360969 30 18
-4.7619267 -5.7093616 -1.1566453 15 3
-52.578876 -69.698578 0.50742662 30 21
-50.777481 -55.162113 -0.43575409 28 19
-14.832997 -17.784178 -2.4945047 6 5
-6.8774672 -6.7750063 -0.90118569 0 6
-47.88195 -57.408566 1.7395246 34 24
-75.696655 -74.568924 1.2370281 63 22
-21.864923 -26.215178 -2.3870666 8 8
-22.521223 -24.465929 -2.7146444 6 7
-44.228539 -58.629368 2.1373396 30 25
-74.278824 -80.692795 1.9143895 44 23
-6.9013729 -6.7985559 -0.56418109 1 10
-44.869968 -53.797321 4.0797319 54 27
-74.298935 -80.714645 4.4694972 45 26
-66.379845 -79.586815 -4.8275113 45 12
-73.93943 -80.324097 -5.7215767 63 11
-75.544601 -74.419136 -3.7031157 63 14
-66.367249 -79.571701 -2.4110849 45 16
-2.3688536 -2.5545497 -1.6245446 1 0
-45.996876 -60.510895 -1.3267319 45 17
-74.562035 -80.407013 -3.1913478 29 15
-3.702168 -4.4058223 -1.6109824 2 1
-5.2246451 -5.6342087 -1.5367752 4 2
-66.864342 -79.572945 0 63 20
-75.769287 -74.095222 -1.2337687 30 18
-4.7904487 -5.7009478 -1.1584901 18 3
-14.29172 -17.008081 -2.3929768 5 5
-50.674931 -60.306484 1.8329495 31 24
-75.780716 -74.106407 1.2339549 63 22
-22.02504 -26.211239 -2.3940423 8 8
-6.2944674 -6.7878952 -0.75571328 0 7
-60.073715 -79.029587 2.889039 30 25
-74.756287 -80.616486 1.9190667 44 23
-5.1163759 -6.7308154 -0.5418483 0 9
-49.937866 -53.852531 2.9921484 40 26
-66.928154 -79.64888 -4.8461232 45 12
-74.621742 -80.471397 -5.7515125 63 11
-75.602501 -73.932129 -3.692646 63 14
-67.026329 -79.765724 -2.4243915 45 16
-2.3802304 -2.5489149 -1.6262352 1 0
-60.662209 -79.228172 -1.7417501 30 17
-75.027817 -80.344963 -3.1992607 29 15
-3.7150362 -4.3899317 -1.6099041 2 1
-5.2576652 -5.6302705 -1.5406976 3 2
-46.979034 -55.513523 0 56 20
-75.783569 -73.593437 -1.2298107 30 18
-4.8230858 -5.699276 -1.1615646 16 3
-6.3046522 -6.7514563 -1.1758097 2 4
-42.904507 -45.945103 -0.36536017 23 19
-17.923008 -17.405037 -2.3321526 3 6
-47.278889 -55.867855 1.703048 35 24
-75.723305 -73.53492 1.2288328 63 22
-60.546108 -79.076546 2.8984644 30 25
-26.369883 -25.607798 -2.1406791 9 10
-45.209934 -53.423038 4.0757785 54 27
-75.019188 -80.335724 4.478127 45 26
-67.358063 -79.594727 -4.8571048 45 12
-75.685173 -73.497887 -3.6841304 63 14
-47.402893 -56.014381 -1.7075145 40 16
-2.38867 -2.5410078 -1.6262352 1 0
-60.985645 -79.105766 -1.7434953 30 17
-42.978889 -45.719875 -1.8261875 41 15
-3.7295737 -4.3775878 -1.6099041 2 1
-5.2924261 -5.6299515 -1.5454044 2 2
-83.793793 -98.352982 0 63 20
-75.796906 -73.119568 -1.2260855 30 18
-4.8599019 -5.7043109 -1.165869 17 3
-48.34145 -51.424435 -0.41020489 26 19
-5.7360406 -6.7326789 -0.95273548 0 5
-7.0168304 -6.7689786 -0.91010839 0 6
-47.48465 -55.735119 1.7037925 35 24
-75.762367 -73.08625 1.2255268 63 22
-22.30904 -26.18524 -2.4054823 9 8
-61.005741 -79.131828 2.9078898 30 25
-51.537144 -54.823936 1.3133984 39 23
-5.2498136 -6.8096437 -0.55105817 0 9
-7.0555325 -6.8063135 -0.57092524 1 10
-44.793804 -52.57674 4.0225229 53 27
-51.942997 -55.255669 3.0896828 41 26
-47.79847 -56.103462 -3.4332526 45 12
-47.707329 -55.99649 9.0324688 53 29
-51.835575 -55.141396 6.1781678 59 28
-75.712708 -73.038345 -3.6736608 63 14
-47.590977 -55.859921 -1.7076076 40 16
-2.3900487 -2.524756 -1.6211637 1 0
-3.7498486 -4.3703899 -1.6120608 2 1
-5.314743 -5.6142912 -1.5461888 2 2
-67.914612 -79.153412 0 63 20
-75.872612 -72.682991 -1.2231985 30 18
-4.9029479 -5.7143087 -1.1714032 16 3
-15.764314 -16.652819 -2.9188163 21 4
-43.253101 -55.701313 0.40987942 30 21
-51.350239 -54.244431 -0.43412676 27 19
-14.590406 -17.00489 -2.4135394 6 5
-67.948318 -79.192696 2.4281137 30 24
-75.762856 -72.57785 1.2214291 63 22
-22.418497 -26.128407 -2.4074354 9 8
-15.858004 -16.751789 -1.8830994 3 7
-43.858398 -56.480812 2.0811367 30 25
-44.956261 -52.395817 4.0206628 53 27
-67.867073 -79.098007 -4.8548713 45 12
-52.183964 -55.125141 6.1967187 60 28
-75.822868 -72.635338 -3.6666808 63 14
-68.734718 -80.10923 -2.4562156 45 16
-2.40341 -2.5220649 -1.6245446 1 0
-37.095905 -47.446438 -1.0512632 45 17
-47.699661 -50.054565 -2.0122504 36 15
-3.7643206 -4.3579307 -1.6120608 2 1
-5.3414497 -5.605154 -1.5485423 3 2
-47.980469 -55.546688 0 57 20
-76.037888 -72.359299 -1.2219878 30 18
-4.9347882 -5.7129736 -1.1744777 14 3
-6.4383717 -6.7562308 -1.1879314 2 4
-48.82835 -51.238979 -0.4113673 26 19
-5.8675256 -6.7927976 -0.96687227 0 5
-18.230993 -17.349007 -2.3492544 3 6
-47.975327 -55.540737 1.7077937 35 24
-76.023399 -72.345505 1.221755 63 22
-5.8479657 -6.770153 -0.62557608 0 8
-44.001125 -56.278362 2.0790422 30 25
-50.960011 -53.47588 1.2893838 37 23
-5.2689986 -6.7391601 -0.54824406 0 9
-26.827353 -25.52949 -2.1567252 9 10
-45.142815 -52.261555 4.0218253 53 27
-75.106201 -78.814148 4.4354658 45 26
-69.079727 -79.973167 -4.9226208 45 12
-52.278469 -54.859432 6.1863041 59 28
-76.063316 -72.383499 -3.6666808 63 14
-47.97794 -55.543762 -1.7078867 40 16
-2.4147084 -2.5162766 -1.6262352 1 0
-62.568977 -79.453926 -1.765276 45 17
-75.131828 -78.292046 -3.1579521 29 15
-3.7820368 -4.347671 -1.613139 2 1
-5.3555498 -5.5808163 -1.5469733 5 2
-48.195068 -55.40303 0 57 20
-76.461502 -72.255531 -1.2247351 30 18
-4.970264 -5.7136073 -1.1781672 16 3
-15.97071 -16.642475 -2.9359889 14 4
-47.871384 -49.884964 -0.40183577 25 19
-7.1585259 -6.7647524 -0.91940278 0 6
-48.234516 -55.448376 1.71012 34 24
-76.464409 -72.258278 1.2247818 63 22
-6.4924541 -6.7655416 -0.765477 0 7
-44.793453 -56.881477 2.1070857 30 25
-7.2123146 -6.8155823 -0.5779019 1 10
-75.286736 -78.453468 4.4299297 45 26
-48.420845 -55.662571 -3.4366026 45 12
-52.331608 -54.532799 6.1700311 59 28
-49.87558 -47.132042 -2.3963389 53 14
-48.171524 -55.375961 -1.7078867 40 16
-2.4239149 -2.5074091 -1.6262352 1 0
-62.864746 -79.230324 -1.7654157 45 17
-75.215416 -77.806282 -3.1494577 29 15
-3.8004854 -4.3366766 -1.6142174 2 1
-5.3841476 -5.5696096 -1.5493268 6 2
-47.235184 -53.899353 0 55 20
-77.119637 -72.344223 -1.2310214 30 18
-4.9989872 -5.7042689 -1.180012 15 3
-50.002747 -51.72514 -0.41813233 26 19
-5.9081182 -6.7416644 -0.96558708 0 5
-70.178642 -80.079788 2.4777105 30 24
-77.102135 -72.327805 1.230742 63 22
-22.851297 -26.075272 -2.4244559 9 8
-16.171101 -16.72813 -1.8993725 3 7
-62.954571 -79.343529 2.9476857 30 25
-51.605431 -53.38303 1.2960157 37 23
-5.4088888 -6.8169847 -0.55770981 0 9
-45.984097 -52.471756 4.06322 54 27
-75.259888 -77.852287 4.4115295 45 26
-48.508656 -55.352497 -3.4284132 45 12
-75.213539 -77.804344 -5.6713343 63 11
-50.220013 -47.110279 -2.4045753 53 14
-70.186554 -80.088814 -2.4779897 45 16
-2.4347448 -2.5019555 -1.6279256 1 0
-44.699974 -55.954636 -1.2500811 45 17
-75.288979 -77.367317 -3.1417778 29 15
-3.819942 -4.3298273 -1.6163739 2 1
-5.4025879 -5.5517249 -1.5493268 6 2
-49.033192 -55.578133 0 57 20
-77.798042 -72.497101 -1.238006 30 18
-5.0309496 -5.7024803 -1.1830865 14 3
-45.724628 -57.237274 0.42578083 30 21
-50.176792 -51.561913 -0.41815561 26 19
-15.620689 -17.705736 -2.5433409 6 5
-18.574837 -17.309198 -2.370074 3 6
-70.642235 -80.071548 2.4846895 30 24
-77.768784 -72.469841 1.2375404 63 22
-22.966681 -26.03227 -2.4275253 9 8
-63.436954 -79.409248 2.9579256 30 25
-52.317703 -53.761925 1.3094192 38 23
-27.306482 -25.445894 -2.1737018 9 10
-75.353195 -77.433304 4.4019227 45 26
-48.705166 -55.206322 -3.4293439 45 12
-75.287277 -77.36557 -5.6575174 63 11
-70.668694 -80.101532 -2.48562 45 16
-2.4383891 -2.4882622 -1.6245446 1 0
-75.312332 -76.852707 -3.1315377 29 15
-3.8324752 -4.3135858 -1.6152955 2 1
-5.4301701 -5.541235 -1.5516801 6 2
-71.190254 -80.127144 0 63 20
-44.09082 -40.799953 -0.69934976 30 18
-5.0692019 -5.7055655 -1.1873908 16 3
-6.6070614 -6.7421975 -1.2015685 2 4
-45.899078 -57.046135 0.42554834 30 21
-48.139194 -49.123798 -0.39974347 25 19
-6.0146255 -6.7696729 -0.97544003 0 5
-7.340055 -6.7922053 -0.93353033 0 6
-71.16568 -80.09948 2.4932504 30 24
-78.411728 -72.559204 1.2437334 63 22
-6.0081797 -6.7624183 -0.63255173 0 8
-6.6271257 -6.7626719 -0.77296251 1 7
-63.954388 -79.486359 2.9690962 30 25
-52.507862 -53.581818 1.309489 38 23
-5.4201331 -6.7364678 -0.55412817 0 9
-7.3800116 -6.8291798 -0.58557624 1 10
-75.390862 -76.932854 4.3884082 45 26
-48.794086 -54.919464 -3.422085 45 12
-75.347198 -76.88829 -5.6418166 63 11
-42.773018 -39.580509 -2.0350595 41 14
-47.662468 -53.645786 -1.6698283 39 16
-2.4470596 -2.4797361 -1.6245446 1 0
-64.488068 -79.579315 -1.7878944 45 17
-75.38916 -76.395851 -3.1236253 29 15
-3.8500774 -4.3030534 -1.6163739 2 1
-5.4549894 -5.5278316 -1.5532491 6 2
-71.63488 -80.062988 0 63 20
-78.985542 -72.580063 -1.248809 30 18
-5.1075349 -5.7084556 -1.1916952 14 3
-50.21806 -50.888634 -0.4155286 26 19
-6.0223079 -6.730855 -0.97286969 1 5
-51.243816 -57.272846 1.7882841 32 24
-78.988487 -72.582771 1.2488555 63 22
-6.023766 -6.7324848 -0.63171464 0 8
-23.217213 -23.527239 -2.6983716 6 7
-49.975975 -61.671158 2.3101375 30 25
-75.389923 -76.396629 1.873481 44 23
-75.451202 -76.458725 4.3763585 45 26
-75.427139 -76.434341 -5.6277905 63 11
-79.228302 -72.803131 -3.7574193 63 14
-2.4531455 -2.4686077 -1.6228542 1 0
-64.780624 -79.372314 -1.7883132 45 17
-75.455269 -75.930862 -3.1153634 29 15
-3.8650739 -4.289588 -1.6163739 2 1
-5.4770169 -5.5115385 -1.5540335 7 2
-48.412964 -53.73032 0 56 20
-79.607742 -72.640907 -1.2546295 30 18
-5.1433043 -5.7082105 -1.1953846 16 3
-75.406998 -75.882286 -0.62175858 30 19
-15.911732 -17.65937 -2.5604763 6 5
-18.925709 -17.269436 -2.3916368 3 6
-49.572319 -55.01701 1.7232404 34 24
-79.657959 -72.686737 1.255421 63 22
-23.408976 -25.980062 -2.4453831 9 8
-6.7641015 -6.806736 -0.78337717 0 7
-44.722595 -54.796261 2.0584462 30 25
-75.393967 -75.869179 1.8669887 44 23
-5.5553699 -6.8067045 -0.56308228 0 9
-27.760237 -25.330814 -2.1885855 9 10
-49.948254 -55.434235 4.3455434 58 27
-53.819611 -54.158833 3.1106877 42 26
-46.884113 -52.03355 -3.2625763 45 12
-49.426083 -54.854713 9.0661049 54 29
-64.959175 -79.591087 -4.185523 63 13
-79.505577 -72.547684 -3.7585363 63 14
-2.4694405 -2.4677172 -1.6279256 1 0
-65.362053 -79.516457 -1.7966903 45 17
-75.502083 -75.449394 -3.1064036 29 15
-3.8877895 -4.2846274 -1.6196089 2 1
-5.5045452 -5.5007038 -1.5563869 6 2
-72.326469 -79.709038 0 63 20
-80.287628 -72.749321 -1.2613347 30 18
-5.1764784 -5.7048569 -1.1984593 18 3
-6.7615047 -6.7567859 -1.2167207 2 4
-75.464867 -75.412201 -0.62006152 30 19
-16.013365 -17.647896 -2.5669022 7 5
-7.4934154 -6.7898493 -0.94393998 0 6
-80.275772 -72.738579 1.2611485 63 22
-6.156424 -6.7848282 -0.64064342 0 8
-47.937466 -58.318504 2.1970334 30 25
-75.488602 -75.435913 1.8628001 44 23
-7.5132618 -6.8078322 -0.59045994 1 10
-74.769432 -82.401367 6.4799433 63 27
-54.08466 -54.046917 3.1150842 42 26
-6.7954159 -6.7906737 -0.50347197 0 11
-65.383804 -79.542915 -4.1949668 63 13
-43.333263 -39.264648 -2.0420394 41 14
-46.969383 -51.763683 -1.6264657 37 16
-2.4806118 -2.4616361 -1.6296161 1 0
-65.784569 -79.463417 -1.8006694 45 17
-75.54644 -74.968536 -3.0974438 29 15
-3.9001219 -4.2681875 -1.6185305 1 1
-5.5264959 -5.4842205 -1.5571715 6 2
-73.47847 -80.412834 0 63 20
-80.897858 -72.789673 -1.2669225 30 18
-5.2203546 -5.7130136 -1.2039933 16 3
-65.90316 -79.606674 0.60064971 30 21
-75.571465 -74.993378 -0.61878288 30 19
-50.75095 -55.540459 1.7506909 33 24
-80.930565 -72.819099 1.2674347 63 22
-48.061684 -58.055344 2.1934261 30 25
-75.527168 -74.949417 1.8572851 44 23
-21.830624 -26.369955 -2.1939995 15 9
-7.5221362 -6.7682118 -0.58929718 2 10
-49.528618 -54.20277 4.2760091 57 27
-75.626411 -75.047905 4.3406992 45 26
-73.544426 -80.485023 -5.0785933 45 12
-6.8190761 -6.7669129 -0.50347197 0 11
-65.903168 -79.606682 -4.2104359 63 13
-80.94915 -72.835823 -3.8026493 63 14
-2.4840262 -2.4478724 -1.6262352 1 0
-66.310005 -79.53125 -1.807441 45 17
-75.608345 -74.507896 -3.0892985 29 15
-3.9202149 -4.2602153 -1.6206871 2 1
-5.5511951 -5.4704003 -1.5587404 7 2
-73.929382 -80.341278 0 63 20
-81.574997 -72.885231 -1.2735345 30 18
-5.2616773 -5.7180228 -1.2089126 16 3
-16.751368 -16.507559 -2.993567 15 4
-66.383018 -79.61882 0.60248625 30 21
-75.5821 -74.482033 -0.61673707 30 19
-6.1776366 -6.7134228 -0.98272264 0 5
-19.328259 -17.269318 -2.4195201 3 6
-51.009518 -55.433575 1.7529242 33 24
-81.560081 -72.871902 1.2733017 63 22
-23.863483 -25.933165 -2.4643569 9 8
-6.8861241 -6.7858996 -0.78923547 0 7
-46.922401 -56.278038 2.1324525 30 25
-75.58326 -74.483177 1.8522588 44 23
-21.935331 -26.308914 -2.1952786 15 9
-28.271132 -25.259552 -2.2078876 9 10
-49.34169 -53.621094 4.2436838 57 27
-52.869347 -52.099857 3.0240626 40 26
-74.003525 -80.421844 -5.0908771 45 12
-6.8625751 -6.7626934 -0.50493735 0 11
-66.400787 -79.640129 -4.2244391 63 13
-81.65007 -72.952309 -3.8235888 63 14
-48.00386 -52.167236 -1.6496358 38 16
-2.4951468 -2.4417219 -1.6279256 1 0
-47.151905 -56.153618 -1.2798897 45 17
-75.676498 -74.056152 -3.081502 29 15
-3.9272079 -4.2380295 -1.6174523 2 1
-5.5702567 -5.4509892 -1.5587404 7 2
-74.649811 -80.558022 0 63 20
-82.223869 -72.950439 -1.2796811 30 18
-5.2923508 -5.7112174 -1.2113724 17 3
-6.9169698 -6.7688675 -1.2318728 2 4
-66.886887 -79.656181 0.60453206 30 21
-55.969975 -54.771576 -0.45514262 29 19
-15.724242 -16.968748 -2.4919343 6 5
-7.6415658 -6.7797294 -0.95360619 0 6
-74.599716 -80.50396 2.5539205 30 24
-82.304642 -73.022102 1.2809383 63 22
-23.961996 -25.858482 -2.4651937 9 8
-47.041428 -56.022053 2.1289618 30 25
-75.688438 -74.067841 1.8484892 44 23
-5.6909366 -6.7773867 -0.56717551 0 9
-7.6737533 -6.8082867 -0.59743661 1 10
-74.987671 -80.922623 6.4250603 63 27
-55.099003 -53.91925 3.1408114 42 26
-74.585251 -80.48835 -5.111537 45 12
-6.9289632 -6.7806044 -0.5080775 0 11
-67.06131 -79.863907 -4.2487006 63 13
-44.905293 -39.840752 -2.096343 45 14
-47.204449 -50.940475 -1.6160438 37 16
-2.5058293 -2.4359612 -1.6296161 1 0
-47.299126 -55.95113 -1.2788424 45 17
-75.729584 -73.618073 -3.0737059 29 15
-3.9491224 -4.2334328 -1.6206871 2 1
-5.5967393 -5.44069 -1.5610938 7 2
-74.976578 -80.37439 0 63 20
-82.873421 -73.037018 -1.2860138 30 18
-5.3220453 -5.7051969 -1.2138319 14 3
-67.341759 -79.659988 0.60625237 30 21
-75.677193 -73.567146 -0.61341268 30 19
-6.3235645 -6.7788186 -0.99857295 1 5
-75.027206 -80.428665 2.5594108 30 24
-82.909424 -73.068748 1.2865726 63 22
-6.2983799 -6.751821 -0.64566594 0 8
-23.569324 -22.912159 -2.6834006 6 7
-47.33794 -55.997044 2.1339653 30 25
-75.704224 -73.593422 1.8429043 44 23
-7.6932921 -6.7801614 -0.59720403 1 10
-50.803257 -54.460751 4.3374038 58 27
-75.764763 -73.652267 4.3048768 45 26
-6.9600034 -6.7659431 -0.50870556 0 11
-46.14682 -40.669571 -2.1479943 46 14
-2.5169249 -2.4297178 -1.6313065 1 0
-48.627106 -57.116459 -1.3093493 45 17
-75.784714 -73.158905 -3.0655606 29 15
-3.9638748 -4.2196226 -1.6206871 2 1
-5.6185174 -5.4238453 -1.5618782 7 2
-75.333344 -80.193825 0 63 20
-83.525146 -73.095001 -1.2921604 30 18
-5.3527508 -5.6981082 -1.2162915 16 3
-17.074619 -16.483013 -3.0208411 22 4
-67.583099 -79.381798 0.60592693 30 21
-75.780991 -73.155304 -0.61218053 30 19
-6.3308482 -6.7393122 -0.99600261 1 5
-19.654911 -17.200518 -2.4381089 3 6
-75.354027 -80.215836 2.5609927 30 24
-83.573296 -73.137146 1.2929053 63 22
-6.3301039 -6.7385197 -0.64650303 0 8
-7.0445504 -6.8004689 -0.79932463 1 7
-45.25222 -53.152386 2.0315666 30 25
-75.762093 -73.13707 1.8380876 44 23
-22.344807 -26.245779 -2.2090936 15 9
-28.752102 -25.161705 -2.2250969 9 10
-75.077415 -79.921379 6.3859906 63 27
-75.866104 -73.237473 4.2960839 45 26
-7.0065684 -6.763803 -0.51038033 0 11
-46.634441 -40.810997 -2.164048 47 14
-2.522352 -2.4188488 -1.6296161 1 0
-67.714462 -79.003822 -1.8162371 45 17
-75.827782 -72.716232 -3.0575316 29 15
-3.9804928 -4.2092533 -1.6217654 2 1
-5.6534591 -5.4214725 -1.5665851 7 2
-45.575333 -39.618038 -0.70302832 30 18
-5.393343 -5.7033 -1.2212108 18 3
-7.0567327 -6.7671638 -1.2444997 2 4
-47.883156 -55.866241 0.42764065 30 21
-75.800865 -72.690422 -0.61039042 30 19
-6.4132791 -6.7818522 -1.0054271 1 5
-7.7879515 -6.7699637 -0.96327239 1 6
-53.421711 -56.491879 1.809221 31 24
-84.180634 -73.177124 1.2985396 63 22
-15.882408 -16.795176 -1.616397 3 8
-45.311146 -52.865425 2.0263302 30 25
-75.807922 -72.697189 1.8333404 44 23
-22.465492 -26.210941 -2.2124195 15 9
-7.8296752 -6.8062339 -0.60418075 2 10
-75.133514 -79.451462 6.3683162 63 27
-75.843163 -72.730988 4.2811036 45 26
-7.0549068 -6.7654133 -0.51226437 0 11
-46.618675 -40.525002 -2.157068 47 14
-2.5285749 -2.407088 -1.6279256 1 0
-48.036652 -55.631367 -1.2829612 45 17
-50.783257 -48.343346 -2.0405264 36 15
-3.9985511 -4.1974249 -1.6228437 2 1
-5.6761332 -5.40342 -1.5673696 7 2
-48.640888 -51.060112 0 54 20
-45.590019 -39.338367 -0.70102602 30 18
-5.4360204 -5.7063885 -1.2261301 17 3
-17.289865 -16.459164 -3.0385187 22 4
-48.009178 -55.599548 0.42694324 30 21
-76.069687 -72.414871 -0.61041373 30 19
-6.4819832 -6.8043737 -1.0122814 1 5
-7.8368363 -6.7621889 -0.96624666 0 6
-85.005486 -73.348877 1.3071074 63 22
-6.4540572 -6.7750592 -0.65431571 0 8
-7.0803051 -6.7401276 -0.79802281 1 7
-48.07851 -55.679844 2.1409469 30 25
-76.149185 -72.490547 1.8351555 44 23
-5.8594966 -6.7858973 -0.57459456 0 9
-29.153816 -25.156019 -2.2425385 10 10
-75.201126 -78.94136 6.3494792 63 27
-76.129494 -72.471809 4.2822437 45 26
-51.889885 -54.470703 -3.5043521 45 12
-7.0999093 -6.7587905 -0.51372981 0 11
-45.631924 -39.374523 -2.1047189 45 14
-2.5391769 -2.4011803 -1.6296161 1 0
-48.163147 -55.405354 -1.2814255 45 17
-49.589531 -46.894485 -1.9863018 37 15
-4.0097823 -4.1813617 -1.6217654 2 1
-5.7025695 -5.3926516 -1.569723 8 2
-48.787796 -50.875439 0 54 20
-85.594452 -73.363312 -1.3124158 30 18
-5.4713273 -5.7054467 -1.2298195 15 3
-17.376066 -16.431728 -3.0440745 22 4
-48.132935 -55.370602 0.42640853 30 21
-76.507019 -72.349091 -0.61199456 30 19
-19.973118 -17.11903 -2.4555826 3 6
-75.284805 -78.506264 2.5310297 30 24
-85.603561 -73.371117 1.3125556 63 22
-7.1779308 -6.7878313 -0.80648476 1 7
-69.709572 -80.191681 3.0923238 30 25
-76.729134 -72.559128 1.8433231 44 23
-5.8636355 -6.7453403 -0.5728038 0 9
-7.9709921 -6.8319659 -0.61138999 1 10
-75.23584 -78.455208 6.3304095 63 27
-76.714966 -72.545731 4.30162 45 26
-75.207024 -78.425156 -5.0614696 45 12
-7.1484036 -6.7599087 -0.51561385 0 11
-48.217083 -55.467403 -2.9942648 57 13
-85.560249 -73.334 -3.9351277 63 14
-75.118736 -78.333092 -2.5254467 45 16
-2.547961 -2.3918576 -1.6296161 1 0
-46.102528 -52.643951 -1.221459 45 17
-46.023891 -43.204189 -1.8371254 41 15
-4.0224042 -4.1638665 -1.6206871 1 1
-5.7251563 -5.3743987 -1.5705074 8 2
-48.960041 -50.681896 0 54 20
-38.33284 -32.612267 -0.58591902 11 18
-5.5141716 -5.708097 -1.2347389 17 3
-7.212275 -6.7704077 -1.2591467 2 4
-48.056213 -54.87484 0.42394423 30 21
-77.319954 -72.58287 -0.61636508 30 19
-6.5099869 -6.7389336 -1.0092827 1 5
-75.352554 -78.002594 2.5236785 30 24
-86.301437 -73.422302 1.319121 63 22
-16.268246 -16.840376 -1.637324 3 8
-48.895424 -55.83313 2.159914 30 25
-77.396957 -72.655159 1.8529569 44 23
-22.911583 -26.162476 -2.2287927 16 9
-75.353661 -78.003738 6.3162236 63 27
-54.382774 -51.050961 3.0388801 40 26
-75.185822 -77.829994 -5.0408101 45 12
-7.1935186 -6.7528005 -0.51707929 0 11
-48.451653 -55.326393 -2.9962189 57 13
-38.379074 -32.6516 -1.7596326 23 14
-75.219193 -77.864548 -2.519212 45 16
-2.5589464 -2.385421 -1.6313065 1 0
-70.647209 -80.105331 -1.8643359 45 17
-45.958 -42.84153 -1.8285146 41 15
-4.0422864 -4.1553226 -1.6228437 2 1
-5.7582273 -5.3677549 -1.5744299 7 2
-48.020988 -49.363819 0 52 20
-38.522835 -32.542793 -0.58708316 12 18
-5.5533543 -5.7086453 -1.2390432 17 3
-17.615108 -16.420605 -3.0652876 23 4
-49.157608 -55.738739 0.43194148 30 21
-77.979538 -72.691643 -0.61959654 30 19
-20.219843 -17.081043 -2.4708254 3 6
-75.437546 -77.547043 2.5174439 30 24
-87.027748 -73.518112 1.326292 63 22
-24.960615 -25.6586 -2.5031414 9 8
-7.296308 -6.8015361 -0.81429571 1 7
-70.818489 -80.299538 3.1159453 30 25
-77.968979 -72.681801 1.8605661 44 23
-23.015968 -26.097305 -2.2300715 16 9
-29.63833 -25.037464 -2.259515 10 10
-75.394371 -77.502655 6.2969217 63 27
-78.056541 -72.763428 4.347538 45 26
-75.287079 -77.392365 -5.0294561 45 12
-7.2462654 -6.7548871 -0.51917273 1 11
-70.829399 -80.311913 -4.3626809 63 13
-36.202484 -30.582642 -1.6549342 20 14
-75.233994 -77.337791 -2.5106511 45 16
-2.5672569 -2.3764746 -1.6313065 1 0
-71.146812 -80.106445 -1.8701301 45 17
-78.371178 -72.547127 -3.1080327 29 15
-4.0594616 -4.1439395 -1.623922 2 1
-5.7826843 -5.352952 -1.5759987 6 2
-50.096424 -51.138939 0 55 20
-37.686218 -31.611294 -0.57264817 11 18
-5.5870762 -5.7033439 -1.2421178 15 3
-17.707256 -16.391365 -3.0713484 23 4
-78.505768 -72.671715 -0.62175858 30 19
-6.6403642 -6.7785511 -1.0221343 2 5
-8.0952597 -6.7903237 -0.98632252 0 6
-75.478302 -77.049011 2.5098138 30 24
-87.639305 -73.51207 1.3316934 63 22
-6.6401687 -6.7783513 -0.66352355 1 8
-7.331706 -6.78686 -0.81559753 1 7
-71.297462 -80.276062 3.1246724 30 25
-78.618408 -72.775986 1.8699905 44 23
-8.1319981 -6.8211403 -0.61813414 1 10
-75.446465 -77.016518 6.2787819 63 27
-78.556412 -72.718597 4.3612156 45 26
-75.358238 -76.926453 -5.0162416 45 12
-7.3020439 -6.7594023 -0.52147555 1 11
-87.714363 -73.575027 -3.997947 63 14
-75.318787 -76.886177 -2.5045097 45 16
-2.5724552 -2.3654943 -1.6296161 1 0
-71.569344 -80.045967 -1.8742489 45 17
-78.840897 -72.497932 -3.1171091 29 15
-4.0731812 -4.1304545 -1.623922 2 1
-5.8061786 -5.339056 -1.5775677 6 2
-55.062843 -55.837093 0 62 20
-37.85537 -31.539913 -0.57362604 11 18
-5.6198349 -5.6988564 -1.2451923 18 3
-7.3692327 -6.7763586 -1.2742989 2 4
-48.602722 -54.3592 0.42380479 30 21
-79.061386 -72.700684 -0.62424606 30 19
-6.6292968 -6.7225122 -1.0169936 1 5
-52.753922 -53.495705 1.7482715 33 24
-47.126385 -39.264233 0.71411061 32 22
-6.6710157 -6.7648177 -0.66436064 0 8
-79.212593 -72.839729 1.8783677 44 23
-6.0157771 -6.728282 -0.57843202 0 9
-8.1423016 -6.7839112 -0.61720389 1 10
-75.491165 -76.552666 6.2613406 63 27
-79.167816 -72.798553 4.381732 45 26
-75.394081 -76.454208 -5.0017238 45 12
-7.3567634 -6.7648921 -0.52377832 2 11
-31.118025 -25.926567 -1.4144069 13 14
-75.379601 -76.439522 -2.4980891 45 16
-2.5811081 -2.3560495 -1.6296161 1 0
-71.929169 -79.857407 -1.8759941 45 17
-79.66716 -72.720627 -3.1392176 29 15
-4.0828633 -4.1100326 -1.6217654 1 1
-5.8343992 -5.3256721 -1.5799211 7 2
-55.253029 -55.620708 0 62 20
-89.130547 -73.709015 -1.3465009 30 18
-5.6629682 -5.7006526 -1.2501116 17 3
-17.935555 -16.371674 -3.0910463 15 4
-72.045998 -79.987114 0.62566417 30 21
-79.797043 -72.83918 -0.62794244 30 19
-16.682375 -16.793388 -2.5497668 6 5
-20.606304 -17.040962 -2.4961061 3 6
-75.554977 -76.057762 2.4946463 30 24
-89.269249 -73.823715 1.3485963 63 22
-25.421972 -25.591143 -2.5223939 10 8
-79.88076 -72.915596 1.8878617 44 23
-23.464314 -26.050617 -2.2469563 16 9
-30.175844 -24.954763 -2.2804451 10 10
-75.644592 -76.147972 6.2508755 63 27
-80.387558 -73.378204 4.4343262 45 26
-75.524551 -76.02713 -4.991859 45 12
-7.408061 -6.7621193 -0.52566242 2 11
-46.731819 -51.882736 -2.8447878 54 13
-31.135826 -25.748648 -1.4109168 13 14
-75.456337 -75.958466 -2.4913895 45 16
-2.5946882 -2.3518949 -1.632997 1 0
-46.772434 -51.564732 -1.2151762 45 17
-80.412285 -72.88784 -3.1585338 29 15
-4.0971851 -4.0957556 -1.6217654 1 1
-5.8500471 -5.302639 -1.5791365 6 2
-55.446846 -55.427498 0 62 20
-89.804604 -73.740097 -1.3527871 30 18
-5.7024007 -5.7004108 -1.2544161 18 3
-18.030813 -16.343611 -3.0976121 16 4
-72.276382 -79.681801 0.62524569 30 21
-80.533882 -72.99807 -0.63173181 30 19
-6.7813001 -6.778934 -1.0328439 1 5
-8.2644186 -6.7860556 -0.99821937 1 6
-75.675781 -75.649376 2.4899006 30 24
-89.83242 -73.762932 1.3532062 63 22
-6.7644053 -6.7620449 -0.66882509 0 8
-7.5028067 -6.800745 -0.82666314 1 7
-80.517044 -72.982803 1.8968672 44 23
-6.1576357 -6.7885461 -0.58738607 0 9
-8.2708769 -6.791358 -0.62325037 3 10
-75.607758 -75.581375 6.2259917 63 27
-80.542519 -73.00589 4.4287896 45 26
-75.549278 -75.522919 -4.9760385 45 12
-7.4523373 -6.7549982 -0.5271278 2 11
-31.457226 -25.830067 -1.4213867 13 14
-75.497604 -75.471268 -2.4840381 45 16
-2.6020644 -2.3437314 -1.632997 1 0
-46.535465 -41.915428 -1.8226964 41 15
-4.1154976 -4.0882926 -1.623922 1 1
-5.8754206 -5.2921095 -1.5814899 7 2
-75.669701 -75.169495 0 63 20
-38.918835 -31.752739 -0.58475494 11 18
-5.742713 -5.704752 -1.2593353 17 3
-73.405464 -80.417427 0.63282442 30 21
-80.994637 -72.953491 -0.6335451 30 19
-6.7940993 -6.7491879 -1.0315589 2 5
-8.2795248 -6.7550225 -0.9974758 0 6
-75.649223 -75.149155 2.4812465 30 24
-90.655655 -73.963303 1.3620999 63 22
-6.76863 -6.723887 -0.66715091 0 8
-73.564331 -80.591469 3.1756389 30 25
-81.132256 -73.077446 1.9059424 44 23
-8.3014545 -6.7729144 -0.62394804 1 10
-75.666351 -75.166176 6.2113409 63 27
-81.089233 -73.038696 4.4462123 45 26
-26.805086 -26.627895 -1.7599932 9 12
-7.5002346 -6.7556119 -0.52901191 1 11
-73.510223 -80.532196 -4.4423046 63 13
-31.61566 -25.794292 -1.4248767 13 14
-75.541412 -75.042061 -2.4777105 45 16
-2.6164505 -2.3385551 -1.636378 1 0
-47.182735 -51.29287 -1.2165025 45 17
-81.563095 -72.900208 -3.1836679 29 15
-4.1311655 -4.0724602 -1.623922 2 1
-5.9132442 -5.2851934 -1.5861968 6 2
-56.179985 -55.381645 0 62 20
-91.414627 -73.999695 -1.3692242 30 18
-5.7870936 -5.7048569 -1.2642545 14 3
-6.5678678 -5.8702888 -1.1212618 2 4
-51.310654 -55.780373 0.44049656 30 21
-81.727478 -73.047134 -0.63707876 30 19
-16.786516 -16.547974 -2.539057 6 5
-8.3951731 -6.7958517 -1.0082573 0 6
-75.743576 -74.667229 2.4749191 30 24
-91.330696 -73.931747 1.3679671 63 22
-25.84202 -25.474794 -2.5374615 10 8
-18.497751 -16.533089 -2.0253246 4 7
-50.724072 -55.142693 2.18051 30 25
-81.826744 -73.135849 1.915646 44 23
-23.906082 -25.988564 -2.2630739 16 9
-8.4329281 -6.8264136 -0.63185495 1 10
-75.715546 -74.639603 6.1918063 63 27
-81.77137 -73.086365 4.4681945 45 26
-26.932745 -26.55002 -1.7616683 9 12
-7.573772 -6.7693548 -0.53236145 1 11
-74.081367 -80.534668 -4.4580989 63 13
-31.71447 -25.672707 -1.4248767 13 14
-75.612572 -74.538086 -2.4706385 45 16
-2.6183627 -2.3255093 -1.632997 1 0
-50.736961 -54.810139 -1.3036948 45 17
-46.578819 -41.369164 -1.8130385 41 15
-4.1466899 -4.0621581 -1.6250004 1 1
-5.9298182 -5.2665915 -1.5861968 7 2
-75.729729 -74.185951 0 63 20
-92.14843 -74.115746 -1.3767211 30 18
-5.8275738 -5.7087765 -1.2691739 14 3
-6.5951762 -5.857532 -1.1227771 4 4
-51.436722 -55.566074 0.44007814 30 21
-82.294495 -73.090179 -0.63970578 30 19
-6.9404845 -6.7989998 -1.0465524 1 5
-75.783501 -74.238625 2.4685915 30 24
-38.943199 -31.32234 0.58182138 18 22
-6.9123211 -6.7714109 -0.67663783 0 8
-7.6755924 -6.8171082 -0.83805412 1 7
-74.766151 -80.768394 3.2031004 30 25
-82.346138 -73.136055 1.9224175 44 23
-24.028276 -25.957273 -2.266911 16 9
-8.4418831 -6.7898769 -0.6309247 1 10
-52.002327 -50.942242 4.2394977 57 27
-82.392014 -73.176796 4.4895248 45 26
-27.150167 -26.596701 -1.7704161 10 12
-7.6218786 -6.769402 -0.53424549 1 11
-74.591911 -80.580177 -4.4735675 63 13
-31.950712 -25.698223 -1.4318566 13 14
-75.669235 -74.126694 -2.4648693 45 16
-2.624553 -2.3130414 -1.6313065 1 0
-45.342495 -39.960739 -1.7589301 43 15
-4.1594949 -4.0435209 -1.623922 1 1
-5.9558821 -5.248971 -1.5877658 8 2
-75.741547 -73.629738 0 63 20
-92.860649 -74.103172 -1.3831004 30 18
-5.8692889 -5.7056432 -1.2734782 14 3
-6.6205969 -5.8347898 -1.1232822 5 4
-54.781967 -58.725937 0.46676645 30 21
-44.181591 -38.937622 -0.34227523 21 19
-6.9380231 -6.7445788 -1.0422685 2 5
-21.267904 -16.971872 -2.5399756 3 6
-75.85582 -73.740829 2.4617057 30 24
-37.44376 -29.88027 0.55770105 17 22
-6.9468536 -6.7531633 -0.67747492 0 8
-75.048462 -80.4515 3.201937 30 25
-46.806999 -41.251419 1.0890301 24 23
-20.291109 -16.192387 -1.5118473 4 10
-75.779503 -73.666634 6.15483 63 27
-83.032196 -73.17701 4.5090647 45 26
-27.266417 -26.506182 -1.7713468 10 12
-7.6777835 -6.7664976 -0.53633893 1 11
-31.996035 -25.532963 -1.4294834 13 14
-75.721046 -73.609818 -2.4573321 45 16
-2.6318066 -2.3047848 -1.6313065 1 0
-43.043449 -45.852665 -1.0977564 45 17
-45.552032 -39.891846 -1.7621882 43 15
-4.1694069 -4.0277576 -1.6228437 2 1
-5.9811954 -5.2379866 -1.5901192 8 2
-75.730827 -73.157982 0 63 20
-93.54744 -74.171387 -1.3898523 30 18
-5.9042406 -5.7036529 -1.2771677 16 3
-6.6597905 -5.8322606 -1.1268177 8 4
-75.068634 -79.967964 0.637474 30 21
-44.694885 -39.141205 -0.34529746 21 19
-17.056135 -16.476677 -2.5544791 13 5
-75.900154 -73.321564 2.4556572 30 24
-37.593861 -29.807219 0.55853921 17 22
