# .PCD v0.7 - Point Cloud Data file format
VERSION 0.7
FIELDS x y z intensity ring
SIZE 4 4 4 4 2
TYPE F F F F U
COUNT 1 1 1 1 1
WIDTH 1251
HEIGHT 1
VIEWPOINT 0 0 0 1 0 0 0
POINTS 1251
DATA ascii
1.1924765 -9.1440773 -0.21457919 4 16
1.691918 -9.5660505 -0.16956758 10 17
0.71680284 -9.252346 -0.27007651 12 15
1.188553 -9.3689098 0 7 20
0.24938938 -8.7638578 -0.10206903 15 18
0.39893639 -3.1446636 -0.49315766 2 3
0.48578897 -6.2704659 -0.80054057 4 4
2.5329959 -14.321478 0.084528476 3 21
0.68465352 -8.837369 -0.051516805 2 19
0.39440623 -3.1089542 -0.33756992 1 5
0.26996464 -9.4868984 -0.88594294 4 6
1.2637225 -9.9614439 0.23365499 6 24
0.28397623 -9.9792833 0.11622458 9 22
1.4332348 -11.297644 -0.79633987 3 8
0.7784723 -10.048363 -0.8227576 11 7
1.856497 -10.496575 0.31022146 2 25
0.69722641 -8.9996576 0.15756033 32 23
1.6164074 -9.1391163 -0.59480518 8 9
0.3473514 -12.206367 -0.71115655 6 10
1.8026803 -14.209842 0.83417875 4 27
0.704781 -9.0971708 0.37173891 11 26
0.93271935 -12.039352 -0.63284647 10 11
1.7977713 -14.171146 1.7539438 6 29
1.093187 -14.110637 1.1553756 4 28
1.6149008 -9.1305971 -0.3777636 3 13
0.24106716 -8.4714041 -0.29594773 15 14
1.0921052 -14.096673 2.5778892 6 30
1.6554809 -9.5643063 -0.16942796 14 17
0.68288636 -9.2549114 -0.27007651 8 15
0.21906963 -2.9689713 -0.59541214 2 2
1.1522506 -9.3573246 0 10 20
0.21488748 -8.6687508 -0.10095149 15 18
0.46192724 -6.2603326 -0.7990253 4 4
2.0466073 -11.823983 0.06974297 3 21
0.38398075 -3.1182733 -0.33842668 2 5
0.23598088 -9.5196772 -0.88891709 2 6
1.2340456 -10.021574 0.23495772 4 24
0.2828823 -11.411721 0.13289461 3 22
0.74017102 -10.031269 -0.82113028 10 7
0.66511911 -9.0141182 0.15776975 8 23
1.2744896 -7.3631835 -0.47891411 6 9
1.7500982 -14.212391 0.83394617 4 27
0.66702187 -9.0399055 0.36929649 7 26
1.120726 -9.1013145 -0.4271557 8 12
0.75160956 -10.186293 -0.53529221 4 11
1.7438782 -14.161879 1.7519938 6 29
1.040288 -14.098646 1.1540738 4 28
1.5711997 -9.077383 -0.37532115 7 13
0.2093226 -8.4442577 -0.29497057 14 14
1.0392725 -14.084884 2.5750194 6 30
1.1235925 -9.1245937 -0.21392784 14 16
1.5789297 -9.3055601 -0.16475073 9 17
0.66539872 -9.444581 -0.27554554 9 15
0.34814444 -2.9066823 -0.81950915 34 1
0.21004981 -2.9814191 -0.59776556 0 2
1.1174085 -9.3293209 0 7 20
0.18502325 -8.6174297 -0.10034615 11 18
0.44060671 -6.2539134 -0.79801518 4 4
0.62097269 -8.8140039 -0.051354073 12 19
0.3745839 -3.1274269 -0.3392835 0 5
0.20603524 -9.5960598 -0.89598089 2 6
1.2084148 -10.089139 0.23644656 7 24
0.2459822 -11.456583 0.13340683 6 22
1.1569203 -9.6592073 -0.68026513 1 8
0.70718187 -10.037645 -0.82145578 9 7
1.773808 -10.454093 0.30859241 8 25
0.65686578 -9.3234663 0.1631451 8 23
1.2547395 -7.394918 -0.4807049 2 9
0.26084059 -12.148611 -0.70766824 18 10
0.66849923 -9.4885893 0.38753334 6 26
1.0976661 -9.1644907 -0.42994761 11 12
0.71529943 -10.152865 -0.53340811 7 11
1.6992664 -14.187293 1.7544312 6 29
0.99296844 -14.094063 1.1534228 4 28
1.5410889 -9.0825434 -0.37532115 9 13
0.18337847 -8.5408239 -0.29832089 6 14
1.0669276 -8.9078522 2.4039114 1 31
0.99172938 -14.076476 2.5728669 6 30
1.0928521 -9.1242981 -0.21383479 15 16
1.5444725 -9.2991781 -0.16454129 7 17
0.66287392 -9.9016352 -0.28881082 5 15
1.0834516 -9.3212452 0 5 20
0.1554458 -8.6460171 -0.1006721 12 18
0.36461541 -3.1368909 -0.49131292 1 3
0.41850933 -6.2514548 -0.79751015 4 4
1.6128391 -9.7108097 0.057212483 2 21
0.5955466 -8.895937 -0.051819026 7 19
0.3641243 -3.1326659 -0.33971187 0 5
0.17260998 -9.6007023 -0.89635265 2 6
1.168112 -10.049603 0.235423 10 24
0.18614671 -10.353625 0.12055507 2 22
1.3411103 -11.537957 -0.81224442 2 8
0.67214048 -10.040053 -0.82145578 13 7
1.7359961 -10.452332 0.30835965 8 25
0.62324905 -9.309741 0.16286586 13 23
0.21872073 -12.165418 -0.70859843 14 10
1.4020474 -12.062216 0.70720309 3 27
0.60360593 -9.0163231 0.3681567 7 26
1.0642862 -9.1563597 -0.42938924 4 12
0.75136346 -11.223441 -0.58951229 2 11
1.6465259 -14.165534 1.7510189 6 29
0.94323355 -14.089487 1.1527719 4 28
1.510686 -9.0957527 -0.37564683 13 13
0.15370886 -8.549407 -0.29860011 4 14
1.0269058 -8.8347645 2.3832059 1 31
0.94153708 -14.064147 2.5699971 6 30
1.0771563 -9.2670841 -0.21709163 23 16
1.4933994 -9.190033 -0.1625168 2 17
0.55008465 -8.6708908 -0.25285491 6 15
0.18699579 -2.9475827 -0.59070534 1 2
1.296836 -11.507156 0 6 20
0.12439524 -8.5865173 -0.099973626 10 18
0.39668497 -6.2528777 -0.79751015 5 4
0.61007482 -9.6165066 -0.056003604 6 19
0.91614819 -8.1292162 -0.88119459 0 5
0.13990359 -9.6569996 -0.90155756 4 6
1.1392946 -10.109252 0.23672572 7 24
0.14108169 -9.7383194 0.11338416 2 22
1.0948216 -9.7146301 -0.68361342 2 8
0.63708979 -10.042338 -0.82145578 14 7
1.7001412 -10.462275 0.308476 6 25
0.59201401 -9.3318167 0.16321491 13 23
1.1243294 -6.9188623 -0.44923779 7 9
0.17584883 -12.138159 -0.70697057 10 10
1.3603806 -12.071004 0.70743567 5 27
0.73179901 -11.535223 0.47090188 10 26
1.5952898 -14.155414 1.7490689 4 29
0.89328879 -14.080759 1.1517956 4 28
1.4802086 -9.10886 -0.37597248 13 13
1.5897155 -14.10595 3.8036048 3 31
0.89193964 -14.059493 2.568562 6 30
1.0868977 -9.6443205 -0.22583856 9 16
0.31476125 -2.8833644 -0.811961 0 1
0.97928345 -8.9707069 0 6 20
0.095037311 -8.6428919 -0.10062552 12 18
0.34828284 -3.1904385 -0.49930677 2 3
0.37485576 -6.2542248 -0.79751015 5 4
1.521777 -9.5756693 0.056352317 7 21
0.52600807 -8.776103 -0.05109835 6 19
0.10658728 -9.6932707 -0.90490347 2 6
1.1087731 -10.156895 0.23774929 6 24
1.0626364 -9.7342606 -0.68472958 6 8
0.60441655 -10.084298 -0.82471037 9 7
1.6636103 -10.468144 0.308476 2 25
0.56254661 -9.385725 0.16412243 11 23
0.13356504 -12.146684 -0.70743567 14 10
1.3061026 -11.964529 0.7009241 4 27
1.1230483 -10.287663 -0.48206246 4 12
0.5109567 -8.5249815 -0.44757712 7 11
1.5441449 -14.145109 1.7471191 6 29
0.84365481 -14.075833 1.1511446 4 28
1.4465215 -9.1021299 -0.37548399 13 13
0.094370484 -8.5822496 -0.29971689 4 14
0.91446847 -8.3769712 2.2579374 1 31
0.84262156 -14.058594 2.5678446 6 30
1.0536599 -9.6520319 -0.22593163 10 16
1.424294 -9.1686192 -0.16195834 21 17
0.50260442 -8.9060535 -0.25960395 5 15
0.30712262 -2.9074292 -0.81843084 0 1
0.94334245 -8.9303141 0 9 20
0.06555865 -8.7351618 -0.10169651 8 18
0.66307813 -6.2771435 -0.98201096 6 3
0.35414058 -6.2753034 -0.80003554 3 4
1.9169173 -12.339787 0.072579183 4 21
0.78292036 -7.4116507 -0.80279952 3 5
0.072990865 -9.7254438 -0.90787774 5 6
1.073313 -10.160703 0.23774929 3 24
1.2265017 -11.61089 -0.81642979 3 8
0.5676406 -10.058482 -0.82243216 9 7
1.5724363 -10.122256 0.29811978 2 25
0.53676742 -9.5114155 0.16628654 9 23
0.090835899 -12.103151 -0.70487756 10 10
1.4979856 -14.18094 0.83045781 2 27
0.51253396 -9.0820036 0.37059909 1 26
1.0648854 -10.080921 -0.47219786 5 12
0.68465871 -12.132021 -0.63682395 5 11
1.4939269 -14.142516 1.7461442 6 29
0.79384327 -14.06675 1.1501683 4 28
1.4159682 -9.1150227 -0.37580964 10 13
0.068673305 -9.1501646 -0.31953979 9 14
0.79265726 -14.045733 2.5649748 6 30
1.3966855 -9.1809559 -0.16209795 34 17
0.47583693 -4.6442108 -1.3069013 0 1
0.32932341 -6.1806569 -1.2378924 0 2
0.90794337 -8.8616085 0 13 20
0.038045838 -8.719326 -0.10151025 14 18
0.64214575 -6.2673998 -0.98016626 7 3
0.33252394 -6.2407231 -0.79548985 4 4
1.4552282 -9.5657797 0.056236081 8 21
0.46694064 -8.7634211 -0.051005356 7 19
0.75557828 -7.3745117 -0.79851568 2 5
0.042523604 -9.7455387 -0.90973657 3 6
1.0352727 -10.104354 0.23635352 2 24
0.061239842 -14.034916 0.16339424 4 22
1.1892049 -11.606747 -0.81587172 6 8
0.55512887 -10.418514 -0.85172337 5 7
1.5249934 -10.024374 0.29509437 3 25
0.50411701 -9.4611368 0.16537902 13 23
1.1016624 -7.2416549 -0.46944836 6 9
0.053020872 -12.151296 -0.70766824 12 10
1.2535352 -12.234615 -0.57289118 5 12
0.52921987 -9.9322615 -0.52126616 4 11
1.4494888 -14.147141 1.7461442 6 29
0.74964666 -14.069174 1.1501683 4 28
1.3831174 -9.0917683 -0.37466985 13 13
0.039734636 -9.1063633 -0.31800422 6 14
0.86243516 -8.4174442 2.2672548 3 31
0.74831724 -14.044224 2.5642571 6 30
0.96394485 -9.4081879 -0.2200693 2 16
0.45798543 -9.264761 -0.26996017 14 15
0.30558902 -6.1818762 -1.2378924 0 2
0.87626517 -8.8889141 0 8 20
0.0045489618 -8.6874113 -0.10113774 11 18
0.61768824 -6.2658858 -0.97955132 6 3
0.30855885 -6.2419543 -0.79548985 4 4
1.4149692 -9.5475559 0.056096595 7 21
0.43190569 -8.7371845 -0.050842624 11 19
0.72257477 -7.3298645 -0.79337502 2 5
0.0051051597 -9.7496138 -0.91010839 5 6
0.99607486 -10.104275 0.23626044 2 24
1.1418895 -11.583431 -0.81391853 3 8
0.49720845 -10.058218 -0.82210666 18 7
0.47035214 -9.5149317 0.16628654 8 23
1.3529905 -9.1293526 -0.59147936 4 9
0.0063502588 -12.12745 -0.7062729 10 10
0.88653553 -8.9930973 0.52627444 2 27
0.56593496 -11.448512 0.46699396 3 26
0.97684175 -9.9091721 -0.46382225 2 12
0.60684729 -12.276144 -0.64415103 5 11
1.393599 -14.136797 1.7441941 6 29
0.69502896 -14.060004 1.1491919 4 28
1.3417524 -9.0535231 -0.37287873 8 13
0.0045255665 -8.6427317 -0.30181086 5 14
0.78462291 -7.9592867 2.1430218 4 31
0.6936087 -14.031274 2.5613873 6 30
0.39702156 -8.6432228 -0.25180766 17 15
0.2840082 -6.1829047 -1.2378924 0 2
0.85507292 -8.995451 0 8 20
-0.025752204 -8.6793728 -0.10104461 13 18
0.59581226 -6.2680035 -0.97955132 5 3
0.28676832 -6.2429929 -0.79548985 4 4
1.3810605 -9.5484781 0.056073349 9 21
0.40195501 -8.7506256 -0.050912365 19 19
0.70112383 -7.3758922 -0.79808724 1 5
-0.028892091 -9.7376223 -0.90899307 4 6
0.965339 -10.155461 0.23737709 3 24
-0.026464244 -8.9193554 0.10383847 8 22
0.47526678 -10.346635 -0.84553963 12 7
1.5018367 -10.383509 0.30533424 5 25
0.44190714 -9.6203899 0.16810159 13 23
1.1068335 -7.6525064 -0.49554303 4 9
-0.036018237 -12.139378 -0.70697057 12 10
0.85589379 -9.0040865 0.5267396 7 27
0.64810753 -14.109406 0.5754382 3 26
0.94148976 -9.9045649 -0.46344998 1 12
0.39517897 -8.6031103 -0.45134532 6 11
1.3434922 -14.13367 1.7432193 4 29
0.6457628 -14.058361 1.1488664 4 28
1.3055643 -9.0265064 -0.3715761 10 13
-0.025287546 -8.522768 -0.29762292 13 14
1.3378059 -14.07385 3.7880757 3 31
0.64390355 -14.017884 2.5585175 6 30
0.82759559 -8.7063866 -0.20350595 3 16
0.36784741 -8.6325073 -0.25145856 17 15
0.2633369 -6.179893 -1.2371079 0 2
0.81391436 -8.8747559 0 10 20
-0.054206502 -8.6272449 -0.10043927 12 18
0.57430214 -6.2620735 -0.97832149 6 3
0.26623368 -6.2478738 -0.79599494 4 4
1.3488302 -9.5490437 0.056050099 5 21
0.37191358 -8.727931 -0.050772879 17 19
0.7351383 -8.0157976 -0.8670578 0 5
-0.061107196 -9.7255259 -0.90787774 3 6
0.87358898 -9.5254364 0.22258174 7 24
-0.055664074 -8.8592243 0.10314 16 22
0.90959668 -9.9180565 -0.69644862 4 8
0.44468835 -10.435782 -0.85269976 12 7
1.4075596 -9.964819 0.29288352 4 25
0.40949231 -9.6098146 0.16789216 12 23
1.0725183 -7.5928941 -0.49144977 6 9
-0.076448314 -12.167144 -0.70859843 16 10
0.82821941 -9.030736 0.52813494 7 27
0.60029572 -14.087519 0.57446122 3 26
0.93892878 -10.237888 -0.47889835 2 12
0.36545813 -8.576437 -0.44987994 10 11
1.2951667 -14.122234 1.7412694 4 29
0.59880173 -14.052459 1.1482155 4 28
1.2773018 -9.0426579 -0.37206459 12 13
-0.056236736 -8.950367 -0.3125599 9 14
1.2907764 -14.074363 3.7870405 3 31
0.59758365 -14.023873 2.5592349 6 30
1.4298747 -10.384423 -0.18297103 2 17
0.3366169 -8.6057739 -0.25064403 17 15
0.2414559 -6.1729369 -1.235539 0 2
0.78187507 -8.8655901 0 11 20
-0.084556788 -8.651001 -0.10071865 13 18
0.55209166 -6.2601027 -0.97770655 7 3
0.24395667 -6.2368708 -0.79447967 4 4
1.3094865 -9.510107 0.055794377 6 21
0.34144384 -8.7291775 -0.050772879 5 19
-0.095173553 -9.7372017 -0.90899307 4 6
0.83752167 -9.4965601 0.22183731 7 24
-0.086472318 -8.8469782 0.10300031 12 22
1.0267566 -11.642273 -0.81726682 10 8
0.40919134 -10.461175 -0.85465252 7 7
1.9590684 -14.227677 0.4179728 2 25
0.3782886 -9.6711311 0.16893929 7 23
1.0509071 -7.6321821 -0.49375224 6 9
-0.11907713 -12.182775 -0.70952868 14 10
0.80265355 -9.1011944 0.53208834 10 27
0.55080295 -14.081543 0.57413554 3 26
0.33458045 -8.5537119 -0.44862387 7 11
1.2451632 -14.118759 1.7402943 4 29
0.54974371 -14.054464 1.1482155 4 28
1.2457279 -9.0470619 -0.37206459 8 13
-0.089316763 -9.1379938 -0.319121 4 14
1.2409587 -14.071085 3.7849698 3 31
0.54847163 -14.021943 2.5585175 6 30
0.81925356 -9.2894201 -0.21699856 12 16
1.9134612 -14.245881 -0.2508958 3 17
0.30793497 -8.6028461 -0.25052768 11 15
0.22196706 -6.2011418 -1.2410302 1 2
0.75213408 -8.8641491 0 10 20
-0.11313865 -8.6426744 -0.10062552 12 18
0.5299933 -6.2461462 -0.97524697 5 3
0.22341563 -6.241611 -0.79498482 4 4
1.2710212 -9.4628611 0.055492155 6 21
0.31664521 -8.8461857 -0.051447064 7 19
0.69333655 -8.1712008 -0.88333648 3 5
-0.12746194 -9.7368317 -0.90899307 5 6
0.79723567 -9.3956861 0.21941793 7 24
-0.11533756 -8.8106489 0.10258123 19 22
0.85049963 -10.023418 -0.70342427 3 8
0.37478471 -10.470442 -0.85530335 5 7
1.5983772 -11.900054 0.34943551 2 25
0.34893498 -9.7482719 0.17026567 10 23
1.2360255 -9.2023144 -0.595061 4 9
-0.16031133 -12.2462 -0.71324956 12 10
0.77685839 -9.1555328 0.53511161 7 27
0.50424796 -14.087285 0.57429838 3 26
1.0094166 -11.896308 -0.55614001 5 12
0.3057856 -8.542799 -0.44799584 14 11
1.1976668 -14.114899 1.7393193 4 29
0.50285047 -14.048243 1.1475646 4 28
1.2151887 -9.047183 -0.37190175 13 13
-0.11129831 -8.5020895 -0.29692492 1 14
1.1923317 -14.052023 3.778758 4 31
0.50154912 -14.011887 2.556365 6 30
0.79453093 -9.3638096 -0.21867353 14 16
0.27601761 -8.5919285 -0.25017861 14 15
0.19848222 -6.1783919 -1.2363235 0 2
0.71964121 -8.8668451 0 8 20
-0.14441186 -8.618206 -0.10034615 11 18
0.50773656 -6.2559257 -0.97647673 5 3
0.20053808 -6.2423873 -0.79498482 4 4
1.2259717 -9.3881311 0.055027202 6 21
0.66338378 -8.173686 -0.88333648 2 5
-0.1631473 -9.7362986 -0.90899307 2 6
0.7547071 -9.2988997 0.21709163 10 24
-0.1499739 -8.9501371 0.10421099 5 22
0.81214321 -10.006582 -0.70202911 6 8
0.33627912 -10.46776 -0.85497797 11 7
1.8581431 -14.229114 0.41762373 3 25
0.31346121 -9.7574806 0.1704053 14 23
1.2503606 -9.574894 -0.61885321 3 9
-0.20552799 -12.265492 -0.71441233 8 10
0.73683673 -9.0787153 0.53046048 7 27
0.45287016 -14.097028 0.57462406 3 26
1.0094447 -12.437573 -0.58126682 4 12
0.39259964 -12.220916 -0.64080149 3 11
1.144963 -14.107322 1.737857 6 29
0.451103 -14.04202 1.1469136 4 28
1.1820219 -9.0515757 -0.37190175 11 13
1.1395717 -14.040895 3.7746172 4 31
0.44993827 -14.005763 2.55493 6 30
0.77217561 -9.5141335 -0.22211647 9 16
1.1608546 -9.1250563 -0.16056214 4 17
0.2445306 -8.488884 -0.24715318 17 15
0.68712974 -8.8293028 0 14 20
-0.17154552 -8.5457001 -0.099507987 11 18
0.4863748 -6.2496939 -0.97524697 4 3
0.17983626 -6.2430182 -0.79498482 4 4
1.1948326 -9.3921452 0.055027202 4 21
0.25372878 -8.808198 -0.051214587 21 19
0.63565779 -8.1679115 -0.88247979 2 5
-0.19479409 -9.7038488 -0.90601879 2 6
0.72293544 -9.2893896 0.21681248 6 24
-0.22516854 -11.216981 0.13061295 3 22
0.78236103 -10.052981 -0.70509845 10 8
0.30202371 -10.484758 -0.85627973 10 7
1.8094332 -14.223298 0.41727462 2 25
0.28317499 -9.8304243 0.17166187 19 23
1.2281735 -9.6542263 -0.62371403 3 9
-0.24900627 -12.40448 -0.72255182 8 10
0.70238858 -9.0253725 0.52720469 5 27
0.30715033 -10.662728 0.43459097 3 26
0.93936235 -12.070376 -0.56395721 6 12
0.24843954 -8.6245823 -0.45218271 10 11
1.0978665 -14.107083 1.7373695 4 29
0.40442023 -14.039454 1.1465882 4 28
1.1590602 -9.1109514 -0.37418136 7 13
-0.17313746 -8.6250038 -0.30125245 11 14
1.0924041 -14.036893 3.7725468 4 31
0.40360382 -14.011113 2.5556476 6 30
0.72789985 -9.3531799 -0.21830133 12 16
1.1255577 -9.1012688 -0.16007347 7 17
0.21459262 -8.4776945 -0.24680409 17 15
0.099351689 -3.9249871 -0.7852537 0 2
0.65837932 -8.8595715 0 10 20
-0.20269503 -8.6010294 -0.10015988 5 18
0.46426252 -6.2474117 -0.97463202 2 3
0.15804206 -6.243608 -0.79498482 4 4
1.21506 -9.8249855 0.057537951 5 21
0.60566771 -8.1502504 -0.88033777 3 5
-0.22857326 -9.6991291 -0.90564704 3 6
0.67153704 -9.0366297 0.21085711 7 24
-0.20721821 -8.792963 0.10239498 3 22
0.75968319 -10.222781 -0.7168175 9 8
0.26693496 -10.54553 -0.86116165 5 7
0.24926209 -9.8473463 0.1719411 9 23
0.93430883 -7.5548291 -0.48786816 1 9
-0.29089507 -12.343653 -0.71906346 4 10
0.66969484 -9.0118399 0.52627444 8 27
0.75834447 -10.204766 -0.47666484 7 12
0.21752274 -8.5934515 -0.45050797 4 11
1.0477322 -14.098951 1.7359071 4 29
0.355308 -14.036795 1.1462628 4 28
1.1105705 -8.9800825 -0.36864519 9 13
1.0428247 -14.032913 3.7704761 3 31
0.35459185 -14.008502 2.55493 6 30
0.68665111 -9.2400141 -0.21560279 8 16
1.1212484 -9.347559 -0.16433185 4 17
0.18343319 -8.4744272 -0.24668774 16 15
0.62421298 -8.837985 0 10 20
-0.23421714 -8.6002283 -0.10015988 5 18
0.13515763 -6.2441454 -0.79498482 4 4
1.1723731 -9.7737722 0.057212483 3 21
0.57747346 -8.176218 -0.88290817 2 5
-0.26216817 -9.626564 -0.89895511 2 6
0.64122993 -9.0789204 0.21178763 8 24
0.22698878 -10.48665 -0.85627973 5 7
0.21429417 -9.9001722 0.17284863 21 23
-0.34319979 -12.601968 -0.73417962 8 10
0.63806784 -9.0341501 0.52743727 7 27
0.22893897 -10.576747 0.43100873 15 26
0.71981215 -10.191535 -0.47592035 4 12
0.18637131 -8.6101646 -0.45134532 14 11
0.99493253 -14.086856 1.7339572 4 29
0.30360073 -14.026045 1.1452863 4 28
1.0762223 -8.972188 -0.3681567 7 13
-0.25476775 -9.3548279 -0.32679889 4 14
0.99111378 -14.032788 3.7694409 4 31
0.30299163 -13.997905 2.5527775 6 30
0.66292357 -9.3860722 -0.21895269 14 16
1.069612 -9.1603594 -0.16098098 8 17
0.15673479 -8.4709644 -0.24657138 13 15
0.070891812 -3.8314531 -0.76642644 1 2
0.60075259 -8.9037571 0 4 20
-0.42494667 -13.988599 -0.16292861 10 18
0.11546675 -6.240572 -0.79447967 4 4
1.352273 -11.581122 0.06776692 4 21
0.18077335 -9.7701635 -0.056794025 2 19
0.550713 -8.1621199 -0.88119459 7 5
-0.29035419 -9.5580187 -0.89263487 2 6
0.6145885 -9.108819 0.21243899 13 24
-0.2832168 -9.3230677 0.10858802 6 22
0.19389498 -10.479342 -0.85562891 12 7
1.3011788 -11.143541 0.32651216 1 25
0.18237656 -9.8568125 0.17208073 19 23
1.3995268 -11.985813 -0.77337468 11 9
-0.28118065 -9.2560396 -0.53929758 5 10
0.76586688 -11.350917 0.66255236 4 27
0.19741012 -10.669323 0.43475381 8 26
0.75880206 -11.246209 -0.5250572 8 12
0.22442307 -12.129277 -0.63577729 6 11
0.94960278 -14.074068 1.7320073 4 29
0.25938708 -14.018959 1.1446356 4 28
1.1801342 -10.106893 -0.41456297 9 13
0.94624269 -14.024268 3.766335 4 31
0.25894108 -13.994855 2.5520601 6 30
0.6288563 -9.320282 -0.21737079 7 16
0.12590834 -8.5874405 -0.24994586 17 15
0.055720001 -3.8003216 -0.76015067 3 2
0.61074847 -9.6005945 0 11 20
-0.47824389 -13.974871 -0.16278891 13 18
0.1897037 -2.9820268 -0.46487182 5 3
0.091330059 -6.2290664 -0.79296446 4 4
1.2970285 -11.490834 0.067208976 4 21
0.51911712 -8.1602058 -0.88076615 2 5
-0.32841322 -9.5966358 -0.89635265 0 6
0.57910192 -9.1031303 0.2122529 10 24
-0.30902547 -9.0301018 0.10518883 3 22
0.64396697 -10.122769 -0.70928383 8 8
0.15447526 -10.535816 -0.86018527 5 7
0.14482212 -9.8774338 0.17242977 9 23
1.354839 -12.002997 -0.77414215 10 9
0.58056056 -9.1260595 0.53255349 11 27
0.1563255 -10.662009 0.43442816 8 26
0.17796688 -12.138036 -0.6361959 3 11
0.89555693 -14.07761 1.7320073 4 29
0.20561634 -14.023837 1.1449609 4 28
1.3775623 -12.204311 -0.50037396 4 13
0.89189744 -14.020085 3.7642643 4 31
0.20514677 -13.991811 2.5513427 6 30
0.59179592 -9.3026724 -0.21690552 11 16
1.0180851 -9.311079 -0.16349414 22 17
0.09593159 -8.5878277 -0.24994586 12 15
0.53859001 -8.9598284 0 4 20
-0.39752829 -10.539791 -0.12279015 4 18
0.069630161 -6.233315 -0.79346955 4 4
0.97822458 -8.9465265 0.052307226 1 21
0.10088529 -9.0312843 -0.052493211 7 19
0.49086797 -8.1659374 -0.88119459 4 5
-0.36461195 -9.6670704 -0.90304464 0 6
0.56099939 -9.3326235 0.21755689 11 24
-0.38893557 -10.31197 0.12013599 11 22
0.68835759 -11.451318 -0.80219948 7 8
0.11756359 -10.524331 -0.85920888 5 7
1.1060312 -10.115405 0.29614162 3 25
0.11641783 -10.421762 0.1819239 9 23
1.3151014 -12.027494 -0.77542126 2 9
-0.34872106 -9.2457495 -0.53883249 8 10
0.54630488 -9.0881701 0.53022796 7 27
0.12575868 -11.257958 0.45868969 6 26
0.10083795 -9.0270472 -0.47311705 2 11
0.84593463 -14.072723 1.7310323 3 29
0.15657333 -14.016497 1.1443101 6 28
1.3336493 -12.197127 -0.49988547 2 13
0.84248877 -14.0154 3.7621937 4 31
0.15621671 -13.984571 2.5499077 6 30
0.52428734 -8.7218924 -0.20331986 11 16
1.0128945 -9.5409241 -0.1674733 10 17
0.069400683 -8.644062 -0.25157496 13 15
0.029317357 -3.6515641 -0.73034084 0 2
0.54114699 -9.5006018 0 7 20
-0.431945 -10.570462 -0.12316267 2 18
0.17014666 -2.9871655 -0.46548671 5 3
0.050078858 -6.2374706 -0.79397458 4 4
0.074502796 -9.2795448 -0.053934563 4 19
0.46634191 -8.1872921 -0.88333648 3 5
-0.11805511 -2.8890185 -0.26990959 0 6
0.53986353 -9.4780684 0.22090678 6 24
-0.41839057 -10.238761 0.11929782 7 22
0.570916 -10.023239 -0.70202911 7 8
0.084915467 -10.576474 -0.86343986 4 7
1.0734025 -10.110877 0.29590893 2 25
1.0434237 -9.8284912 -0.63343549 2 9
-0.46140617 -11.29143 -0.65813375 7 10
0.51820451 -9.0978146 0.53069299 2 27
0.084902719 -10.574886 0.43084592 7 26
0.08511325 -10.60111 -0.55559856 3 11
0.80059022 -14.055494 1.7285949 3 29
0.11260182 -14.024892 1.1449609 12 28
-0.36413896 -8.911128 -0.31144312 4 14
0.79889274 -14.025692 3.7642643 4 31
0.1122499 -13.981058 2.5491903 6 30
0.49642882 -8.7155104 -0.20313375 13 16
0.96770668 -9.4611902 -0.16600728 7 17
0.036175888 -8.6362686 -0.25134221 17 15
0.015361871 -3.6673388 -0.73347872 0 2
0.49914792 -9.398756 0 6 20
0.33097577 -6.2321415 -0.97094262 3 3
0.026111718 -6.2336493 -0.79346955 4 4
0.91004431 -8.8974295 0.051981758 12 21
0.036777016 -8.7797756 -0.051028609 5 19
0.43553427 -8.2009363 -0.88462168 2 5
-0.12807995 -2.8646717 -0.26767895 0 6
0.50940454 -9.5918846 0.22351226 11 24
-0.4008908 -8.9664345 0.10449037 2 22
0.53221375 -10.021373 -0.7017501 10 8
0.044187229 -10.548816 -0.86116165 3 7
1.1057673 -10.810997 0.31627229 1 25
0.046203766 -11.030224 0.19253495 6 23
1.2306956 -12.032412 -0.77516544 8 9
-0.49940798 -11.169897 -0.65115708 4 10
0.60440224 -11.380652 0.66371512 2 27
0.044263992 -10.567142 0.43052024 6 26
0.52276415 -9.8434401 -0.45916912 5 12
0.051050015 -12.187168 -0.63870806 11 11
0.74682558 -14.062428 1.7290823 3 29
0.058632415 -13.997313 1.1426828 4 28
1.2565982 -12.28566 -0.50314206 4 13
-0.49477136 -11.066194 -0.38682604 2 14
0.74421245 -14.013224 3.7601233 4 31
0.05853273 -13.973516 2.5477552 6 30
0.86658466 -8.743824 -0.15337174 2 17
0.0090478892 -8.640337 -0.25145856 15 15
0.0038198167 -3.6477575 -0.72955638 0 2
0.47380918 -9.4841728 0 7 20
-0.5449267 -11.386195 -0.13270836 5 18
0.31119779 -6.2292027 -0.97032768 5 3
0.0065235794 -6.2297325 -0.79296446 3 4
0.88603216 -8.9400492 0.052214235 10 21
0.011258961 -10.751814 -0.062489703 3 19
0.41095841 -8.2260971 -0.88719201 2 5
-0.13745986 -2.8722115 -0.26842251 0 6
0.48884514 -9.7851448 0.22797877 3 24
-0.39559767 -8.2659779 0.096341603 2 22
0.57518971 -11.513493 -0.80610585 3 8
0.01102978 -10.532956 -0.85985982 6 7
1.1715636 -11.821056 0.34571192 1 25
1.1983995 -12.09183 -0.77874708 2 9
-0.55568624 -11.611015 -0.67697084 5 10
0.70373344 -14.086535 0.82138813 4 27
0.011048928 -10.551242 0.42986894 4 26
0.43162841 -8.6398458 -0.40295956 4 12
0.011323194 -10.813154 -0.56669378 3 11
0.7020486 -14.052809 1.72762 3 29
0.014661841 -14.001415 1.1430082 4 28
1.0173607 -10.265152 -0.42026201 0 13
0.69979876 -14.007773 3.7580526 4 31
0.014632746 -13.973631 2.5477552 6 30
0.4369677 -8.7467213 -0.20378511 13 16
0.8311097 -8.7271805 -0.15302271 5 17
-0.024049485 -8.6123209 -0.25064403 17 15
-0.010131386 -3.6281338 -0.72563404 0 2
0.28745991 -6.2342997 -0.97094262 4 3
-0.017385086 -6.2257438 -0.79245943 4 4
0.84790736 -8.9035664 0.051981758 9 21
0.3786377 -8.2117224 -0.8854785 2 5
-0.14910395 -2.8835945 -0.26953781 0 6
-0.42340854 -8.1885052 0.095456891 7 22
-0.029457197 -10.548867 -0.86116165 3 7
1.0939473 -11.487144 0.33582112 2 25
-0.029103966 -10.422373 0.1819239 11 23
0.9498775 -9.9743185 -0.64213377 3 9
-0.45798215 -8.8571405 -0.51650715 8 10
0.64927381 -14.081156 0.82092303 2 27
-0.033954158 -12.159266 -0.63724267 6 11
0.64772052 -14.047468 1.726645 5 29
-0.039053608 -13.985422 1.1417063 10 28
-0.4522858 -8.7469769 -0.30585921 6 14
0.64565343 -14.002638 3.7559822 4 31
-0.038998578 -13.965714 2.5463204 6 30
0.40043351 -8.6844206 -0.20229627 18 16
0.80442125 -8.7377129 -0.15316232 6 17
-0.050892629 -8.5762196 -0.2495968 23 15
-0.021273591 -3.5849392 -0.71700484 0 2
0.40775844 -9.4912453 0 11 20
-0.48352867 -8.8141489 -0.10276748 8 18
0.26770291 -6.2312236 -0.97032768 5 3
-0.037038215 -6.2415299 -0.79447967 3 4
0.82029808 -8.9101696 0.052005004 9 21
-0.0517678 -8.7236996 -0.050703138 13 19
0.35420316 -8.2446585 -0.88890553 2 5
-0.15816243 -2.883112 -0.26953781 0 6
-0.44715998 -8.1511917 0.095037811 6 22
0.49582538 -11.541147 -0.80777997 4 8
-0.062479485 -10.52879 -0.85953432 3 7
-0.061823409 -10.41823 0.18185407 15 23
-0.48646197 -8.8676195 -0.51720482 2 10
0.51453489 -11.976642 0.69813341 3 27
0.37010089 -8.6147041 -0.40165666 13 12
-0.072722882 -12.254966 -0.64226693 8 11
0.60443729 -14.069267 1.7290823 5 29
1.033242 -11.223189 -0.45917818 14 13
0.601659 -14.004599 3.7559822 4 31
-0.082896948 -13.969458 2.5470378 6 30
0.37211838 -8.661664 -0.20173797 17 16
-0.080866821 -8.5799866 -0.24971315 16 15
0.37446734 -9.4886141 0 13 20
-0.52058488 -8.9202166 -0.10402473 7 18
0.24579422 -6.2281709 -0.96971273 6 3
0.78354603 -8.8492298 0.051633049 8 21
-0.082671493 -8.7714634 -0.05098211 13 19
0.32416692 -8.2140541 -0.8854785 7 5
-0.16822548 -2.8825421 -0.26953781 1 6
0.38682386 -9.8017159 0.22825794 2 24
-0.47397926 -8.1216297 0.094711863 5 22
0.45474914 -11.522872 -0.8063848 6 8
-0.099494748 -10.556414 -0.86181259 3 7
0.84353012 -9.52668 0.27833825 8 25
-0.082811065 -8.786272 0.15337174 6 23
0.90342033 -10.203069 -0.65646029 4 9
0.55492449 -14.061212 0.81952769 4 27
-0.10723876 -11.378056 0.46357456 3 26
0.33199161 -8.412324 -0.39216432 13 12
-0.11599001 -12.306564 -0.64498836 8 11
0.55438292 -14.047489 1.7261575 5 29
-0.13146982 -13.948976 1.1387773 82 28
0.99194413 -11.202841 -0.4582012 5 13
0.55216032 -13.99117 3.7518408 4 31
-0.13158515 -13.961213 2.5456028 6 30
0.34061944 -8.6309433 -0.20099354 17 16
0.79563898 -9.3768721 -0.16426206 15 17
-0.11262767 -8.6036205 -0.25041133 15 15
-0.046669565 -3.5650849 -0.71308249 3 2
0.33868557 -9.4619408 0 16 20
-0.53123385 -8.5629559 -0.099880502 9 18
0.22296509 -6.2290297 -0.96971273 6 3
0.75212109 -8.8639994 0.05170279 9 21
-0.11434889 -8.7351036 -0.050772879 17 19
0.29576576 -8.2628794 -0.8906191 2 5
-0.17780302 -2.8660061 -0.2680507 1 6
-0.5047341 -8.1358061 0.09489812 1 22
0.41508177 -11.596239 -0.81140733 3 8
0.80353653 -9.4699469 0.27659279 9 25
-0.11548512 -8.8219004 0.15400003 8 23
0.87108028 -10.265973 -0.66029769 3 9
0.42924738 -11.991988 0.69883108 6 27
0.30515862 -8.5252905 -0.39737579 12 12
-0.1613044 -12.322032 -0.64582574 5 11
0.50275034 -14.045459 1.7256701 5 29
-0.18259475 -13.9484 1.1387773 94 28
0.78090841 -9.2032671 -0.37629813 15 13
-0.53069866 -8.5543299 -0.29929808 16 14
0.50046158 -13.981517 3.7487354 4 31
-0.18275493 -13.960636 2.5456028 6 30
0.30869696 -8.6241407 -0.20080742 14 16
0.76258993 -9.3555412 -0.1638432 6 17
-0.14266668 -8.6951485 -0.25308767 17 15
0.28770214 -8.8593302 0 3 20
0.20217912 -6.2257843 -0.96909785 7 3
-0.05975851 -3.6421196 -0.46365693 6 4
0.72564715 -8.9023228 0.051912017 11 21
-0.14200285 -8.6546888 -0.050307926 11 19
0.26836309 -8.2638149 -0.8906191 2 5
0.31903452 -9.8241606 0.22872321 3 24
-0.70703459 -10.816181 0.12618935 11 22
0.37714255 -11.613504 -0.81252342 3 8
0.76595646 -9.396843 0.27438191 8 25
-0.1441488 -8.7854795 0.15337174 12 23
0.97810471 -11.999502 -0.7715838 11 9
-0.59049618 -9.0333824 -0.52720469 6 10
0.39129221 -12.049221 0.70208687 5 27
-0.22955097 -13.99051 0.57006484 63 26
0.27779356 -8.5542107 -0.39867869 10 12
-0.20334491 -12.393322 -0.64959395 8 11
0.45617062 -14.047049 1.7256701 3 29
-0.22884884 -13.947718 1.1387773 96 28
0.9094882 -11.157707 -0.4560844 4 13
-0.55749869 -8.5285873 -0.29846048 6 14
0.45371765 -13.971514 3.7456295 4 31
-0.2289205 -13.952085 2.544168 6 30
0.27866846 -8.581152 -0.19978385 17 16
0.72557509 -9.3023243 -0.16286586 9 17
-0.17405087 -8.7465649 -0.25460038 8 15
-0.071637198 -3.5999789 -0.72014272 0 2
0.25608113 -8.8362904 0 5 20
-0.58785796 -8.5352001 -0.09960112 12 18
0.18044642 -6.2264524 -0.96909785 4 3
0.69083607 -8.8569489 0.051633049 9 21
-0.17125674 -8.6061516 -0.050028957 13 19
0.23859449 -8.2328987 -0.88719201 6 5
-0.61873919 -8.9835691 -0.84058625 1 6
0.27095553 -9.3495436 0.21764995 2 24
-0.56504714 -8.2040071 0.095736265 7 22
0.33567789 -11.582842 -0.81029117 5 8
-0.21391995 -10.750103 -0.87775999 1 7
0.73284054 -9.3954725 0.27426556 11 25
-0.17401846 -8.7449369 0.15267365 10 23
0.93497211 -11.986924 -0.7705605 10 9
-0.62065232 -9.0113468 -0.52604187 3 10
0.40695456 -14.042302 0.81813234 2 27
-0.27798668 -13.969644 0.56925064 68 26
0.24990062 -8.6230268 -0.4018428 8 12
-0.22435099 -11.274293 -0.59097767 2 11
0.40667576 -14.032681 1.7237202 5 29
-0.27745348 -13.942848 1.1384518 97 28
0.86618489 -11.10503 -0.45380482 10 13
-0.6144582 -8.9214134 -0.31228068 12 14
0.40483457 -13.96915 3.7445941 4 31
-0.27746311 -13.943332 2.542733 6 30
0.24755536 -8.5421009 -0.19885333 17 16
0.68359363 -9.1771736 -0.16063195 7 17
-0.20205568 -8.6379786 -0.25145856 10 15
-0.085303396 -3.6467619 -0.72955638 0 2
-0.61302692 -8.4692678 -0.098856084 13 18
0.15871152 -6.2270446 -0.96909785 3 3
0.66080761 -8.871274 0.05170279 12 21
-0.20082827 -8.5855064 -0.049912717 13 19
0.21005827 -8.2416334 -0.88804883 2 5
-0.64923042 -8.9694376 -0.83947092 2 6
0.26908925 -10.557713 0.24575181 8 24
-0.59368026 -8.2019854 0.095736265 1 22
0.29687193 -11.647766 -0.81475562 3 8
0.7047928 -9.4617701 0.27612737 10 25
-0.24560021 -10.499529 0.18332008 5 23
0.75168419 -10.091283 -0.64852947 6 9
-0.64143658 -8.861762 -0.51743734 6 10
0.35783485 -14.039646 0.81789982 4 27
-0.3264665 -13.956603 0.56876218 66 26
0.2195963 -8.6158571 -0.40147054 6 12
0.35759023 -14.030047 1.7232326 5 29
-0.32602692 -13.93781 1.1381264 100 28
0.71935093 -9.6572123 -0.39453501 2 13
-0.65367597 -9.0308552 -0.31618944 2 14
0.35597351 -13.966617 3.7435589 4 31
-0.3259474 -13.93441 2.5412979 6 30
0.21875601 -8.5828896 -0.19978385 17 16
0.65418881 -9.23946 -0.1616791 7 17
-0.23782505 -8.7890615 -0.25588036 7 15
-0.6455822 -8.4869041 -0.0990889 11 18
-0.16851005 -6.2274566 -0.79296446 4 4
0.62941706 -8.889595 0.051795781 5 21
-0.23164639 -8.5607233 -0.049773231 10 19
0.21355353 -9.7870226 0.22779268 6 24
0.25443831 -11.660745 -0.81559271 3 8
-0.07667318 -2.8335335 -0.23140058 2 7
0.66756612 -9.4283953 0.27508008 8 25
-0.23540133 -8.6994905 0.15190575 7 23
0.71497333 -10.097952 -0.64878529 7 9
-0.86927271 -11.427567 -0.667436 7 10
0.30619842 -14.032878 0.81743467 4 27
-0.37794402 -13.967298 0.56925064 23 26
0.18801494 -8.6166048 -0.40147054 14 12
-0.25142992 -9.2918434 -0.48714313 7 11
0.30581677 -14.015387 1.7212827 5 29
-0.37711126 -13.936522 1.1381264 96 28
0.69185305 -9.7714128 -0.39909422 2 13
0.30452615 -13.956239 3.740453 4 31
-0.37691283 -13.929189 2.5405805 5 30
0.63082808 -9.325264 -0.1631451 15 17
-0.26314142 -8.7123365 -0.25366947 15 15
-0.18638225 -6.1709213 -1.2347546 2 2
0.16761789 -8.9744358 0 1 20
-0.67539978 -8.5247068 -0.099554546 10 18
0.076391421 -4.090076 -0.63643163 0 3
-0.18831247 -6.2348289 -0.79397458 4 4
0.60310692 -8.9154739 0.051935267 2 21
-0.30865273 -10.219169 -0.059421014 9 19
0.15388002 -8.2388964 -0.88762039 6 5
-0.70460653 -8.8933458 -0.83277887 14 6
0.17914727 -9.5917311 0.2232331 8 24
-0.68487692 -8.6443253 0.10095149 12 22
0.21802816 -11.673455 -0.81642979 9 8
-0.085213318 -2.8213239 -0.2304242 2 7
0.63956243 -9.454381 0.27577826 9 25
-0.26260906 -8.6947117 0.15183595 3 23
0.81122094 -11.991936 -0.77030468 6 9
-0.92093772 -11.623817 -0.6790638 11 10
0.26203784 -14.029778 0.81720215 4 27
-0.26713699 -8.8446264 0.3605037 12 26
0.22638227 -12.120743 -0.56470174 5 12
-0.28086033 -9.2989922 -0.48756179 1 11
0.26178569 -14.016278 1.7212827 5 29
-0.42113194 -13.943237 1.1387773 48 28
0.65980375 -9.7535992 -0.39828008 3 13
-0.70818591 -8.9385242 -0.31311828 10 14
0.26082522 -13.964853 3.7425237 4 31
-0.42078856 -13.931869 2.5412979 6 30
0.16197184 -8.6721401 -0.20183101 8 16
0.59776074 -9.3194275 -0.16300547 17 17
-0.29301322 -8.6953812 -0.25320402 8 15
-0.20818602 -6.1780725 -1.2363235 3 2
-0.70086497 -8.4704771 -0.098949209 12 18
0.06133363 -4.0389414 -0.62843782 0 3
-0.20967422 -6.2222362 -0.79245943 4 4
0.57172608 -8.9135323 0.051912017 6 21
-0.34068546 -10.11009 -0.058793321 7 19
-0.73203349 -8.8471727 -0.8286894 10 6
0.15021843 -9.8921824 0.23021205 6 24
-0.71570683 -8.6498528 0.10104461 14 22
0.17788441 -11.714043 -0.81922001 5 8
-0.09532968 -2.8289783 -0.23107512 1 7
0.6093716 -9.5004463 0.27705824 3 25
-0.35141483 -10.428493 0.18213332 10 23
0.77548832 -12.090301 -0.77644455 8 9
-0.95162857 -11.501143 -0.67208713 7 10
0.21300213 -14.026614 0.81696957 4 27
-0.29599011 -8.7837238 0.35806128 4 26
0.18479928 -12.169401 -0.56693524 4 12
0.2126769 -14.005197 1.7198203 5 29
-0.71103406 -8.5933781 -0.30111286 9 14
0.21166612 -13.938636 3.7352767 3 31
-0.46928519 -13.926382 2.5405805 5 30
0.131092 -8.6326685 -0.2009005 13 16
0.56365705 -9.3495989 -0.16349414 12 17
-0.34259883 -9.1257057 -0.26577112 7 15
-0.2320537 -6.1811476 -1.2371079 2 2
0.099967107 -8.8114328 0 7 20
-0.7361452 -8.4996033 -0.09932173 8 18
0.045466058 -4.0075297 -0.62351853 1 3
-0.23371318 -6.2253504 -0.79296446 3 4
0.53821856 -8.9276409 0.051981758 2 21
-0.38670582 -10.300571 -0.05990921 4 19
-0.76977897 -8.8879423 -0.83277887 13 6
0.11277846 -9.9406691 0.23132867 6 24
-0.74649882 -8.6191473 0.10071865 15 22
0.13335711 -11.754539 -0.82201028 3 8
-0.10619147 -2.8285916 -0.23107512 0 7
0.57721907 -9.5745564 0.27915278 4 25
-0.30143064 -8.0291204 0.14024754 7 23
0.602705 -9.997303 -0.64187789 5 9
-0.76492661 -8.8319168 -0.51627451 8 10
0.15896106 -14.011356 0.81603932 4 27
-0.32671624 -8.7026463 0.35480469 4 26
0.10280518 -9.0615902 -0.42213038 5 12
-0.43638453 -11.623849 -0.60960931 5 11
0.15889926 -14.00591 1.7198203 5 29
-0.5343973 -14.234588 1.1628611 4 28
0.51781917 -8.5892677 -0.35057113 13 13
-0.74540478 -8.6065159 -0.30167124 11 14
0.15814409 -13.939345 3.7352767 3 31
-0.52260756 -13.920547 2.5398631 5 30
0.097581051 -8.6011181 -0.20015606 16 16
0.53907198 -9.435174 -0.16496015 10 17
-0.36947867 -9.0806389 -0.26449114 4 15
-0.25194985 -6.1921449 -1.2394613 0 2
0.072153032 -8.7957048 0 5 20
-0.76212883 -8.4892807 -0.099228598 13 18
-0.25326982 -6.2245855 -0.79296446 4 4
0.53595072 -9.3805437 0.054608747 3 21
-0.3736943 -9.1842461 -0.053423114 3 19
-0.79662949 -8.87358 -0.83166355 8 6
0.081679143 -9.9569702 0.23170087 7 24
-0.78036851 -8.6924505 0.10160338 11 22
0.096166089 -11.72298 -0.81977808 10 8
-0.45026037 -11.066002 -0.90412211 1 7
-0.32730407 -8.0441179 0.14052677 3 23
0.57266033 -10.023058 -0.64341289 9 9
0.11487616 -14.003801 0.81557423 4 27
-0.34333113 -8.4380131 0.34405798 10 26
0.087315813 -10.6441 -0.49583563 3 12
-0.46494284 -11.426851 -0.59935141 2 11
0.11483186 -13.998402 1.7188454 3 29
-0.58332872 -14.336409 1.1713231 3 28
0.49014834 -8.5788813 -0.35008264 13 13
-0.77065235 -8.5842237 -0.30097327 4 14
0.11431923 -13.93591 3.7342412 3 31
-0.56601828 -13.910972 2.5384281 5 30
0.070788592 -8.6293745 -0.20080742 15 16
0.46758017 -8.7181406 -0.15239441 5 17
-0.39852554 -9.0193777 -0.26274571 7 15
0.041356407 -8.7759027 0 10 20
-0.79398584 -8.5104637 -0.099507987 8 18
0.01877472 -3.9840288 -0.61982906 1 3
-0.27499557 -6.2236633 -0.79296446 4 4
0.51027334 -9.5141659 0.055375919 1 21
-0.40751588 -9.222846 -0.053655591 3 19
-0.90159017 -9.6638374 -0.90601879 2 6
0.047130533 -10.001183 0.23272446 8 24
-0.81330603 -8.7175503 0.10192933 5 22
0.055941481 -11.870881 -0.83010203 5 8
0.51049423 -9.5182848 0.27740732 7 25
-0.46236551 -10.464195 0.18283142 11 23
0.53574663 -9.9891205 -0.64111042 3 9
-1.2982862 -13.915888 -0.81394637 7 10
0.066013165 -14.00811 0.81580681 4 27
-0.37154746 -8.4088135 0.34291819 11 26
0.05016141 -10.64434 -0.49583563 3 12
-0.39268169 -8.8871202 -0.46620873 2 11
0.065950185 -13.994745 1.7183578 3 29
-0.63301522 -14.326317 1.1706721 4 28
0.45977208 -8.5725574 -0.34975699 18 13
-1.0111618 -10.838299 -0.38012531 3 14
0.065619774 -13.924632 3.7311354 3 31
-0.61474562 -13.912842 2.5391457 5 30
0.040874101 -8.6735563 -0.20183101 20 16
0.43774587 -8.7317028 -0.15260385 10 17
-0.41686672 -8.742362 -0.25471672 9 15
0.010712532 -8.7679939 0 13 20
-0.82831365 -8.5554132 -0.10006676 9 18
-0.29671869 -6.2226653 -0.79296446 3 4
0.47645858 -9.5039043 0.055306178 6 21
-0.93877232 -9.6963091 -0.90936482 2 6
-0.84797114 -8.7584505 0.10244153 3 22
0.01451347 -11.878984 -0.8306601 3 8
-0.52313596 -10.970998 -0.89663655 13 7
0.4778665 -9.5319881 0.27775642 8 25
-0.49469903 -10.374631 0.1812956 12 23
0.59621263 -11.892635 -0.76314139 3 9
-1.3464694 -13.907296 -0.81371379 7 10
0.017105205 -14.000269 0.81534171 2 27
-0.4020398 -8.4314184 0.34389514 14 26
0.013180889 -10.788294 -0.50253612 3 12
-0.41951576 -8.7979164 -0.46160319 5 11
0.017084083 -13.98298 1.7168955 3 29
-0.68188059 -14.300128 1.1687193 3 28
0.42964518 -8.5701189 -0.34959415 7 13
0.017012971 -13.924776 3.7311354 4 31
-0.66368198 -13.918472 2.5405805 5 30
0.010582604 -8.6616497 -0.20155185 13 16
0.40577319 -8.7012186 -0.15204537 13 17
-0.46025673 -8.9924183 -0.26204753 11 15
-0.14856519 -2.9026413 -0.58129174 10 2
-0.019893792 -8.7679787 0 10 20
-0.87334752 -8.7037001 -0.1018362 9 18
-0.014133182 -6.2290506 -0.96909785 7 3
0.44104466 -9.4575634 0.055027202 3 21
-0.47761849 -9.3316288 -0.054306529 6 19
-0.97658962 -9.7326012 -0.9130826 1 6
-0.024833292 -10.945011 0.25468487 4 24
-0.87654227 -8.7355385 0.10220872 7 22
-0.02685276 -11.835071 -0.82759076 3 8
-0.56285548 -10.996975 -0.89891475 12 7
0.44328672 -9.505641 0.2769419 6 25
-0.53193277 -10.392812 0.18164465 12 23
-1.3962033 -13.914432 -0.81441146 7 10
-0.031765353 -14.000244 0.81534171 2 27
-0.43044731 -8.4100065 0.343081 4 26
-0.020425258 -9.0022163 -0.41933846 2 12
-0.5964191 -11.652735 -0.61149341 3 11
-0.031735137 -13.986926 1.717383 3 29
-0.7317937 -14.297661 1.1687193 4 28
0.39656198 -8.5036974 -0.34682608 13 13
-0.88125628 -8.7825184 -0.30823237 9 14
-0.031576537 -13.917025 3.7290649 4 31
-0.71165943 -13.904282 2.5384281 5 30
-0.019607138 -8.6416388 -0.20108658 15 16
0.37319204 -8.6866627 -0.15176612 16 17
-0.47897688 -8.7311697 -0.254484 20 15
-0.01771464 -2.9851832 -0.83568364 0 1
-0.15834354 -2.8864114 -0.57815385 16 2
-0.052006315 -8.7638464 0 19 20
-0.90027547 -8.6527023 -0.10127743 8 18
-0.036940347 -6.2250042 -0.96848291 5 3
-0.16931564 -3.0864196 -0.39345181 0 4
0.40294406 -9.3791904 0.054562252 9 21
-0.50655901 -9.2339602 -0.053748582 8 19
-1.0110185 -9.7170734 -0.91196722 1 6
-0.064877585 -10.932849 0.25440571 2 24
-0.91145122 -8.7601147 0.10253467 2 22
-0.070514627 -11.882774 -0.83093911 5 8
-0.60446805 -11.018723 -0.90086752 12 7
0.40655586 -9.4632616 0.27566192 3 25
-0.57133526 -10.414752 0.18206351 2 23
0.51212364 -11.920527 -0.76467639 7 9
-1.4463665 -13.901278 -0.81394637 7 10
-0.072981313 -12.298448 -0.57289118 5 12
-0.48421183 -8.8265972 -0.46327791 2 11
-0.78572112 -14.322748 1.1709976 4 28
0.36504844 -8.4971066 -0.3465004 13 13
-0.082539141 -13.909087 3.7269943 4 31
-0.76196992 -13.889791 2.5362756 5 30
-0.051019315 -8.5975218 -0.20006301 14 16
0.34375006 -8.6718683 -0.15148689 21 17
-0.5042122 -8.6656685 -0.25262219 12 15
-0.17269899 -2.9681001 -0.59462768 3 2
-0.081031322 -8.7596254 0 14 20
-0.92981839 -8.6576223 -0.10137056 8 18
-0.057473559 -6.2129908 -0.96663815 1 3
0.37801784 -9.5363503 0.055468909 16 21
-0.53973341 -9.2761555 -0.054004308 6 19
-1.0479146 -9.7572269 -0.91605687 2 6
-1.211284 -11.278374 0.13205646 10 22
-0.11025159 -11.918387 -0.83345038 6 8
-0.52567935 -9.0346155 -0.7387895 8 7
0.37501362 -9.4605627 0.27554554 4 25
-0.47809762 -8.2168493 0.1436682 6 23
0.47369733 -11.950081 -0.76646721 6 9
-1.492031 -13.892434 -0.81371379 7 10
-0.48473877 -8.3309879 0.33998725 10 26
-0.10419174 -11.263306 -0.52468497 3 12
-0.83020288 -14.268324 1.1667666 4 28
0.33560231 -8.4663229 -0.34519777 13 13
-0.12869915 -13.912601 3.7280295 4 31
-0.80871224 -13.898974 2.5384281 5 30
-0.079788707 -8.6252966 -0.20071438 15 16
0.31333381 -8.6690187 -0.15141708 20 17
-0.52510232 -8.5122089 -0.24820045 14 15
-0.037837114 -2.9695873 -0.83137041 8 1
-0.18209225 -2.9518194 -0.59148979 9 2
-0.11145395 -8.7472897 0 15 20
-0.96664757 -8.7139549 -0.10206903 3 18
-0.046025619 -3.6122491 -0.56202757 1 3
-0.18958701 -3.0733137 -0.39193657 16 4
0.34415036 -9.5216217 0.055375919 14 21
-0.57851237 -9.3780155 -0.054608747 5 19
-1.0810882 -9.7455921 -0.91531324 7 6
-0.11478637 -9.0088301 0.20964742 7 24
-1.2524083 -11.289978 0.13224271 6 22
-0.15220863 -11.945858 -0.83540356 10 8
-0.6855917 -11.113832 -0.90900397 6 7
0.34357727 -9.5057659 0.27682555 5 25
-0.50825363 -8.2390814 0.14408708 8 23
0.43313539 -11.983574 -0.76851386 8 9
-1.5418351 -13.899048 -0.81441146 7 10
-0.17796363 -13.967199 0.81348121 89 27
-0.51356953 -8.3252554 0.33982441 13 26
-0.14320092 -11.238901 -0.52356821 7 12
-0.5236209 -8.4881945 -0.44569308 7 11
-0.17759398 -13.938187 1.7115332 65 29
0.30676979 -8.4874115 -0.34601191 14 13
-0.94981647 -8.5622292 -0.30083367 8 14
-0.17721193 -13.908203 3.7269943 3 31
-0.8572225 -13.896066 2.5384281 5 30
-0.11203517 -8.7929058 -0.20462258 9 16
0.28163657 -8.6260891 -0.15064916 15 17
-0.55949342 -8.58214 -0.25029495 15 15
-0.047889806 -2.9501801 -0.82597893 16 1
-0.19341531 -2.9668219 -0.59462768 7 2
-0.14133698 -8.7068529 0 9 20
0.31091252 -9.5227652 0.055375919 10 21
-0.52641344 -8.0747223 -0.047030006 4 19
-1.1160049 -9.7496719 -0.91605687 2 6
-0.14467381 -8.9124136 0.20741417 4 24
-1.304545 -11.396802 0.13354652 6 22
-0.19494167 -12.00909 -0.83986795 3 8
-0.71660036 -10.992023 -0.89924026 10 7
0.31222138 -9.5628529 0.2784546 6 25
-0.53648913 -8.2292747 0.14394745 4 23
0.39156392 -11.992991 -0.7690255 11 9
-1.5907953 -13.897549 -0.81464404 7 10
-0.22671589 -13.966494 0.81348121 90 27
-0.54652619 -8.383234 0.34226683 12 26
-0.1462424 -9.0090437 -0.41971076 10 12
-0.70058805 -10.746408 -0.56439102 9 11
-0.22624496 -13.937483 1.7115332 65 29
-0.92901284 -14.250244 1.1657903 4 28
0.27831593 -8.5243826 -0.34747738 15 13
-0.98060679 -8.5668039 -0.30111286 7 14
-0.22575825 -13.9075 3.7269943 3 31
-0.90546638 -13.889062 2.5377107 5 30
-0.1409093 -8.6805067 -0.2020171 14 16
0.25267777 -8.6149826 -0.15043975 13 17
-0.61091059 -8.9153109 -0.26006937 15 15
-0.20700672 -3.0209484 -0.60561025 5 2
-0.16981861 -8.6863413 0 6 20
-0.42615747 -6.21912 -0.79346955 1 4
0.28378797 -9.6756763 0.056259327 3 21
-0.5589301 -8.1567345 -0.047518212 8 19
-1.1515926 -9.7736053 -0.91865927 4 6
-0.17243023 -8.8199272 0.20527396 9 24
-1.6357912 -13.883016 0.16274235 4 22
-0.23554464 -12.048273 -0.84265822 3 8
-0.75877118 -11.073112 -0.90607482 12 7
0.28132823 -9.5918131 0.27926913 2 25
0.35050374 -11.950334 -0.76621139 5 9
-1.6373404 -13.896163 -0.81487656 7 10
-0.27295172 -13.961673 0.81324869 94 27
-0.58115405 -8.48106 0.34633759 4 26
-0.17939726 -9.1762962 -0.42752799 2 12
-0.6141547 -8.9626532 -0.47081429 2 11
-0.27246267 -13.936656 1.7115332 69 29
-0.97571874 -14.239131 1.1651393 4 28
0.25203809 -8.593173 -0.35024548 11 13
-0.99825132 -8.4721928 -0.29790211 9 14
-0.27157447 -13.891224 3.7228534 3 31
-0.95071268 -13.874206 2.5355582 5 30
-0.16906917 -8.6480064 -0.2012727 11 16
0.22115688 -8.5598392 -0.1494624 13 17
-0.64174122 -8.9091368 -0.25995302 12 15
-0.19921839 -8.6457062 0 8 20
-1.6832802 -13.869279 -0.16264923 4 18
-0.14285763 -6.1997538 -0.9647935 6 3
0.25228319 -9.7645769 0.056770779 3 21
-0.61125261 -8.4858713 -0.049447764 5 19
-0.083003595 -3.6022007 -0.38811973 0 5
-1.1881024 -9.7892933 -0.9205181 2 6
-0.20266506 -8.7952843 0.20471564 3 24
-1.0433158 -8.5963335 0.10081179 1 22
-0.27842858 -12.08328 -0.84516943 3 8
-0.64532638 -8.958909 -0.73325664 14 7
0.24825649 -9.6087246 0.27973458 3 25
-0.58875734 -8.1735744 0.14303991 6 23
0.31012571 -12.003362 -0.76953721 3 9
-1.6863202 -13.894326 -0.81510913 7 10
-0.61908346 -8.5945845 0.35105962 4 26
-0.21069239 -9.1436558 -0.42603895 7 12
-0.768556 -10.669676 -0.56062281 4 11
-0.32092813 -13.927681 1.7105582 69 29
-1.0254188 -14.235639 1.1651393 6 28
0.22131692 -8.5660324 -0.34910566 6 13
-1.0287833 -8.476594 -0.29818133 3 14
-0.32015327 -13.894053 3.7238886 3 31
-0.99885625 -13.866879 2.5348408 5 30
-0.20137538 -8.739315 -0.20341291 2 16
0.19100891 -8.548563 -0.14925298 19 17
-0.679461 -8.9945545 -0.26251298 9 15
-0.078164153 -2.9456799 -0.82490063 155 1
-0.2304555 -3.050719 -0.61188596 8 2
-0.22791007 -8.5889769 0 19 20
-1.7351516 -13.891101 -0.16297518 3 18
-0.16502158 -6.2189732 -0.96786803 5 3
-0.46956471 -6.2159939 -0.79346955 2 4
0.25447479 -11.388966 0.066209324 2 21
-0.096948199 -3.6535718 -0.39368877 0 5
-1.2286826 -9.836462 -0.9253512 2 6
-0.27706707 -10.441498 0.2430533 3 24
-0.32060429 -12.082234 -0.84516943 3 8
-0.67028755 -8.8731184 -0.72642207 5 7
0.23418602 -10.480947 0.30510154 5 25
-0.61457276 -8.1355791 0.14241165 6 23
0.26947376 -12.060241 -0.77311879 3 9
-1.7353039 -13.892319 -0.81534171 7 10
-0.23642218 -8.9097633 0.5190652 16 27
-0.63492984 -8.4050608 0.34340668 7 26
-0.24684711 -9.3026352 -0.43348393 7 12
-0.80459076 -10.650995 -0.55978543 5 11
-0.36933097 -13.918539 1.7095833 73 29
-1.0751028 -14.231973 1.1651393 4 28
0.19070111 -8.5347881 -0.34780306 15 13
-1.7322302 -13.867712 -0.48803455 5 14
-0.36823937 -13.877401 3.7197475 4 31
-1.0481426 -13.87508 2.5369933 5 30
-0.24022628 -3.0320675 -1.4183069 0 0
0.15915267 -8.5212154 -0.14876431 20 17
-0.68431801 -8.6372662 -0.25215673 10 15
-0.088727564 -2.9376733 -0.82274401 124 1
-0.24504314 -3.0928645 -0.62051511 6 2
-0.18769491 -6.2143745 -0.96725309 6 3
-0.49203104 -6.2102747 -0.79296446 1 4
0.21265557 -11.385822 0.066186078 3 21
-0.68080521 -8.5929289 -0.050098702 10 19
-1.2652351 -9.8358431 -0.92572296 7 6
-0.31521463 -10.436415 0.24296023 3 24
-0.36392221 -12.049069 -0.84293723 3 8
-0.7015453 -8.8547039 -0.72512025 5 7
-0.64501894 -8.1412449 0.14255126 5 23
-1.7857008 -13.881904 -0.81510913 7 10
-0.26883554 -8.9008522 0.51860011 14 27
-0.68151498 -8.6018867 0.35154811 4 26
-0.2857666 -9.461422 -0.44092894 2 12
-0.72121292 -9.1029434 -0.47856 1 11
-0.41998315 -13.905186 1.7081208 78 29
-0.67792952 -8.556633 0.70071089 6 28
-1.7840667 -13.869201 -0.48831376 5 14
-1.0986797 -13.867221 2.5362756 5 30
-0.26306117 -8.7096701 -0.20276153 13 16
-0.2478933 -3.0023503 -1.4047831 0 0
0.13077123 -8.5136995 -0.1486247 13 17
-0.7020995 -8.5034513 -0.24831679 14 15
-0.098339818 -2.9335132 -0.8216657 141 1
-0.25400722 -3.0763991 -0.61737728 12 2
-0.33986521 -10.138305 0 7 20
-1.8305173 -13.866754 -0.16283548 4 18
-0.20816933 -6.2097683 -0.96663815 5 3
-0.51294911 -6.2125635 -0.79346955 1 4
0.15812624 -10.294613 0.059839468 3 21
-0.71258831 -8.6304865 -0.050331179 11 19
-1.2973242 -9.8276453 -0.9253512 4 6
-0.29435402 -8.7806892 0.20443648 4 24
-1.8284235 -13.850892 0.16264923 6 22
-0.40481272 -12.075713 -0.84489042 3 8
-0.73123306 -8.8563013 -0.72544569 15 7
0.16266751 -10.590267 0.3082433 8 25
-0.67168391 -8.1350746 0.14248145 9 23
0.18533216 -12.065821 -0.77337468 6 9
-1.8317256 -13.875907 -0.81510913 7 10
-0.29835072 -8.8999128 0.51860011 7 27
-0.7100364 -8.5995789 0.35154811 5 26
-0.35984549 -10.734324 -0.50030267 11 12
-0.91147 -11.039234 -0.5805105 3 11
-0.70695704 -8.5622835 0.70136184 11 28
0.14074942 -9.1633167 -0.37336722 3 13
-1.8295262 -13.859245 -0.48817417 5 14
-1.1453072 -13.871345 2.5377107 5 30
0.10114785 -8.5221014 -0.14876431 10 17
-0.72457588 -8.4172945 -0.2458732 17 15
-0.11014622 -2.9754944 -0.83352709 113 1
-0.377471 -10.197017 0 8 20
-1.878909 -13.86028 -0.16283548 4 18
-0.22998981 -6.2129536 -0.96725309 4 3
0.10723788 -9.0352106 0.052516457 3 21
-0.74339527 -8.6359167 -0.050377671 11 19
-1.3332254 -9.834897 -0.92646652 2 6
-0.32500169 -8.7796087 0.20443648 3 24
-1.8783716 -13.856316 0.16278891 6 22
-0.45035622 -12.16594 -0.85130799 8 8
-0.76419359 -8.8775282 -0.72739846 15 7
