# .PCD v0.7 - Point Cloud Data file format
VERSION 0.7
FIELDS x y z intensity ring
SIZE 4 4 4 4 2
TYPE F F F F U
COUNT 1 1 1 1 1
WIDTH 1350
HEIGHT 1
VIEWPOINT 0 0 0 1 0 0 0
POINTS 1350
DATA ascii
18.491083 19.014791 -1.2354945 4 12
18.691158 17.429779 -1.3393819 4 11
30.466 31.328863 5.365664 22 29
30.749146 28.67403 3.4322791 11 28
10.69116 12.126736 -0.65864384 4 13
25.88608 21.875425 -1.1835117 63 14
30.392338 31.253115 11.681022 21 31
30.788532 28.71076 7.6755528 21 30
10.586682 11.924069 -0.27833098 4 17
29.37785 27.204189 -1.1652505 9 15
4.0425682 4.1281352 -1.6174523 2 1
5.9745727 5.5325155 -1.6285582 1 2
30.664846 31.313911 0 14 20
30.563103 25.645489 -0.46447924 8 18
7.2259555 7.3789034 -1.6067593 2 3
8.9322643 8.271368 -1.5495636 5 4
10.553594 11.8868 0.092386186 4 21
30.959946 28.669226 -0.24523954 9 19
9.2686977 9.4648829 -1.4269612 4 5
11.678899 9.7997599 -1.4231596 2 6
30.662144 31.311152 1.019763 11 24
30.599871 25.67634 0.46503803 15 22
13.191426 13.470641 -1.3183974 2 8
12.218513 11.314467 -1.3594377 4 7
49.199368 45.55912 1.1704282 30 23
17.595337 14.764242 -1.3376627 4 10
30.283295 30.924284 2.5206757 12 27
18.57691 18.970118 -1.2367973 4 12
18.716711 17.331865 -1.3368697 4 11
30.636274 31.284735 5.3763881 22 29
48.827251 45.214535 5.4325438 51 28
30.574228 31.221376 11.708974 21 31
10.612249 11.86915 -0.27791211 4 17
12.07866 11.106892 -0.47755021 1 15
4.059659 4.1167397 -1.6185305 2 1
11.251304 11.409503 0 1 20
30.658585 25.543758 -0.46457237 8 18
7.2488961 7.3508191 -1.6061444 2 3
8.9640045 8.2428207 -1.5500689 5 4
10.576362 11.829011 0.092223458 4 21
12.071793 11.100577 -0.095315397 1 19
9.3044758 9.4353008 -1.4273896 4 5
11.713037 9.7589302 -1.4231596 2 6
30.914463 31.349134 1.0245087 11 24
30.646294 25.533518 0.46438611 14 22
13.274795 13.461445 -1.3220247 2 8
12.120008 11.144915 -1.3441411 2 7
32.235867 36.053841 1.4075165 12 25
12.07899 11.107195 0.2864289 1 23
10.663974 11.927 -1.0253674 22 9
17.628363 14.687391 -1.3362674 4 10
30.259283 30.684742 2.5097456 12 27
30.851234 31.285017 5.3949127 23 29
12.055448 11.085547 1.3369812 1 28
10.650355 11.911769 -0.6509909 22 13
26.762983 22.298067 -1.2164569 9 14
30.786125 31.218992 11.748315 22 31
12.113734 11.139145 3.0004823 3 30
11.116291 11.272592 -0.36839509 21 16
10.584028 11.754766 -0.27609706 4 17
12.031723 10.986484 -0.47417572 1 15
4.0794296 4.1080132 -1.6206871 2 1
6.0130482 5.4906731 -1.6285582 1 2
32.864773 27.188131 -0.49656206 9 18
7.2745056 7.3254757 -1.6061444 1 3
8.9927168 8.2114868 -1.5500689 5 4
10.614902 11.789055 0.092200205 4 21
9.3569632 9.4225254 -1.4303883 4 5
11.771575 9.7383032 -1.4261339 2 6
30.667419 25.370319 0.46336168 14 22
13.363867 13.457504 -1.3262101 2 8
12.052845 11.005771 -1.3324248 4 7
32.289261 35.860889 1.4043746 12 25
10.772308 11.963873 -1.0317631 17 9
17.707205 14.648688 -1.3383603 4 10
30.253635 30.465612 2.5004432 12 27
11.219699 11.298312 -0.74170613 16 12
12.061618 11.013782 -0.85600698 2 11
48.934338 49.277206 8.5269547 46 29
10.67849 11.859676 -0.65017676 22 13
26.714352 22.100056 -1.2107333 9 14
11.14711 11.225214 -0.36811593 22 16
10.620268 11.716638 -0.27602726 4 17
12.076978 10.954581 -0.4745248 3 15
4.0930309 4.0944614 -1.6206871 2 1
6.0283184 5.4680653 -1.6277736 1 2
26.542427 21.809965 -0.39994109 6 18
7.3071413 7.3096957 -1.6079891 1 3
9.028717 8.1896162 -1.5515839 5 4
10.74259 11.851588 0.092967376 4 21
12.108551 10.98322 -0.095013179 4 19
9.3853493 9.388629 -1.4299599 4 5
11.803806 9.6992102 -1.4261339 2 6
30.632362 30.64307 1.0082245 10 24
30.6525 25.18722 0.46187165 14 22
12.05975 10.938954 -1.3291701 6 7
12.100986 10.976358 0.28517231 3 23
10.962055 12.093709 -1.0460896 7 9
17.743349 14.579743 -1.3374301 4 10
30.250046 30.26062 2.4918385 12 27
11.257107 11.261042 -0.74170613 15 12
30.577866 30.588554 5.3105788 22 29
12.089279 10.965739 1.3324248 5 28
10.731183 11.839004 -0.6509909 4 13
12.133892 11.006206 2.9868503 9 30
10.690111 11.707165 -0.27672535 4 17
4.110745 4.0821462 -1.6217654 2 1
6.0454063 5.4433079 -1.6269892 1 2
11.285013 11.206502 0 22 20
7.3226681 7.2717233 -1.6055294 0 3
9.0616236 8.1591215 -1.5520891 5 4
10.837206 11.868254 0.093409084 2 21
9.4140558 9.3485603 -1.4291031 4 5
11.830019 9.6483278 -1.4250185 2 6
30.707588 30.493952 1.0070149 10 24
30.676426 25.019081 0.46084723 14 22
11.28867 11.210134 -1.1124762 14 8
9.5458956 8.5951624 -1.0486253 3 7
12.155999 10.94531 0.28552136 13 23
17.805952 14.52218 -1.3381277 4 10
30.258759 30.048244 2.4834666 12 27
12.144803 10.935228 0.66580838 4 26
11.403211 11.323877 -0.74859273 4 12
12.120409 10.913264 -0.85475093 18 11
30.664429 30.451092 5.3061914 22 29
12.126429 10.918684 1.3320993 3 28
19.546646 21.406307 -1.1809998 7 13
25.390305 20.707827 -1.1441451 100 14
30.656246 30.442966 11.576458 21 31
12.168304 10.956388 2.9854155 6 30
11.25926 11.180927 -0.36923257 1 16
10.801294 11.746322 -0.2785404 4 17
9.5529575 8.5413322 -0.37294066 2 15
4.1222253 4.0650678 -1.6206871 2 1
6.0672927 5.424787 -1.6277736 1 2
11.369631 11.211982 0 24 20
7.3339338 7.2322431 -1.602455 0 3
9.0989218 8.1353769 -1.5536044 5 4
9.5687685 8.5554686 -0.074601732 3 19
9.4636192 9.3323984 -1.4316735 4 5
11.87291 9.6144943 -1.4261339 2 6
30.648697 30.223728 1.0016178 10 24
30.679646 24.843891 0.45959002 14 22
11.52377 11.363984 -1.131729 5 8
9.5615101 8.5489788 0.22387949 5 23
13.612476 14.80346 -1.2888724 4 9
17.862741 14.464964 -1.3385929 4 10
30.27247 29.852718 2.4760249 12 27
18.737295 18.477489 -1.225816 4 12
9.5647497 8.5518751 -0.67241246 4 11
48.93037 48.251911 8.437746 45 29
9.5431471 8.5325603 1.0450454 5 28
19.6483 21.367371 -1.182628 7 13
11.261203 11.105058 -0.36802289 1 16
4.1356826 4.0513763 -1.6206871 2 1
6.0793824 5.3994298 -1.6262047 1 2
11.426748 11.193813 0 19 20
7.3550515 7.2051187 -1.6018399 0 3
9.1377153 8.1157007 -1.5556246 5 4
32.253239 34.842548 0.27594969 20 21
9.5001945 9.3065329 -1.4325302 4 5
11.904726 9.5750723 -1.4261339 2 6
30.628769 30.004398 0.99770957 10 24
30.690166 24.684362 0.45851898 14 22
9.5803308 8.508812 -1.0460218 14 7
32.26186 34.85186 1.3821495 11 25
13.799786 14.90764 -1.3019198 4 9
17.919943 14.413163 -1.3392906 4 10
30.265747 29.648779 2.4674203 12 27
9.5743504 8.5035 0.52170455 12 26
18.858404 18.473974 -1.2297245 4 12
9.5572138 8.4882803 -0.6699003 12 11
49.087269 48.08662 8.4372587 45 29
9.5833111 8.5114594 1.0463471 15 28
19.811354 21.401821 -1.1881642 7 13
25.804785 20.755009 -1.1564298 8 14
9.5739975 8.5031872 2.3346651 9 30
11.303679 11.073253 -0.368209 1 16
32.3512 34.704563 -0.82815164 16 17
9.5928831 8.4602413 -0.37224248 5 15
4.1498003 4.0369143 -1.6206871 2 1
6.0893688 5.3703914 -1.6238513 1 2
30.429226 24.300034 -0.45335037 8 18
7.3744936 7.1738877 -1.6006103 0 3
9.160038 8.0785036 -1.5546144 7 4
32.339214 34.691704 0.27564746 20 21
9.6237812 8.4874926 -0.074578486 18 19
9.5383272 9.2788591 -1.433387 4 5
11.959862 9.5508528 -1.4287363 2 6
30.383625 29.557108 0.98635715 10 24
30.43548 24.305027 0.45344353 14 22
13.743125 13.369275 -1.3407195 2 8
9.6189461 8.4832277 -1.0469981 4 7
32.317898 34.668835 1.3793567 11 25
9.6164789 8.4810514 0.22380966 14 23
13.927955 14.941133 -1.309083 4 9
17.960785 14.343042 -1.3385929 4 10
30.243124 29.420429 2.4571879 12 27
9.6129694 8.4779568 0.52219307 3 26
18.905596 18.391312 -1.2286078 4 12
9.610755 8.4760036 -0.67157507 4 11
30.395823 29.568975 5.2067466 21 29
9.6069851 8.4726782 1.0456963 4 28
19.929548 21.379305 -1.1907694 7 13
30.397589 29.570694 11.363193 19 31
9.5977201 8.4645081 2.33323 3 30
11.35373 11.044878 -0.36858121 1 16
30.317762 32.307716 -0.77335101 14 17
4.1659355 4.0258069 -1.6217654 1 1
6.1071458 5.3501668 -1.6238513 1 2
28.108082 27.162615 0 11 20
30.371765 24.089621 -0.45130154 8 18
7.4152975 7.1658702 -1.6042997 0 3
9.195734 8.0559254 -1.5561296 5 4
30.308184 32.297512 0.25742131 17 21
9.5747652 9.2527008 -1.4342438 4 5
11.994591 9.5136108 -1.429108 2 6
30.39057 24.104536 0.45158094 14 22
13.81608 13.351351 -1.3435097 2 8
30.304075 32.293133 1.2888269 9 25
14.056644 14.979276 -1.3165021 4 9
18.017641 14.290843 -1.3392906 4 10
30.23428 29.217295 2.4485831 12 27
18.975103 18.336842 -1.2291662 4 12
30.333843 29.313509 5.1794477 20 29
9.7159977 8.5117025 1.0544837 2 28
20.158964 21.48213 -1.2002136 7 13
30.326012 29.305941 11.30004 19 31
9.6020594 8.4118872 2.3274903 3 30
11.398924 11.0155 -0.36886036 1 16
30.293198 32.034157 -0.76958132 14 17
25.398811 22.07885 -0.97942019 6 15
4.1730213 4.0017834 -1.6185305 2 1
6.1246829 5.3241053 -1.6230668 2 2
30.276402 29.034025 0 13 20
30.341454 23.876371 -0.44948554 8 18
7.4199343 7.1154609 -1.5993804 0 3
9.2355814 8.028368 -1.5576448 5 4
30.269817 32.009434 0.25604969 17 21
30.251272 26.297029 -0.23296477 16 19
9.6102209 9.2158709 -1.4342438 4 5
12.04981 9.4822664 -1.4313388 2 6
30.294186 29.051079 0.97667968 21 24
30.32259 23.861526 0.44920614 13 22
13.901801 13.331347 -1.346858 2 8
12.631066 10.980018 -1.3662724 4 7
30.235098 26.282969 0.699283 12 23
14.177135 14.991901 -1.3223861 4 9
18.10376 14.246254 -1.3416162 4 10
30.24782 26.294029 1.6328506 16 26
19.051136 18.269382 -1.2295384 4 12
19.200634 16.690855 -1.333311 4 11
30.300024 29.056679 5.1545863 20 29
20.23855 21.401669 -1.2000507 7 13
27.302889 21.485256 -1.2132461 9 14
30.273777 29.031507 11.238959 18 31
30.182877 26.237574 7.2917027 18 30
30.25589 31.771828 -0.76581156 14 17
25.593761 22.091951 -0.98395824 6 15
4.1869636 3.9871936 -1.6185305 2 1
6.1432285 5.3026948 -1.6230668 2 2
30.295378 23.669355 -0.4475764 8 18
7.4618983 7.1058731 -1.6030698 0 3
9.2665501 7.9986749 -1.5581499 5 4
30.251715 31.767445 0.25495705 16 21
30.258089 26.118093 -0.23231383 16 19
9.6538506 9.1932421 -1.4359574 4 5
12.076556 9.4352446 -1.4305953 2 6
30.291145 28.845881 0.97332978 21 24
30.307985 23.679205 0.44776264 13 22
13.951137 13.285495 -1.347137 2 8
12.672331 10.938468 -1.3665979 2 7
30.233904 31.748741 1.2759109 19 25
30.238857 26.101492 0.69725859 12 23
14.27893 14.99436 -1.3269912 4 9
18.143934 14.175602 -1.3409184 4 10
30.256769 28.813145 2.4332345 24 27
30.257725 26.117779 1.6284542 16 26
19.085852 18.175219 -1.2276771 4 12
19.261797 16.626345 -1.3335203 4 11
30.306379 28.86039 5.1384993 20 29
9.7509651 8.416811 1.0515546 4 28
20.368252 21.388783 -1.2033074 7 13
26.098764 20.3906 -1.1565694 8 14
30.282589 28.837734 11.204795 18 31
30.1998 26.06778 7.273766 18 30
28.394329 27.039568 -0.91238034 7 16
30.253162 31.569786 -0.76322865 14 17
25.705523 22.047884 -0.9855873 6 15
4.1938734 3.9687259 -1.6163739 2 1
6.1539025 5.278264 -1.6214979 2 2
30.334637 28.706129 0 26 20
30.271637 23.498039 -0.4461329 16 18
7.4583468 7.0579472 -1.5975356 0 3
9.2886209 7.9669433 -1.5576448 5 4
30.235121 31.550957 0.25398064 16 21
30.382498 26.059374 -0.23263931 16 19
9.6913481 9.1710701 -1.4372425 4 5
12.121867 9.4094715 -1.4324541 2 6
30.340948 28.712101 0.97202706 20 24
30.290598 23.512756 0.4464123 13 22
14.018888 13.266288 -1.3496482 2 8
12.715709 10.906391 -1.3675741 2 7
30.217302 31.532364 1.2710236 19 25
30.384457 26.061052 0.69872457 12 23
14.406055 15.033009 -1.3344102 4 9
18.194685 14.123431 -1.3413836 4 10
30.289125 28.663059 2.4285834 12 27
30.34569 26.027803 1.6287799 16 26
19.093517 18.068485 -1.2245131 4 12
19.319996 16.570955 -1.333939 4 11
30.307497 28.680447 5.1233873 20 29
9.747097 8.3601828 1.0482999 4 28
20.418751 21.307377 -1.2023304 7 13
26.582682 20.634525 -1.1751359 8 14
30.266392 28.641546 11.165454 18 31
30.365177 26.044518 7.2938552 18 30
28.499464 26.969477 -0.91303176 7 16
30.346457 31.435663 -0.76267016 14 17
25.862276 22.018312 -0.98849642 6 15
4.216814 3.9612389 -1.6196089 1 1
6.1702209 5.2531281 -1.6207134 2 2
30.509619 28.660473 0 26 20
30.316374 23.35519 -0.44552758 16 18
7.4640017 7.0116186 -1.5932312 0 3
9.3238029 7.9379873 -1.558655 5 4
30.331121 31.419779 0.25381792 16 21
30.553953 26.012657 -0.23322049 8 19
9.7364931 9.1463776 -1.438956 4 5
12.149965 9.3601151 -1.4317105 2 6
30.533424 28.682835 0.97481871 21 24
30.303698 23.345425 0.44534129 13 22
14.087778 13.233937 -1.3516015 2 8
12.746493 10.851956 -1.3665979 2 7
30.346567 31.435778 1.2716055 19 25
30.571131 26.027281 0.70081884 6 23
14.538692 15.06052 -1.3415735 4 9
18.24633 14.056645 -1.3413836 4 10
30.263012 28.428812 2.4181185 11 27
30.550444 26.009668 1.6346418 16 26
19.180002 18.017529 -1.225816 4 12
19.38973 16.507795 -1.3345671 4 11
30.45293 28.60722 5.1302123 20 29
9.7533894 8.3037233 1.0456963 4 28
20.532801 21.269773 -1.2044472 7 13
26.711973 20.578424 -1.1775091 8 14
30.402145 28.559513 11.176842 18 31
30.544331 26.004463 7.3139443 19 30
30.514538 31.389772 -0.76413614 14 17
25.957296 21.943398 -0.98919451 6 15
4.2334318 3.9491234 -1.6206871 2 1
6.1885195 5.2315593 -1.6207134 2 2
30.665049 28.605648 0 13 20
30.435837 23.278389 -0.44608635 8 18
7.4884305 6.9855232 -1.5932312 1 3
9.363575 7.9156408 -1.5606753 5 4
30.507517 31.382551 0.25437585 16 21
30.620127 25.885191 -0.23303451 8 19
9.7770844 9.1204758 -1.4402412 4 5
12.185727 9.3200684 -1.4320823 2 6
30.677217 28.617001 0.97621441 10 24
30.439011 23.280817 0.4461329 13 22
14.157229 13.20646 -1.3538337 2 8
12.802565 10.822844 -1.3685507 2 7
30.520203 31.395601 1.2742817 9 25
30.612925 25.879105 0.69970191 6 23
14.699686 15.121311 -1.3515509 4 9
18.295284 13.992871 -1.3413836 4 10
30.259859 28.227673 2.4099789 11 27
30.702087 25.954477 1.6378982 8 26
19.251541 17.958649 -1.2263743 4 12
19.441132 16.434858 -1.3341483 4 11
12.564771 11.720947 2.1098022 3 29
9.9528131 8.4137621 1.0639219 4 28
30.58358 28.529652 11.206865 18 31
30.773155 26.014557 7.3469486 19 30
30.545631 28.494253 -0.97202706 8 16
4.2443666 3.9317033 -1.6196089 1 1
6.2037406 5.2074027 -1.619929 2 2
30.89677 28.620747 0 13 20
7.5156698 6.9620247 -1.5938461 1 3
9.4063463 7.8956614 -1.5632006 5 4
11.281967 11.524791 0.093734547 2 21
25.823738 21.676374 -0.1959545 5 19
9.8117809 9.0889912 -1.4406697 4 5
12.246736 9.2991505 -1.4354284 2 6
30.938284 28.659201 0.9813323 10 24
30.631592 23.259077 0.44776264 13 22
14.226664 13.17865 -1.3560659 2 8
12.855534 10.790899 -1.3701777 2 7
30.707933 31.368866 1.2775398 9 25
30.571358 25.661514 0.6967001 6 23
14.908759 15.229643 -1.3658773 4 9
18.3472 13.931334 -1.3416162 8 10
30.267401 28.037739 2.4027698 11 27
19.343428 17.918486 -1.2282356 4 12
19.559576 16.418255 -1.3383352 4 11
12.588136 11.660826 2.1068773 3 29
9.966856 8.3661509 1.0622946 4 28
11.124627 11.364064 -0.64789712 28 13
30.796366 28.527739 11.248277 18 31
30.603846 28.3494 -0.97072428 8 16
11.183848 11.349022 -0.27812156 24 17
4.2573819 3.9176061 -1.6196089 1 1
6.2239881 5.1893115 -1.6207134 2 2
34.73558 31.963377 0 16 20
30.77562 23.20793 -0.44874048 8 18
7.541626 6.9397388 -1.5944611 1 3
9.4294319 7.8618813 -1.5626956 5 4
25.852468 21.554749 -0.19562902 5 19
9.8506479 9.0644808 -1.4419547 4 5
12.271148 9.2536869 -1.4346848 2 6
30.762846 23.198298 0.44855425 13 22
14.264418 13.125993 -1.3555079 2 8
12.897374 10.753313 -1.3708287 2 7
30.949314 31.406403 1.2832417 9 25
15.211354 15.436009 -1.3889021 5 9
18.329535 13.822324 -1.336965 4 10
30.322016 27.902056 2.3997464 11 27
12.069748 11.106477 -0.76404101 1 12
19.647665 16.381433 -1.340638 4 11
12.568309 11.565248 2.0971277 3 29
9.9639254 8.3075209 1.0590401 4 28
11.125785 11.290101 -0.64578032 24 13
27.00226 20.362434 -1.1809989 8 14
54.88982 50.509136 19.987043 61 31
12.064854 11.101974 -0.38151553 1 16
11.160563 11.242676 -0.27651593 18 17
26.450571 21.889595 -0.99920171 6 15
4.268867 3.8993781 -1.6185305 2 1
6.2369218 5.1614652 -1.6191446 2 2
12.082157 11.036393 0 3 20
7.5757647 6.9200487 -1.5963058 1 3
9.4826384 7.8475094 -1.5667362 5 4
11.246614 11.32936 0.092781395 16 21
9.8984852 9.041728 -1.4440967 4 5
12.304979 9.2086515 -1.4346848 2 6
12.04978 11.006819 -1.1412159 1 8
12.945911 10.713597 -1.3718051 2 7
49.410343 49.77388 2.0411081 30 25
30.60803 25.330168 0.69348878 12 23
18.383268 13.757448 -1.3371977 8 10
12.074972 11.02983 -0.76180762 1 12
19.732189 16.329691 -1.3423127 4 11
12.106421 11.058557 2.0132816 2 29
9.9820204 8.2607813 1.0577383 1 28
11.167089 11.249249 -0.64578032 24 13
27.68161 20.716028 -1.2073829 9 14
30.510323 25.249308 7.2206726 18 30
12.081841 11.036104 -0.38077107 2 16
11.172338 11.180145 -0.27588764 34 17
4.2874789 3.8903782 -1.6206871 1 1
6.2509732 5.1382647 -1.61836 2 2
7.5986691 6.8948903 -1.5963058 1 3
9.5331297 7.8361788 -1.5707768 5 4
11.272809 11.280687 0.092688404 14 21
9.9313574 9.011528 -1.4445251 4 5
12.351428 9.179677 -1.4365436 2 6
12.115406 10.993294 0.38067803 15 24
12.981365 10.670609 -1.3718051 2 7
30.56016 30.581518 1.2582238 9 25
30.602257 25.154884 0.69146436 12 23
11.230168 11.238016 -1.0182041 21 9
18.444809 13.708324 -1.3383603 8 10
12.098187 10.97767 0.95138699 11 27
19.835602 16.304754 -1.3456622 4 11
30.573195 25.130995 3.2308207 10 28
11.235405 11.243257 -0.6475715 20 13
27.795071 20.657511 -1.2093374 9 14
30.572599 25.130505 7.2156506 18 30
11.203681 11.137394 -0.27574804 16 17
4.3060799 3.8812964 -1.6228437 1 1
6.2619019 5.1125445 -1.6167911 2 2
30.572081 22.5644 -0.44236118 8 18
7.6097488 6.8590674 -1.5938461 0 3
9.5805798 7.8220873 -1.5743122 3 4
11.304484 11.2376 0.092641912 12 21
9.9641418 8.9812059 -1.4449534 4 5
12.3786 9.1363001 -1.4361719 2 6
12.131004 10.934314 0.38002667 6 24
30.594608 22.581028 0.44268715 13 22
12.113624 10.918647 -1.1403788 5 8
13.029035 10.637586 -1.373107 2 7
30.59877 24.982437 0.68950969 12 23
11.374953 11.307652 -1.0279256 10 9
18.464468 13.628108 -1.3364999 4 10
12.125628 10.929467 0.95068938 4 27
39.265118 32.058098 2.0651619 12 26
12.112243 10.917402 -0.75957412 13 12
19.954544 16.291935 -1.3500584 4 11
12.126414 10.930176 2.0045071 5 29
49.256485 40.215572 5.1910539 48 28
11.329319 11.262288 -0.65082806 16 13
27.950268 20.629313 -1.2131065 9 14
9.5972767 8.6505308 -0.30065283 5 16
4.3030519 3.8500781 -1.6163739 1 1
6.2836442 5.0920296 -1.6175755 2 2
30.664253 22.459291 -0.44250086 8 18
7.640727 6.8364024 -1.595076 0 3
9.6122656 7.7894197 -1.5748173 5 4
11.362677 11.212952 0.092781395 10 21
9.5642729 8.5574598 -1.3824089 5 5
12.418427 9.0955772 -1.4369154 2 6
30.641665 22.442747 0.44217491 13 22
9.554534 8.5487461 -0.89651018 4 8
13.074128 10.594783 -1.3737578 2 7
49.351067 48.700771 2.0178359 30 25
30.606228 24.802139 0.68762481 12 23
18.507847 13.555625 -1.3360348 4 10
9.5497599 8.5444756 0.7462725 2 27
49.0424 39.742123 2.5717235 32 26
9.5615358 8.5550108 -0.59764576 3 12
20.110329 16.296656 -1.3565482 4 11
12.160475 10.880364 2.0035322 5 29
49.261059 39.919315 5.1760826 47 28
27.945057 20.467682 -1.2096165 9 14
12.20001 10.915738 4.3864651 3 31
9.5573931 8.5513039 -0.29841956 3 16
4.3222251 3.8401496 -1.6185305 2 1
6.3013821 5.0700631 -1.6175755 2 2
34.087494 24.784191 -0.49064842 9 18
7.6497736 6.7965627 -1.5920016 1 3
9.648675 7.7632794 -1.5763326 5 4
11.418892 11.190016 0.092920884 12 21
30.506681 24.545534 -0.22757131 7 19
9.570303 8.5028877 -1.3789817 10 5
12.433999 9.0404596 -1.4350564 2 6
30.651894 22.286251 0.44119707 13 22
9.5634384 8.496789 -0.894557 9 8
13.132778 10.566573 -1.376036 4 7
30.356142 29.747692 1.2369295 8 25
30.571102 24.597366 0.68490225 6 23
15.467027 15.15701 -1.3878787 5 9
18.53245 13.474496 -1.334407 4 10
49.112335 39.515556 2.5681412 32 26
9.5734205 8.5056581 -0.59652901 10 12
20.238676 16.283945 -1.3613631 4 11
30.340816 24.412081 3.1790729 10 28
27.984013 20.346498 -1.2082206 9 14
9.5547428 8.4890633 3.4246936 2 31
30.27916 24.362473 7.0857873 17 30
11.394201 11.091993 -0.27756307 2 17
4.3262706 3.8181498 -1.6152955 1 1
6.3059034 5.0393457 -1.6144377 2 2
9.5909891 8.4645262 0 16 20
7.6663399 6.7659278 -1.5907717 1 3
9.6867628 7.7411509 -1.5783529 5 4
11.501792 11.19673 0.09329284 4 21
30.350422 24.254459 -0.22580448 7 19
9.6044083 8.4763699 -1.3798385 5 5
12.473593 9.0061741 -1.4361719 2 6
9.603385 8.4754667 0.29804736 19 24
9.6005354 8.4729519 -0.89539409 5 8
13.180202 10.532923 -1.3773379 4 7
30.34944 24.253674 0.67813075 11 23
15.497178 15.086146 -1.3860879 4 9
18.615877 13.441021 -1.3371977 4 10
9.5927296 8.4660625 0.74510974 20 27
30.36949 24.269695 1.5838389 7 26
9.607563 8.4791546 -0.5969013 4 12
20.317524 16.236696 -1.3630377 4 11
9.5820093 8.4566021 1.5691898 7 29
30.334396 24.241652 3.1699603 10 28
28.083729 20.276993 -1.2096165 9 14
9.5944271 8.4675608 3.4288349 3 31
30.329035 24.237368 7.0786123 17 30
9.6093807 8.4807587 -0.29823348 3 16
30.224014 29.217611 -0.733769 13 17
25.674198 20.371031 -0.95382047 23 15
4.345366 3.8081036 -1.6174523 2 1
6.3326716 5.0246186 -1.6167911 2 2
9.6445427 8.4520884 0 11 20
30.222355 29.216007 0.24430963 15 21
30.303293 24.043957 -0.22482809 15 19
12.514665 8.9695415 -1.4372872 2 6
9.6389246 8.4471655 0.29823348 7 24
30.646818 21.965265 0.43896198 26 22
13.229377 10.496765 -1.3786397 4 7
30.215826 29.209694 1.2230824 17 25
30.289789 24.033243 0.67491943 11 23
15.521042 15.00422 -1.3835297 4 9
18.675659 13.385266 -1.3381277 4 10
20.358427 16.153267 -1.361991 4 11
9.6413279 8.4492712 1.5740645 3 29
30.281406 24.026592 3.1556399 10 28
21.9307 21.200449 -1.242712 7 13
28.219318 20.225422 -1.2124085 9 14
9.5919609 8.4060078 3.4174469 2 31
30.250071 24.001728 7.0405869 17 30
28.296534 27.154371 -0.68455321 12 17
4.3622003 3.794678 -1.6185305 1 1
6.3418021 4.9940929 -1.6144377 2 2
30.427256 21.639521 -0.43467805 7 18
7.6966672 6.6953306 -1.5870821 1 3
9.7949057 7.7133703 -1.5869391 5 4
30.239777 29.019176 0.24358895 29 21
30.265522 23.833735 -0.22389819 15 19
10.192917 8.8668175 -1.4552348 4 5
12.547458 8.9236097 -1.4372872 2 6
30.525038 21.709063 0.436075 13 22
14.598257 12.699023 -1.3529966 2 8
13.27716 10.455604 -1.3796161 4 7
30.230371 29.010151 1.2193588 17 25
30.239428 23.813185 0.67184788 11 23
15.587455 14.958282 -1.384553 4 9
18.724598 13.316722 -1.3381277 4 10
30.260735 26.323811 2.3357935 22 27
30.278625 23.844053 1.5701615 15 26
20.408085 16.071121 -1.3613631 4 11
9.735137 8.4685955 1.5843016 3 29
30.234591 23.809376 3.1416454 20 28
22.005377 21.117151 -1.2425492 7 13
28.211823 20.063929 -1.2089187 9 14
9.605217 8.3555775 3.4112351 2 31
30.207998 23.788435 7.0104527 17 30
4.3754191 3.7794292 -1.6185305 1 1
6.3622847 4.9743423 -1.6152221 1 2
30.306995 26.178782 0 25 20
30.388237 21.452446 -0.43304831 15 18
7.7229819 6.6710095 -1.587697 1 3
9.8499031 7.7011313 -1.5914848 5 4
30.242428 28.819628 0.24279852 29 21
30.244539 23.646646 -0.22313102 7 19
10.241863 8.8467865 -1.4578052 4 5
12.581783 8.8820553 -1.4376589 2 6
30.289717 26.163857 0.93136311 20 24
30.407846 21.466288 0.4333277 12 22
14.597198 12.608867 -1.3488111 2 8
13.335559 10.426386 -1.3818944 2 7
30.230139 28.807917 1.2152861 16 25
30.256199 23.655762 0.67038184 17 23
15.66558 14.92857 -1.3868555 5 9
18.761181 13.244374 -1.3374301 4 10
30.261776 26.139721 2.3288169 22 27
30.260912 23.659447 1.5649508 15 26
20.371264 17.596428 -1.2539208 8 12
20.432587 15.975186 -1.3592696 4 11
9.761632 8.4319687 1.583814 4 29
30.232712 23.637398 3.1328578 20 28
22.04134 21.004372 -1.2404324 7 13
28.304546 19.981474 -1.2098958 9 14
30.253822 26.132851 10.712003 15 31
30.213343 23.622255 6.9925156 17 30
30.22521 23.470434 -1.1137019 8 15
4.3820829 3.7598813 -1.6163739 1 1
6.3694534 4.9459982 -1.6128687 2 2
30.320791 26.015614 0 24 20
30.331486 21.262011 -0.43123233 15 18
7.7450633 6.64536 -1.587697 1 3
9.9192667 7.7024937 -1.5985558 3 4
30.349457 28.730173 0.24289152 29 21
30.259613 23.497149 -0.22266604 14 19
10.286238 8.8257189 -1.4599471 4 5
12.604648 8.8357086 -1.4369154 2 6
30.327757 26.021589 0.92987424 19 24
30.364237 21.284969 0.43169796 12 22
14.599565 12.526607 -1.3451838 2 8
13.38266 10.391883 -1.3831961 2 7
30.360353 28.740486 1.2166824 16 25
30.249197 23.489059 0.66849697 11 23
15.680215 14.843602 -1.3837855 4 9
18.795191 13.175205 -1.3367324 4 10
30.284655 25.984608 2.3239331 11 27
30.250824 23.490322 1.5603915 14 26
20.44467 17.541779 -1.2548513 8 12
20.491768 15.912236 -1.3596883 4 11
9.7805033 8.3917923 1.5823517 3 29
30.235363 23.478319 3.1250467 20 28
22.073145 20.895439 -1.2383156 7 13
28.390295 19.90126 -1.2107333 9 14
30.275814 25.977022 10.689227 30 31
30.204493 23.454346 6.9724264 17 30
30.338623 23.389187 -1.1148657 8 15
4.3893175 3.7395647 -1.6142174 2 1
6.3928938 4.9285226 -1.6144377 1 2
30.475365 25.964081 0 25 20
7.7591887 6.6105919 -1.5858524 1 3
9.97752 7.6920457 -1.6036066 3 4
30.525345 28.695282 0.24349597 14 21
30.322449 23.376717 -0.22252657 14 19
10.329093 8.8000727 -1.4616606 4 5
12.625607 8.7848282 -1.4358001 1 6
30.488426 25.97521 0.93201452 20 24
30.293892 21.078325 0.42964911 12 22
14.594608 12.434161 -1.3407195 2 8
13.425171 10.34997 -1.3838471 4 7
30.539158 28.708269 1.2198243 17 25
30.308838 23.366224 0.66800833 11 23
15.761023 14.816114 -1.3863437 4 9
18.857458 13.120916 -1.3378953 4 10
30.271833 25.790678 2.3160262 11 27
30.281998 23.345533 1.5577863 14 26
20.551403 17.509169 -1.2576432 8 12
20.54719 15.840603 -1.3596883 4 11
30.272938 23.338549 3.1204906 20 28
22.148867 20.820993 -1.2384784 7 13
28.472721 19.811165 -1.2112917 9 14
30.369251 25.873676 10.690262 15 31
30.276834 23.341553 6.970274 17 30
26.044226 22.188887 -0.79615778 6 16
26.616369 20.371861 -0.97546381 6 15
4.4052825 3.726711 -1.6152955 2 1
6.4100556 4.9061818 -1.6144377 0 2
30.645195 25.924738 0 12 20
30.291576 20.920195 -0.42857814 15 18
7.7761774 6.5783677 -1.5846225 1 3
9.9980021 7.6523547 -1.6025963 3 4
30.701326 28.659542 0.24410041 15 21
30.524548 23.363134 -0.22340998 15 19
10.371888 8.7742462 -1.4633741 4 5
12.669298 8.7497654 -1.4372872 2 6
30.65522 25.933218 0.93434078 10 24
30.29487 20.922468 0.42862472 25 22
14.610497 12.359957 -1.3382081 2 8
13.464376 10.305477 -1.3841726 4 7
30.697618 28.65608 1.2221515 8 25
30.514065 23.35511 0.67073089 11 23
15.812634 14.761019 -1.3863437 4 9
18.876848 13.03687 -1.3360348 4 10
30.270199 25.607504 2.3090496 11 27
30.458502 23.312584 1.5626712 15 26
20.645941 17.465725 -1.2596905 4 12
20.611864 15.776081 -1.3603163 4 11
30.360537 23.237602 3.1211414 10 28
28.485769 19.673056 -1.2089187 9 14
30.553762 25.847387 10.723392 15 31
30.492483 23.338593 7.0011253 17 30
26.763725 20.336878 -0.97825652 6 15
4.4153166 3.7088327 -1.6142174 1 1
6.4333892 4.8885217 -1.6160066 0 2
30.683441 25.773863 0 12 20
30.291845 20.764572 -0.42755371 15 18
7.7960691 6.5486398 -1.5840077 1 3
10.018335 7.6126051 -1.6015862 5 4
30.944925 28.685432 0.24523954 15 21
30.644138 23.285477 -0.22368896 7 19
10.408546 8.7431011 -1.464231 4 5
12.693195 8.7009811 -1.4365436 2 6
30.653704 25.748882 0.93154925 10 24
30.288548 20.762312 0.42750716 25 22
14.607724 12.270379 -1.3340228 2 8
13.516141 10.270473 -1.3857999 4 7
26.888773 24.925447 1.0670408 6 25
30.627247 23.272642 0.67142898 5 23
15.820155 14.665022 -1.3825063 4 9
18.902483 12.957349 -1.3346394 4 10
30.264622 25.422056 2.3018403 11 27
30.635166 23.278658 1.5675561 7 26
20.667013 17.360138 -1.2572709 4 12
20.711338 15.737866 -1.363247 4 11
9.9651232 8.3706293 1.5979509 4 29
30.276407 23.00605 3.1042175 9 28
28.587246 19.596096 -1.2103145 9 14
30.762146 25.839973 10.764802 15 31
30.589436 23.24391 7.0047126 17 30
25.98415 21.826492 -0.789644 99 16
12.064343 11.105393 -0.28621948 2 17
26.994154 20.363718 -0.98407465 6 15
4.4371104 3.700798 -1.6174523 1 1
6.4504156 4.8660326 -1.6160066 0 2
30.314547 20.624952 -0.42685527 15 18
7.815846 6.5188522 -1.5833927 1 3
10.054353 7.584753 -1.6031015 3 4
12.077747 11.117732 0.09540838 2 21
30.865738 23.284344 -0.22471185 7 19
10.439004 8.7067127 -1.464231 4 5
12.713615 8.6498966 -1.4354284 2 6
30.623632 25.541821 0.9279201 9 24
30.311237 20.6227 0.42680869 12 22
14.656598 12.224422 -1.3345808 2 8
13.551911 10.223225 -1.3857999 2 7
30.836016 23.261923 0.67422134 5 23
12.047351 11.089751 -1.0494155 2 9
18.954205 12.895774 -1.3351046 4 10
30.267319 25.244635 2.2953289 11 27
30.86939 23.2871 1.5753719 7 26
20.718285 17.280207 -1.2567126 4 12
20.829929 15.71358 -1.367434 4 11
12.396813 10.339635 1.9820831 2 29
30.241959 22.813782 3.0925012 9 28
12.07088 11.11141 -0.66841358 4 13
28.648869 19.491684 -1.2100353 9 14
48.906757 36.894039 11.169658 34 30
30.604616 22.920187 -1.1127712 8 15
4.4500008 3.6852882 -1.6174523 1 1
6.4767795 4.8505425 -1.61836 0 2
30.515621 20.60631 -0.42867127 15 18
7.8446398 6.4965739 -1.5846225 0 3
10.083941 7.5519924 -1.6036066 3 4
10.487708 8.6854429 -1.4668013 4 5
12.733827 8.5987816 -1.4343131 2 6
30.492418 20.590639 0.42834532 12 22
14.70225 12.175735 -1.33486 2 8
13.587513 10.175861 -1.3857999 2 7
18.992481 12.825068 -1.3346394 4 10
30.29681 25.090441 2.2909102 10 27
20.784626 17.212883 -1.2570848 4 12
20.919819 15.667119 -1.3697368 4 11
12.448117 10.308965 1.9845206 2 29
30.244822 22.650732 3.0846901 19 28
28.69685 19.378145 -1.2091978 9 14
49.000587 36.697166 11.161766 33 30
12.079389 10.964448 -0.28475344 4 17
30.607433 22.755953 -1.1099784 8 15
4.4420118 3.6526055 -1.6099041 0 1
6.4873762 4.8232217 -1.6167911 1 2
30.660467 20.548643 -0.4296957 7 18
7.8794823 6.4791903 -1.5870821 0 3
10.103874 7.5120082 -1.6025963 1 4
12.08695 10.971311 0.094873689 6 21
10.530252 8.6588812 -1.4685149 4 5
12.750533 8.5454063 -1.4328258 2 6
30.647179 20.539736 0.4295094 12 22
14.707681 12.093925 -1.3315116 2 8
13.645348 10.145016 -1.3880781 2 7
12.090919 10.974914 0.47522298 6 25
12.077185 10.962446 -1.0453221 5 9
19.037136 12.758687 -1.3346394 4 10
30.257755 24.880539 2.2813754 10 27
20.838417 17.135145 -1.2567126 4 12
20.990412 15.605909 -1.3707834 4 11
30.592157 25.155512 4.8630748 17 29
30.246922 22.487921 3.0768793 19 28
12.080093 10.965087 -0.66466856 10 13
28.757683 19.273396 -1.2089187 9 14
30.598328 25.160585 10.614687 14 31
49.112606 36.514141 11.158178 33 30
30.611959 22.602091 -1.1074184 8 15
4.4540992 3.637856 -1.6099041 1 1
6.5033345 4.8016839 -1.6167911 1 2
31.990074 26.12768 0 13 20
30.825005 20.51112 -0.43104604 7 18
7.9131684 6.463028 -1.5895418 0 3
10.103191 7.459609 -1.5985558 1 4
12.111381 10.920456 0.094780691 6 21
30.582571 22.580393 -0.22094573 7 19
10.558906 8.6239157 -1.4685149 2 5
12.762221 8.4920492 -1.430967 2 6
30.801697 20.495611 0.43072009 12 22
14.760064 12.055184 -1.3326277 2 8
13.678913 10.099714 -1.3880781 2 7
12.109428 10.918696 0.4745248 3 25
30.568777 22.570208 0.66326123 5 23
9.5372086 8.5994053 -0.82300574 3 9
19.06604 12.686645 -1.3337092 4 10
30.262774 24.716919 2.2755616 10 27
20.907503 17.076063 -1.2574571 4 12
21.042046 15.536222 -1.3707834 4 11
30.66618 25.046398 4.8616123 17 29
30.23152 22.321196 3.0677664 19 28
9.5369797 8.5991983 -0.52316999 2 13
30.636707 25.022326 10.599158 14 31
30.536621 22.546465 6.9207683 17 30
25.396828 20.742689 -0.76303107 55 16
12.157803 10.889431 -0.2848931 6 17
30.625483 22.455523 -1.1052076 8 15
4.4810963 3.6351976 -1.6152955 1 1
6.5065708 4.770813 -1.6136533 1 2
32.120037 26.056725 0 13 20
31.326702 20.695387 -0.4370994 7 18
7.9345593 6.436749 -1.5895418 0 3
10.131075 7.4284077 -1.5990609 1 4
9.5404444 8.5451298 0.074438997 3 21
30.61858 22.45046 -0.22066677 7 19
10.590537 8.5913563 -1.4689432 4 5
12.773699 8.4387007 -1.429108 2 6
14.78447 11.993598 -1.3312325 2 8
13.728408 10.066081 -1.3897052 2 7
9.5425253 8.5469942 0.37282431 3 25
30.633783 22.461609 0.66305178 5 23
13.000777 8.5887156 -0.90743393 2 10
30.267052 24.553526 2.2697475 10 27
20.957811 17.001595 -1.2570848 4 12
21.093454 15.466353 -1.3707834 4 11
30.241079 22.173666 3.0612571 19 28
12.978183 8.5737886 -0.54317576 2 14
49.03635 35.954922 11.086431 33 30
9.5689173 8.5106268 -0.22353043 10 17
30.642256 22.303785 -1.1029967 8 15
4.4937572 3.619535 -1.6152955 1 1
6.5295248 4.7526894 -1.6152221 1 2
32.213905 25.946964 0 13 20
7.9631338 6.4139738 -1.5907717 0 3
10.147317 7.3859959 -1.5975456 1 4
10.623556 8.5568333 -1.4693716 4 5
12.786422 8.3831453 -1.4272492 2 6
14.820026 11.936916 -1.3306744 2 8
13.789246 10.036872 -1.3923091 2 7
9.5567455 8.4998016 -0.81967992 7 9
19.195368 12.585034 -1.3367324 4 10
30.2686 24.380102 2.2634685 10 27
21.073036 16.973457 -1.2604351 4 12
21.131161 15.380881 -1.3697368 4 11
30.231262 22.004633 3.05247 19 28
9.5714006 8.5128355 -0.52186739 8 13
28.931246 18.968157 -1.208081 9 14
49.075649 35.721024 11.06706 33 30
9.6015615 8.4798222 -0.22360022 10 17
30.655106 22.149862 -1.1006695 8 15
4.4943314 3.5942047 -1.6109824 1 1
6.5460744 4.7298694 -1.6152221 1 2
30.417442 24.325424 0 11 20
30.632271 19.930864 -0.42545831 7 18
7.9731274 6.376266 -1.588312 0 3
10.169819 7.3482084 -1.5970405 1 4
9.5938683 8.4730272 0.074392498 6 21
30.618933 22.123726 -0.21955086 21 19
10.659573 8.5246687 -1.4702284 4 5
12.808928 8.3341198 -1.4265057 2 6
30.459181 24.358803 0.90754163 9 24
14.877184 11.897575 -1.3320696 2 8
13.830658 9.9933491 -1.3929598 2 7
9.6019573 8.4801712 0.37282431 4 25
30.598577 22.109018 0.65893304 16 23
9.6013155 8.4796047 -0.82095903 3 9
19.265953 12.535379 -1.3385929 4 10
30.259956 24.19948 2.2564917 10 27
34.202904 24.713326 1.7191501 8 26
21.154001 16.917269 -1.2617379 4 12
21.246237 15.35148 -1.3737143 4 11
49.501366 39.587212 7.782577 36 29
30.243254 21.852278 3.0459607 19 28
9.6160336 8.4926033 -0.52268153 2 13
29.000633 18.86924 -1.2082206 9 14
49.117104 35.48959 11.048405 32 30
9.6671839 8.4778996 -0.22443795 3 17
30.56978 21.92621 -1.0948514 8 15
4.5008154 3.573705 -1.6088258 1 1
6.5593572 4.7047062 -1.6144377 1 2
30.395651 24.134535 0 23 20
30.644527 19.78694 -0.42466676 7 18
8.0077152 6.3582277 -1.5907717 0 3
10.201854 7.3172913 -1.5980506 1 4
30.643961 21.979416 -0.2191789 14 19
10.689261 8.4874096 -1.4702284 4 5
12.817863 8.2763977 -1.4242749 2 6
30.647886 19.789108 0.42471328 12 22
13.875173 9.9519835 -1.3939362 2 7
30.626814 21.967117 0.65788597 11 23
16.188478 14.196925 -1.3799479 4 9
19.302879 12.463723 -1.3381277 4 10
30.281691 24.044048 2.2518408 10 27
34.412365 24.682308 1.7253376 8 26
21.278631 16.895506 -1.2656466 4 12
21.400314 15.3494 -1.380204 4 11
30.402283 24.139801 4.7665544 17 29
30.248074 21.695465 3.0388007 18 28
25.021517 21.943298 -1.3558782 9 13
29.06967 18.770065 -1.2083602 9 14
30.382685 24.124241 10.395208 13 31
49.119167 35.230778 11.02114 32 30
30.369799 21.614628 -1.0848442 8 15
4.5138845 3.5571835 -1.6088258 1 1
6.5765576 4.6806316 -1.6144377 1 2
30.326828 23.89917 0 23 20
30.730324 19.683111 -0.424853 7 18
8.0278625 6.3263869 -1.5901568 0 3
10.215674 7.2706442 -1.5960304 1 4
30.260052 26.341784 0.233174 13 21
30.378883 21.621092 -0.21671465 14 19
10.732795 8.4580183 -1.4719419 4 5
12.854823 8.2336559 -1.4250185 2 6
30.321762 23.895176 0.89832944 18 24
30.646118 19.629175 0.42368886 12 22
13.927797 9.9126158 -1.3955635 2 7
30.226645 26.312702 1.1662978 15 25
30.368254 21.613527 0.65062571 11 23
16.207289 14.108663 -1.3771338 4 9
19.345074 12.390734 -1.3378953 4 10
30.25671 23.843912 2.2434688 10 27
30.370497 21.615126 1.5187074 7 26
21.324728 16.805031 -1.264716 4 12
21.388088 15.222214 -1.3758078 4 11
30.325291 23.897959 4.7407179 17 29
30.233198 21.517406 3.0293624 18 28
24.972155 21.738596 -1.3488766 9 13
29.124815 18.654764 -1.2078018 9 14
30.357988 21.606222 6.7937751 16 30
30.265228 23.850624 -0.89665449 7 16
25.626789 22.159502 -0.59135735 26 17
4.531723 3.5469425 -1.6109824 1 1
6.5920444 4.6587954 -1.6144377 1 2
30.286224 23.704779 0 22 20
34.325901 21.825914 -0.47355926 9 18
8.0394621 6.2924213 -1.588312 0 3
10.22677 7.2275648 -1.5940101 1 4
30.241348 26.149714 0.23236033 26 21
30.336094 21.439426 -0.21590099 14 19
10.77018 8.4297314 -1.4732271 6 5
12.861894 8.1781569 -1.4227879 2 6
30.296921 23.713152 0.89525867 18 24
16.100737 12.601914 -1.4297286 2 8
13.976876 9.8778772 -1.3971908 2 7
30.216959 26.128624 1.1625741 14 25
30.315655 21.424982 0.64797294 11 23
16.238892 14.04178 -1.3758547 4 9
19.392801 12.330794 -1.3383603 4 10
21.481028 16.813025 -1.270672 4 12
21.438456 15.151198 -1.3758078 4 11
30.285576 23.704271 4.7221937 33 29
30.24579 21.375607 3.0235043 18 28
24.9776 21.598146 -1.3452942 9 13
29.203388 18.568796 -1.2084998 9 14
30.285675 23.70435 10.30514 12 31
30.29129 21.407763 6.7629237 16 30
30.296921 23.713152 -0.89525867 7 16
25.616783 21.987286 -0.58926302 17 17
30.297348 21.245974 -1.0769316 16 15
4.5538182 3.5373988 -1.6142174 2 1
6.6154976 4.6391082 -1.6160066 1 2
30.284449 23.524912 0 22 20
8.0531054 6.2556391 -1.5864673 0 3
10.28243 7.2105393 -1.5985558 1 4
30.321804 26.025677 0.23224409 26 21
30.267092 21.224756 -0.21485485 14 19
10.801003 8.3902016 -1.4732271 6 5
12.911991 8.143712 -1.4250185 2 6
30.29204 23.530809 0.89256012 18 24
30.664003 19.340069 0.42205912 12 22
16.05858 12.474279 -1.421916 2 8
14.029305 9.8380299 -1.3988181 2 7
30.33679 26.03854 1.1635051 14 25
30.253168 21.214993 0.64497113 11 23
16.290245 13.982171 -1.3758547 4 9
19.451372 12.26816 -1.3392906 4 10
30.277372 23.519415 2.2327712 20 27
30.301414 21.248825 1.5077978 14 26
21.574059 16.758696 -1.2725332 4 12
21.425158 15.024363 -1.3714114 4 11
30.293861 23.532225 4.7100067 33 29
30.258644 21.218832 3.016995 18 28
25.001999 21.459606 -1.3423635 9 13
29.261099 18.455244 -1.208081 9 14
30.268602 23.512602 10.269939 12 31
30.231003 21.19945 6.7320719 16 30
26.252893 20.393206 -0.77354598 5 16
30.25647 21.060146 -1.0728589 16 15
4.5600376 3.5167778 -1.6120608 1 1
6.6252117 4.6115074 -1.6144377 1 2
30.293524 23.362877 0 22 20
35.637352 22.30331 -0.48943773 9 18
8.0936699 6.2419748 -1.5901568 0 3
10.287995 7.1610036 -1.5955254 1 4
30.512926 26.005304 0.23301126 13 21
30.288467 21.082418 -0.21448289 20 19
10.833372 8.3548784 -1.4736555 6 5
12.93021 8.0922537 -1.4239032 2 6
30.297995 23.366323 0.89032698 27 24
30.673687 19.196846 0.42126757 24 22
16.102024 12.418152 -1.421916 2 8
14.060287 9.7867241 -1.3984927 2 7
30.521828 26.01289 1.1671122 15 25
30.264669 21.065855 0.64364475 16 23
16.38756 13.966654 -1.3799479 4 9
19.47715 12.189596 -1.3381277 4 10
30.273905 23.347746 2.2264922 20 27
30.270433 21.069866 1.5025873 13 26
21.451244 14.931231 -1.3697368 4 11
30.284645 23.35603 4.6958699 33 29
30.253994 21.058422 3.0091839 18 28
25.00375 21.309988 -1.3384556 9 13
29.37278 18.382685 -1.2100353 9 14
30.274 23.34782 10.244059 25 31
30.220842 21.035349 6.7134175 32 30
26.475912 20.418669 -0.77801245 5 16
30.25671 20.919504 -1.0705317 16 15
4.5588336 3.4930625 -1.6077474 1 1
6.6364412 4.5884385 -1.6136533 1 2
30.366776 23.267586 0 22 20
30.445093 18.920927 -0.41730958 7 18
8.0818682 6.1924767 -1.5840077 0 3
10.333289 7.1444411 -1.5990609 1 4
30.618898 25.929989 0.23319724 13 21
30.25914 20.921183 -0.2138087 13 19
10.865882 8.3256397 -1.4745122 6 5
12.972485 8.0621014 -1.4257622 2 6
30.390301 23.28561 0.89088523 18 24
30.431501 18.912479 0.41712332 11 22
16.147295 12.372355 -1.4224739 2 8
14.084407 9.7379656 -1.3978417 2 7
30.600353 25.914286 1.1669959 7 25
30.251753 20.916077 0.64196932 11 23
16.504469 13.977013 -1.3860879 4 9
19.55266 12.151529 -1.340686 4 10
30.277374 23.199083 2.2213757 10 27
30.257584 20.920107 1.4986794 13 26
21.448765 14.829686 -1.3665966 4 11
30.329514 23.239033 4.6914825 16 29
30.238026 20.906586 3.0010476 18 28
24.994331 21.166756 -1.3343848 9 13
26.238815 16.306822 -1.0788132 7 14
30.282801 23.203241 10.222318 25 31
30.212339 20.888826 6.6969161 32 30
26.638334 20.410784 -0.78089708 5 16
30.518116 25.644058 -0.6957925 12 17
30.264269 20.75342 -1.0679717 15 15
4.5844798 3.4848554 -1.6120608 1 1
6.6540108 4.5629215 -1.6136533 1 2
30.586462 23.250053 0 22 20
26.329109 16.22312 -0.36003545 5 18
8.1339064 6.1829233 -1.5895418 0 3
10.327922 7.0822692 -1.5940101 1 4
30.266676 20.75507 -0.21329725 13 19
10.904105 8.2886677 -1.4753691 6 5
13.040644 8.0352097 -1.4298517 2 6
30.597286 23.258282 0.89432812 18 24
26.332514 16.225218 0.360082 8 22
16.166096 12.288527 -1.4199628 2 8
14.128272 9.6883211 -1.3984927 2 7
30.25598 20.747736 0.64036369 10 23
19.575378 12.061695 -1.339058 4 10
30.280403 23.017405 2.215097 10 27
30.271763 20.758558 1.4954227 13 26
21.479195 14.729142 -1.3649219 4 11
30.544956 23.218504 4.7109818 16 29
30.249033 20.742971 2.9942129 18 28
25.014227 21.019197 -1.3311281 9 13
26.314854 16.214334 -1.0793717 7 14
30.273245 23.011963 10.189188 25 31
30.220926 20.723698 6.6811314 32 30
30.573971 25.527557 -0.69523406 12 17
30.299578 20.637985 -1.0669245 15 15
4.5984783 3.4727569 -1.613139 2 1
6.6780381 4.5486197 -1.6160066 1 2
30.697655 23.182777 0 11 20
30.303497 18.540918 -0.41358441 14 18
8.1312113 6.1406665 -1.5852374 0 3
10.353399 7.0520225 -1.5945152 1 4
30.602673 25.551523 0.23170938 12 21
30.344955 20.668894 -0.21339025 13 19
10.933263 8.2567673 -1.4757974 6 5
13.076014 8.0004396 -1.430967 4 6
30.711685 23.193373 0.89553785 9 24
30.327381 18.555532 0.41391039 11 22
16.220541 12.249703 -1.421358 2 8
14.152047 9.6393995 -1.3978417 2 7
30.599445 25.548828 1.1601305 7 25
30.330929 20.65934 0.64057314 10 23
16.531172 13.802606 -1.3802038 9 9
19.667671 12.033485 -1.3427789 4 10
30.272894 22.862 2.2092829 10 27
30.317009 20.649858 1.4944458 13 26
21.502251 14.645852 -1.3634565 4 11
30.677942 23.167891 4.7202439 16 29
30.248148 20.602955 2.9877036 18 28
25.061728 20.925144 -1.3301513 9 13
29.588053 18.103182 -1.2112917 9 14
30.262142 22.853878 10.161236 25 31
30.311901 20.646379 6.6868715 16 30
26.984417 20.378551 -0.78685248 5 16
26.636442 22.074772 -0.60385329 9 17
30.497583 20.609632 -1.0712298 16 15
4.6142573 3.4581909 -1.6142174 1 1
6.6881638 4.5197215 -1.6144377 1 2
31.019272 23.247633 0 11 20
8.1346846 6.0966024 -1.581548 0 3
10.352874 6.9962568 -1.5904746 1 4
30.559694 20.651604 -0.21436664 13 19
10.957085 8.2118721 -1.4749407 6 5
13.180154 7.9979167 -1.439146 2 6
31.00128 23.23415 0.90149325 9 24
16.230202 12.163851 -1.4182886 2 8
14.16746 9.5740747 -1.3958889 2 7
30.600517 25.359972 1.1566397 7 25
30.542297 20.639849 0.6434353 11 23
16.597012 13.754661 -1.381483 4 9
19.738953 11.977896 -1.3446393 4 10
30.270203 22.686239 2.2030039 10 27
30.5117 20.619171 1.5003077 13 26
21.535923 14.553529 -1.3622004 4 11
30.946907 23.193399 4.7485175 17 29
30.240871 20.436152 2.9795673 18 28
25.101322 20.802551 -1.3281974 9 13
29.650785 17.992544 -1.2111522 9 14
30.262217 22.680254 10.133284 24 31
30.51778 20.62328 6.7155704 16 30
27.209316 20.392235 -0.79122591 5 16
30.608921 20.537355 -1.0727426 8 15
4.6195192 3.438272 -1.6120608 1 1
6.7031145 4.49752 -1.6144377 1 2
30.301998 18.250509 -0.41181499 14 18
8.1675386 6.0790353 -1.5840077 0 3
10.392491 6.9729438 -1.5929999 1 4
30.671186 20.579132 -0.21466886 6 19
10.997016 8.1849928 -1.4766543 6 5
13.442008 8.0959511 -1.4647987 1 6
30.298569 18.248446 0.41176841 23 22
16.289654 12.124262 -1.4199628 2 8
14.212374 9.5359306 -1.3971908 2 7
30.579483 25.171967 1.1526833 7 25
30.653748 20.567432 0.64434284 5 23
16.648695 13.704626 -1.3819947 4 9
19.775145 11.910319 -1.3444068 4 10
30.271585 22.530905 2.1976552 9 27
30.662874 20.573555 1.5043784 7 26
21.630505 14.513198 -1.3651313 4 11
30.252193 20.298006 2.9740345 18 28
25.194849 20.739521 -1.3294998 9 13
29.72056 17.900316 -1.211571 9 14
30.275269 22.533646 10.112578 24 31
30.556591 20.502243 6.7091131 16 30
25.442133 20.794504 -0.57355589 15 17
30.836843 20.534533 -1.0782115 8 15
4.6314936 3.4221244 -1.6120608 1 1
6.7122445 4.4697447 -1.6128687 1 2
30.293415 18.101528 -0.41083711 13 18
8.2014256 6.0598807 -1.5864673 0 3
10.420074 6.9388213 -1.593505 1 4
32.020672 26.171312 0.24035753 14 21
30.9426 20.604958 -0.21606372 7 19
11.025522 8.146553 -1.4766543 6 5
14.04797 8.3942242 -1.5276288 1 6
30.303717 18.107685 0.41097683 23 22
16.315832 12.055465 -1.4185677 2 8
12.94811 8.6222639 -1.2699368 2 7
30.617638 25.024576 1.1508216 7 25
30.985014 20.633202 0.64978802 5 23
16.684071 13.636317 -1.3809713 4 9
19.86459 11.869888 -1.3476626 4 10
30.253704 22.353899 2.1906784 9 27
30.927454 20.594873 1.5138226 7 26
21.624514 14.399961 -1.3615724 4 11
52.976856 39.143616 8.087738 40 29
30.239912 20.137032 2.965898 17 28
25.267094 20.651442 -1.3294998 9 13
29.803453 17.808758 -1.2124085 9 14
30.266739 22.363531 10.083591 24 31
30.487137 20.301661 6.6782618 16 30
26.999695 21.902977 -0.60685509 46 17
4.6502171 3.4096825 -1.6142174 1 1
6.7383976 4.4515996 -1.6152221 1 2
30.648115 22.472143 0 11 20
30.290735 17.949604 -0.40990585 13 18
8.2108307 6.0204339 -1.5840077 0 3
10.428878 6.8896489 -1.5909797 1 4
32.116375 26.053783 0.24035753 14 21
11.064926 8.1131449 -1.4779394 4 5
14.088919 8.348774 -1.5287441 1 6
30.636593 22.463696 0.88399929 9 24
30.297617 17.953682 0.40999895 22 22
16.36956 12.002666 -1.4194047 2 8
12.946358 8.5527754 -1.2666823 2 7
30.584944 24.81144 1.146167 7 25
16.718435 13.562505 -1.3796921 4 9
19.901089 11.792934 -1.3471975 4 10
30.27424 22.198008 2.1862597 9 27
12.981622 8.5760727 -0.81539428 2 11
30.62458 22.454887 4.6627216 16 29
30.246975 19.982115 2.9593887 17 28
25.395376 20.601503 -1.332268 9 13
29.902914 17.71979 -1.2138046 9 14
30.279947 22.20219 10.060814 24 31
30.347914 20.048798 6.6316252 16 30
30.581774 22.423498 -0.8824175 7 16
27.054188 21.791027 -0.60636646 74 17
33.985664 22.281981 -1.1827048 10 15
4.6496339 3.3843613 -1.6099041 1 1
6.7506175 4.4258995 -1.6144377 1 2
30.629356 22.294399 0 11 20
30.304939 17.815374 -0.40925395 13 18
8.2573614 6.0103421 -1.5889269 0 3
10.456186 6.8553772 -1.5914848 1 4
11.093181 8.0744696 -1.4779394 4 5
14.080213 8.277339 -1.5246546 1 6
30.676033 22.328375 0.88288277 8 24
30.301493 17.813347 0.40920737 22 22
16.417812 11.950146 -1.4199628 2 8
14.283086 9.3644028 -1.3942617 2 7
30.615324 24.659374 1.1440725 7 25
16.743917 13.486532 -1.3779013 4 9
20.00066 11.757793 -1.351151 4 10
30.280521 22.040491 2.1811438 9 27
13.024844 8.539463 -0.81623167 2 11
30.69315 22.340834 4.6612592 16 29
30.249868 19.832685 2.9528794 17 28
25.445351 20.495176 -1.3311281 9 13
29.957699 17.61124 -1.2135254 9 14
30.2698 22.032688 10.031827 24 31
30.233429 19.821907 6.5914469 15 30
30.554234 19.887684 -1.06099 7 15
4.6514659 3.3621547 -1.6066693 1 1
6.7685428 4.4056296 -1.6152221 1 2
30.29475 17.674475 -0.40832263 13 18
8.2740431 5.9806118 -1.588312 0 3
10.482185 6.8228316 -1.5919899 1 4
30.372074 24.297838 0.22606023 12 21
30.596828 19.915409 -0.21218137 6 19
11.119894 8.0376396 -1.4779394 4 5
14.13854 8.2486658 -1.5280006 1 6
34.182041 24.707333 0.9814254 10 24
30.308573 17.682539 0.40850893 22 22
16.431477 11.876938 -1.4177306 2 8
14.300694 9.3082895 -1.3929598 2 7
30.606091 19.921438 0.63743168 5 23
16.801014 13.44091 -1.3789247 4 9
20.115416 11.735678 -1.3562672 4 10
30.266056 21.876795 2.1748645 9 27
21.891293 14.248994 -1.3688995 4 11
50.404312 36.433052 7.6363339 34 29
26.319288 17.131168 2.563632 6 28
25.441391 20.353264 -1.3273832 9 13
30.029741 17.519865 -1.2140837 9 14
30.270674 21.880133 10.008016 24 31
30.209948 19.663589 6.5720754 15 30
30.371164 24.123713 -0.67701381 11 17
30.593248 19.761377 -1.0599427 7 15
4.6569152 3.3414056 -1.6045126 1 1
6.7772927 4.3777189 -1.6136533 1 2
30.643904 21.987455 0 21 20
30.297421 17.534554 -0.40753108 13 18
8.2723913 5.9355631 -1.5840077 0 3
10.489274 6.7754326 -1.5894644 1 4
30.605684 19.769409 -0.21176291 6 19
11.151117 8.001092 -1.4783678 4 5
14.125886 8.1753197 -1.5235392 1 6
30.658358 21.997824 0.87804401 8 24
30.297421 17.534554 0.40753108 22 22
16.482563 11.826483 -1.4185677 2 8
14.333101 9.2583113 -1.3929598 2 7
30.303452 24.069929 1.1262692 14 25
30.61162 19.773243 0.6361053 5 23
16.850962 13.384661 -1.3791806 4 9
20.11479 11.641382 -1.3534765 4 10
30.290333 21.733763 2.1711438 9 27
21.920769 14.159483 -1.3676434 4 11
50.515064 36.245304 7.6338964 34 29
26.281818 16.976456 2.5541937 5 28
25.462219 20.224554 -1.324778 9 13
30.108023 17.42494 -1.2147818 9 14
30.277809 21.724775 9.985239 24 31
30.218908 19.519575 6.5591602 15 30
30.333738 23.913202 -0.67422134 11 17
30.648634 19.638334 -1.0593609 7 15
4.6691298 3.324316 -1.6045126 1 1
6.7932916 4.3528509 -1.6136533 1 2
30.629784 21.80772 0 21 20
30.299034 17.38756 -0.40669289 13 18
8.2940893 5.9052057 -1.5840077 0 3
10.534081 6.7497888 -1.5924948 1 4
30.275024 23.866917 0.22406091 12 21
11.180367 7.9601703 -1.4783678 6 5
14.145391 8.117547 -1.522424 1 6
30.543314 21.746155 0.87246084 8 24
30.299034 17.38756 0.40669289 22 22
16.512796 11.756741 -1.4174516 2 8
14.353509 9.1971149 -1.3916579 2 7
30.250162 23.847317 1.1210328 14 25
16.921844 13.340113 -1.3809713 4 9
20.233517 11.61131 -1.3585927 4 10
30.285206 21.562387 2.1650972 9 27
