# .PCD v0.7 - Point Cloud Data file format
VERSION 0.7
FIELDS x y z intensity ring
SIZE 4 4 4 4 2
TYPE F F F F U
COUNT 1 1 1 1 1
WIDTH 1330
HEIGHT 1
VIEWPOINT 0 0 0 1 0 0 0
POINTS 1330
DATA ascii
12.604692 13.673932 0.32461476 1 23
5.9433742 7.8671079 -0.63190055 5 9
5.6592593 5.5671663 -0.46232152 1 10
8.9825277 10.754421 0.81603932 23 27
10.36136 11.240301 0.62282145 15 26
5.3456717 6.4001589 -0.38844183 0 12
5.4066453 5.8652844 -0.41805965 0 11
9.004487 10.780712 1.7246951 26 29
9.9599791 10.804873 1.1996379 27 28
5.9530411 7.8799038 -0.40235081 15 13
5.7537389 5.6601081 -0.28184834 0 14
9.0379114 10.82073 3.7777228 19 31
9.9750671 10.82124 2.6833582 33 30
8.9799318 10.751314 -0.32596314 22 16
5.9845629 7.8643956 -0.1724996 16 17
5.8021827 6.2504487 -0.24820045 0 15
4.1086454 4.8843589 -1.7867455 1 1
5.1075134 5.5021105 -1.501474 0 2
9.0172758 10.71974 0 24 20
11.950875 11.674587 -0.19449922 3 18
4.9766235 5.9162111 -1.2027636 0 3
5.0832877 5.4760127 -0.95105231 34 4
5.9829502 7.8622766 0.05742171 10 21
10.35184 11.151604 -0.088434085 1 19
5.5354576 5.407485 -0.72236133 1 6
9.038003 10.744381 0.32670754 18 24
11.990931 11.713717 0.19515112 2 22
5.1344352 5.5311117 -0.61609185 2 7
5.9902048 7.8718104 0.28787994 10 25
12.603374 13.577086 0.32335821 1 23
5.6843729 5.5529575 -0.46278664 0 10
9.045722 10.753556 0.81836492 26 27
10.435884 11.242141 0.62493825 15 26
5.3679814 6.3814578 -0.38844183 0 12
5.3591471 5.7731848 -0.41282606 0 11
9.0625134 10.773519 1.7285949 24 29
10.030186 10.805099 1.2035434 29 28
5.9901938 7.8717961 -0.40300211 14 13
5.8049183 5.6707163 -0.28338394 0 14
9.0930414 10.809811 3.7849698 12 31
10.039556 10.815192 2.6905329 22 30
9.0302801 10.7352 -0.32642838 10 16
6.0265708 7.8625083 -0.17291845 15 17
4.1181965 4.8611732 -1.7835106 2 1
5.142755 5.5014443 -1.5061809 0 2
11.951354 11.593819 -0.19384733 3 18
4.9691367 5.865634 -1.1959995 0 3
6.0517201 7.895319 0.057816923 18 21
10.52727 11.26151 -0.089596465 1 19
5.5657301 5.3992262 -0.72384846 1 6
11.997289 11.638379 0.19459237 2 22
5.1618743 5.5218968 -0.61706823 2 7
6.0395317 7.8794174 0.28892717 12 25
12.596055 13.474586 0.32196197 1 23
5.7295127 5.5581093 -0.46487963 0 10
9.1193314 10.764579 0.8216207 24 27
10.505076 11.237768 0.62672937 15 26
5.3540602 6.320003 -0.38583609 0 12
5.3628955 5.7369385 -0.41157001 0 11
9.1334171 10.781205 1.7349322 26 29
10.103226 10.80789 1.2077743 29 28
6.0370803 7.8762193 -0.40430474 13 13
5.8332806 5.6587729 -0.28380269 0 14
10.499138 11.231416 2.8031766 22 30
6.0759778 7.8699126 -0.17354673 7 17
4.1326418 4.8438373 -1.7824324 2 1
5.1592412 5.4806027 -1.5053965 0 2
11.965832 11.527055 -0.19342825 3 18
4.9639297 5.8181834 -1.1898504 0 3
5.12955 5.4490619 -0.95256752 62 4
8.298769 10.748984 0.078925796 8 21
10.703606 11.370317 -0.090758853 1 19
4.9663577 5.8210292 -0.82421899 1 5
5.6074905 5.4018688 -0.72682267 1 6
12.071652 14.149091 0.43278745 2 24
11.994636 11.554803 0.19389388 2 22
5.19205 5.5154552 -0.61837006 2 7
8.3100576 10.763605 0.39574763 15 25
12.599156 13.38394 0.32084504 1 23
9.1853647 10.766094 0.82417881 24 27
10.582595 11.24177 0.62900895 15 26
5.3397827 6.258718 -0.38323033 0 12
5.3308682 5.6629205 -0.40759248 0 11
9.1967669 10.77946 1.7398069 28 29
10.173686 10.80739 1.2116798 29 28
8.2944727 10.743419 -0.55296773 23 13
5.8616371 5.6466956 -0.2842215 0 14
10.878556 12.750671 4.4910283 2 31
10.586834 11.246272 2.8160911 27 30
8.3302031 10.712182 -0.23686406 29 17
4.1495261 4.829381 -1.7824324 2 1
5.189136 5.4739447 -1.5085343 0 2
11.953973 11.435444 -0.19259009 3 18
4.9558764 5.7678432 -1.1830865 0 3
5.1540008 5.4368811 -0.9535777 33 4
10.743234 11.332882 -0.090758853 1 19
4.9762807 5.7915902 -0.82250541 1 5
5.6435809 5.3987789 -0.72905332 1 6
12.066243 14.043166 0.43083337 2 24
11.991546 11.471387 0.19319543 2 22
6.0486603 7.0396676 -0.64901423 0 8
5.2140155 5.5001898 -0.6186955 2 7
12.60453 13.296337 0.3197979 1 23
9.2515182 10.76728 0.82673693 22 27
10.663019 11.248265 0.63145143 13 26
5.3537874 6.2309475 -0.38267195 0 12
5.2819014 5.5718017 -0.40235886 0 11
9.2602148 10.777401 1.7446817 28 29
10.241522 10.803634 1.2152599 27 28
8.3491001 10.736483 -0.55410755 23 13
5.9101992 5.653832 -0.28561747 0 14
10.940627 12.73313 4.4982753 2 31
10.661223 11.24637 2.8254182 22 30
13.207717 15.371657 -0.4715904 2 16
8.3983231 10.730052 -0.2378414 30 17
10.730244 11.248198 -0.452416 1 15
5.2252574 5.4774828 -1.5140256 0 2
4.9765568 5.7552361 -1.1837014 0 3
5.1737933 5.4235344 -0.95408273 13 4
8.3994598 10.731504 0.07920476 28 21
4.9762411 5.7548714 -0.8195067 1 5
5.6749463 5.3947439 -0.73091221 1 6
12.1103 14.005194 0.43083337 2 24
6.0472555 6.9934669 -0.64650303 0 8
5.2422752 5.4953218 -0.61999732 1 7
8.4108334 10.746036 0.39714396 21 25
12.593786 13.201693 0.31847152 1 23
9.3061934 10.762329 0.82859737 22 27
10.731406 11.249415 0.63340533 8 26
5.3367462 6.1717844 -0.38006622 0 12
9.3225908 10.781293 1.7500439 24 29
10.308433 10.806025 1.2191654 27 28
8.4123468 10.74797 -0.55606151 6 13
5.9511108 5.6572728 -0.28673428 0 14
10.998265 12.719158 4.5055223 2 31
13.289945 15.369416 -0.47280008 2 16
8.4568033 10.719703 -0.23833007 29 17
10.84263 11.278971 -0.45532504 1 15
4.9960232 5.7331042 -1.1830865 0 3
5.1945815 5.4036274 -0.95408273 5 4
8.4653807 10.730576 0.079437241 31 21
4.982626 5.717731 -0.81693631 2 5
5.7274866 5.4029741 -0.73500174 1 6
12.198144 13.997781 0.43204305 2 24
5.277153 5.489522 -0.62162459 1 7
8.4817533 10.751328 0.39854032 21 25
9.3710632 10.75361 0.83069044 26 27
10.802223 11.236938 0.63503361 6 26
5.3604059 6.1512461 -0.38006622 0 12
5.4397082 5.6586185 -0.41136068 0 11
9.3926134 10.778339 1.7554061 26 29
10.388532 10.806599 1.2237217 27 28
6.0600262 5.7166719 -0.29092222 0 14
11.006411 12.630226 4.4889579 2 31
10.867653 11.305001 2.8591397 5 30
8.5190496 10.721432 -0.23902817 27 17
4.1922479 4.7769785 -1.7791975 2 1
5.2679973 5.4418507 -1.5148101 1 2
11.959224 11.202996 -0.19077408 28 18
4.989933 5.6859236 -1.1769373 0 3
5.2244506 5.3968668 -0.95610303 2 4
8.5326443 10.738542 0.079716213 29 21
4.9920602 5.6883478 -0.8152228 2 5
5.7521243 5.3883958 -0.73574531 1 6
11.96798 11.2112 0.19091378 28 22
5.3101463 5.4853907 -0.62325191 1 7
8.5465889 10.756091 0.3998203 22 25
9.4454165 10.762854 0.83394617 23 27
10.869178 11.22788 0.63666189 3 26
5.381844 6.1324983 -0.38006622 0 12
5.464983 5.6453366 -0.41177934 0 11
9.4616032 10.781298 1.7612559 26 29
10.467782 10.813237 1.2286036 27 28
5.2387528 6.5930986 -0.343081 0 13
11.081009 12.626577 4.5013809 2 31
8.5789099 10.719734 -0.23965645 27 17
10.912729 11.194417 -0.45497593 9 15
4.2088962 4.7623167 -1.7791975 2 1
5.2896972 5.4262385 -1.5155945 2 2
11.98947 11.153012 -0.1906344 35 18
4.9888101 5.6447802 -1.1720181 0 3
5.2515655 5.3871226 -0.9576183 1 4
8.6000671 10.746171 0.079995185 28 21
10.945086 11.22761 -0.091130808 19 19
4.9987164 5.6559892 -0.81308085 2 5
5.8000579 5.395411 -0.73946303 1 6
11.992398 11.155736 0.19068095 39 22
5.3487401 5.4868059 -0.62553012 1 7
8.6090631 10.757412 0.40098393 20 25
10.949188 11.231816 0.27379334 16 23
5.3326373 6.6633706 -0.54696488 0 9
5.9908476 5.5728898 -0.47650743 0 10
9.5146589 10.765725 0.83673686 23 27
10.93341 11.215631 0.63812739 2 26
5.4032164 6.1136761 -0.38006622 0 12
5.4790773 5.6205072 -0.41136068 1 11
9.5280972 10.780931 1.7666181 26 29
10.53329 10.805182 1.2318581 24 28
5.2567391 6.568532 -0.34275532 0 13
6.0471005 5.6252184 -0.28840944 0 14
10.965534 11.248585 2.864162 32 30
8.6413784 10.720859 -0.24035454 27 17
10.962947 11.167666 -0.45544142 2 15
4.2254953 4.7475948 -1.7791975 2 1
5.3195987 5.4189363 -1.5187324 1 2
9.9513149 11.180894 0 24 20
11.987198 11.073095 -0.1899825 30 18
4.9900904 5.6066628 -1.1677136 0 3
5.2814584 5.3800831 -0.95963854 2 4
8.66012 10.74411 0.080204412 28 21
11.006632 11.212168 -0.091316797 13 19
5.010498 5.6295919 -0.81179571 4 5
5.8393359 5.3940482 -0.74206549 1 6
9.9752083 11.207739 0.34913322 23 24
11.993074 11.078523 0.19007562 31 22
5.3734479 5.4737906 -0.62618107 1 7
8.6666384 10.752197 0.40191483 20 25
11.027555 11.233481 0.27477068 11 23
5.3959479 6.6944408 -0.55105817 0 9
5.936934 5.4842033 -0.47069356 0 10
9.5787315 10.762274 0.83906245 22 27
11.003294 11.208768 0.63991851 2 26
5.3767095 6.0410523 -0.37671599 0 12
5.5014629 5.6041965 -0.41157001 1 11
9.5973492 10.783192 1.7724679 26 29
10.60446 10.802485 1.2357637 28 28
5.236999 6.4972425 -0.33998725 0 13
6.1342397 5.6664634 -0.29162019 0 14
11.032304 11.238318 2.8713369 26 30
9.9725504 11.204753 -0.34904015 40 16
8.7115145 10.730995 -0.24126206 29 17
11.024345 11.152081 -0.45637229 1 15
4.2420406 4.7328167 -1.7791975 2 1
5.4763546 5.5398068 -1.5579559 1 2
10.008968 11.166941 0 21 20
11.978614 10.987926 -0.18923746 30 18
4.9832492 5.5597782 -1.1615646 0 3
5.3002048 5.3616161 -0.95963854 2 4
8.7177362 10.738661 0.080390394 26 21
5.0168452 5.597261 -0.80965376 4 5
5.8786726 5.3924785 -0.74466789 1 6
10.027614 11.187742 0.34959847 19 24
11.987457 10.996037 0.18937716 28 22
5.1720648 5.7704387 -0.54186833 0 8
5.4009285 5.4635072 -0.62715739 1 7
8.7293139 10.752922 0.40307847 20 25
6.0855188 5.5822177 -0.48092601 0 10
9.648221 10.764457 0.84185308 24 27
11.073257 11.201559 0.64170963 2 26
5.5518808 5.6162081 -0.41387278 1 11
9.6614265 10.77919 1.7773427 24 29
10.684142 10.807935 1.2406456 26 28
5.2470503 6.4634085 -0.33917311 0 13
6.1775479 5.666635 -0.29273698 0 14
10.034111 11.194992 4.0282598 17 31
10.027614 11.187742 -0.34959847 15 16
8.7673025 10.726821 -0.24182054 27 17
5.7590804 5.787293 -0.23761149 0 15
4.2473907 4.707283 -1.7748842 2 1
5.5749316 5.602242 -1.5807055 1 2
11.982468 10.918507 -0.18872525 30 18
4.9857736 5.5256147 -1.1578752 0 3
5.3319516 5.3580718 -0.96216393 2 4
8.7760839 10.737566 0.080599628 28 21
5.0300517 5.574688 -0.808797 7 5
5.9112434 5.3863659 -0.74652684 1 6
11.994293 10.929282 0.18891151 28 22
5.4330792 5.4596949 -0.62878466 1 7
8.7876987 10.751777 0.40412569 21 25
7.6565623 6.9767122 -0.6032505 1 10
9.7132931 10.765014 0.84441125 23 27
11.146996 11.201602 0.64382643 2 26
5.5761113 5.6034279 -0.41429147 1 11
9.7370167 10.791306 1.7846549 26 29
10.759297 10.812005 1.2452019 26 28
5.2330465 6.4026484 -0.33689347 0 13
6.2199454 5.6676569 -0.29385376 0 14
10.086712 11.178865 4.0344715 9 31
11.283416 11.338692 2.9165375 2 30
5.690002 6.3060951 -0.19764364 3 16
8.8275671 10.723943 -0.24244882 24 17
5.7594352 5.7473869 -0.23679695 0 15
4.258615 4.686727 -1.7727276 2 1
5.5333714 5.5217962 -1.5634472 1 2
11.987882 10.847098 -0.18821305 33 18
4.9890823 5.4906268 -1.1541857 1 3
5.3646655 5.3534431 -0.96468925 2 4
8.8440151 10.743924 0.080878593 28 21
5.0307579 5.5364919 -0.80579823 8 5
5.9565868 5.3897495 -0.74987286 1 6
11.996778 10.855147 0.18835273 31 22
5.4775014 5.466043 -0.63171381 1 7
8.8556681 10.75808 0.40552205 20 25
7.669024 6.9392285 -0.60232031 1 10
9.7884054 10.772419 0.84766698 23 27
11.214317 11.190858 0.6454547 2 26
5.6126013 5.6008601 -0.41554755 1 11
9.8066635 10.792512 1.7905045 25 29
10.830835 10.808178 1.2491075 24 28
5.2375827 6.3627424 -0.33575368 0 13
11.353566 11.329816 2.9244299 2 30
8.8930225 10.726934 -0.24321674 26 17
5.7879806 5.735692 -0.23714603 0 15
4.2697477 4.6661515 -1.770571 2 1
5.655695 5.6046014 -1.5924727 2 2
11.998893 10.781129 -0.18779396 30 18
5.400229 5.3514433 -0.96771973 1 4
8.914649 10.753021 0.081180818 28 21
11.930132 11.822355 -0.097616911 1 19
5.0554218 5.5247674 -0.80665505 10 5
6.0020247 5.3928814 -0.75321877 1 6
12.609689 13.780374 0.43464851 2 24
11.998893 10.781129 0.18779396 28 22
5.5220327 5.4721465 -0.6346429 1 7
8.9212341 10.760964 0.40680203 20 25
11.939879 11.832015 0.29340985 1 23
7.7050791 6.9230933 -0.6032505 1 10
9.8582935 10.77354 0.85045761 22 27
11.290214 11.188218 0.6475715 2 26
5.5080404 6.0194077 -0.38006622 0 12
5.6377907 5.5868587 -0.41596621 1 11
9.8737564 10.790437 1.7958668 23 29
10.91097 10.812401 1.2539893 26 28
5.2521071 6.3351927 -0.33526519 0 13
11.351278 12.405132 4.5055223 2 31
11.457329 11.353824 2.9409318 2 30
5.7662811 6.3016233 -0.19876029 0 16
8.9534855 10.723454 -0.24384503 26 17
5.7965689 5.7042336 -0.2366806 0 15
4.2807903 4.6455522 -1.7684145 2 1
5.5550117 5.4665241 -1.5587404 0 2
12.069284 10.768466 -0.18830617 24 18
5.0326486 5.4614758 -1.1554155 1 3
5.4386749 5.3520408 -0.97125524 2 4
8.9752064 10.749469 0.081390046 26 21
11.957076 11.766608 -0.097500674 1 19
5.074677 5.5070853 -0.80665505 16 5
6.0416169 5.3904557 -0.75582117 1 6
12.611651 13.686278 0.43306664 2 24
12.072269 10.771129 0.18835273 23 22
5.5609932 5.4724107 -0.63692117 1 7
8.9818096 10.757378 0.40784928 23 25
6.2214994 5.550951 -0.48557714 0 10
9.922904 10.768425 0.8527832 22 27
11.369083 11.187982 0.64985108 2 26
5.6771898 5.5867558 -0.41743162 0 11
9.9355774 10.782178 1.800254 21 29
10.991274 10.81619 1.2588712 26 28
5.2536993 6.2922764 -0.33396256 0 13
11.394514 12.365429 4.5055223 2 31
11.541773 11.35792 2.9524114 2 30
9.0173054 10.727377 -0.24461293 22 17
5.8440456 5.7129283 -0.23784421 0 15
4.3014121 4.6369777 -1.770571 2 1
5.5338426 5.4096851 -1.5477577 1 2
12.14983 10.768174 -0.18900463 22 18
5.0641732 5.4592443 -1.1584901 1 3
5.4620695 5.3395224 -0.97226536 1 4
9.0211 10.731892 0.081483036 10 21
11.955988 11.687743 -0.097175211 1 19
5.087503 5.4843936 -0.80579823 32 5
12.621615 13.606264 0.43185696 2 24
12.155818 10.773481 0.18909778 21 22
5.1831656 5.5875192 -0.53293943 0 8
5.5990667 5.4734464 -0.63919938 1 7
11.954369 11.686161 0.29180425 2 23
6.2578053 5.5461798 -0.48697248 0 10
9.9965811 10.776443 0.85603905 23 27
11.457568 11.200506 0.65278202 2 26
5.4130197 5.8353052 -0.37075999 0 12
5.7242508 5.5958214 -0.41952509 0 11
10.011782 10.79283 1.8075663 21 29
11.064144 10.815909 1.2631022 24 28
5.2462487 6.2411647 -0.33217147 0 13
11.403927 12.29358 4.4930987 2 31
11.76791 11.503885 3.0004823 3 30
5.8754234 5.7036381 -0.23830965 0 15
4.3175693 4.6219378 -1.770571 2 1
5.5358033 5.3739476 -1.543051 1 2
12.223367 10.757415 -0.18956341 11 18
5.0858936 5.4444256 -1.1591049 1 3
5.4892125 5.3287187 -0.97378057 1 4
11.959396 11.609727 -0.096872985 1 19
5.0794644 5.4375429 -0.80151439 49 5
12.608971 13.497844 0.42980981 2 24
12.244385 10.775912 0.18988936 23 22
5.1862917 5.5519009 -0.53126532 1 8
5.6438804 5.4788647 -0.64212847 1 7
11.954906 11.605369 0.29082692 2 23
10.064116 10.773589 0.8585971 22 27
11.539603 11.202209 0.65522444 2 26
5.3842554 5.7638202 -0.36740977 0 12
5.7638083 5.5952859 -0.4209905 0 11
10.0792 10.789736 1.8129284 25 29
11.141872 10.816107 1.2676586 26 28
5.2679992 6.2228179 -0.33217147 0 13
11.401926 12.205709 4.4754992 2 31
11.839046 11.492896 3.0083747 3 30
5.8991718 5.684835 -0.23842601 0 15
4.3292041 4.6004686 -1.7684145 2 1
5.5385203 5.3372874 -1.5383441 1 2
12.319954 10.762532 -0.19044814 13 18
5.5258536 5.3250809 -0.97681105 1 4
11.961553 11.526949 -0.096547522 1 19
5.1102657 5.4304714 -0.80322796 68 5
6.1277289 5.3530951 -0.75953895 1 6
12.622741 13.413671 0.42860013 2 24
12.344051 10.783584 0.19082063 23 22
5.2230167 5.5502868 -0.53293943 1 8
5.686893 5.4802694 -0.64473212 1 7
12.028428 14.103399 0.53945488 1 25
11.965692 11.530938 0.290059 2 23
6.038116 7.0797253 -0.59634012 0 9
10.136382 10.771521 0.86138779 20 27
11.606494 11.184791 0.65668988 2 26
5.3177242 5.650929 -0.36145377 0 12
10.156777 10.793194 1.8197533 23 29
11.224509 10.816686 1.2725405 26 28
5.2674336 6.1760955 -0.330706 0 13
10.999108 11.688305 4.3005376 1 31
11.886765 11.45488 3.0098095 3 30
5.9382076 5.684597 -0.23924054 0 15
4.3338389 4.5749021 -1.7641011 2 1
5.5448546 5.3080435 -1.5352063 1 2
12.391825 10.753077 -0.1910069 9 18
5.0965996 5.3800902 -1.1529559 15 3
5.5520797 5.3149595 -0.9783262 1 4
6.1725178 5.3562379 -0.76288497 1 6
12.617646 13.319485 0.42692515 2 24
12.412971 10.771426 0.19133286 21 22
5.2496247 5.5416274 -0.53377652 1 8
5.7251935 5.48068 -0.64701033 1 7
12.0595 14.045235 0.53875667 1 25
6.009551 6.9990926 -0.59122354 0 9
10.202252 10.769738 0.8639459 20 27
11.692597 11.193227 0.65945798 2 26
10.219815 10.788278 1.824628 21 29
11.306393 10.823516 1.2777478 24 28
5.2774701 6.1464663 -0.33005467 0 13
11.037806 11.651768 4.3005376 1 31
5.9821877 5.6848297 -0.24017146 0 15
4.3479171 4.5562015 -1.7630229 2 1
5.5500546 5.2741766 -1.531284 2 2
12.482669 10.751965 -0.19179849 7 18
5.1326551 5.3785319 -1.1566453 15 3
5.594532 5.3164434 -0.9823668 0 4
6.2162476 5.3543739 -0.76585919 1 6
12.624967 13.229758 0.42552939 2 24
12.512974 10.778068 0.19226414 24 22
5.2754087 5.5281243 -0.5343346 1 8
5.7481308 5.4624071 -0.64733577 1 7
12.137052 14.031184 0.53992033 1 25
5.9933777 6.9287162 -0.58713025 0 9
10.280251 10.772719 0.86720169 20 27
11.782794 11.197104 0.66222614 4 26
10.297658 10.790961 1.8314526 23 29
11.377773 10.812216 1.2813278 24 28
5.2502818 6.0696511 -0.32696092 0 13
11.077768 11.608442 4.2995024 1 31
10.888447 11.410051 -0.36699933 1 16
6.0039158 5.6677036 -0.24028781 0 15
4.3656721 4.5445347 -1.7641011 2 1
5.5789237 5.2665105 -1.5344218 1 2
10.862678 11.307724 0 1 20
12.582082 10.765115 -0.19277635 9 18
5.1559405 5.3671808 -1.1578752 6 3
5.6092472 5.295136 -0.98186177 0 4
11.925453 11.257642 -0.095315397 21 19
5.1989751 5.4119782 -0.80836856 2 5
6.2793641 5.3725672 -0.7714358 0 6
12.624446 13.141673 0.42404053 1 24
12.603355 10.783317 0.1931023 22 22
5.3075352 5.5249863 -0.53572971 1 8
5.7807097 5.4569969 -0.64896309 1 7
12.217652 14.030052 0.54143304 1 25
11.926746 11.258862 0.28628927 18 23
5.0621004 5.8130264 -0.49400809 0 9
6.5963826 5.6438055 -0.50557697 0 10
10.357416 10.781762 0.87069005 22 27
11.857644 11.19363 0.66434294 4 26
10.374644 10.799696 1.8387648 25 29
11.459953 10.818209 1.2865351 24 28
5.2966294 6.082346 -0.3285892 0 13
11.113528 11.568852 4.2984672 1 31
11.932548 11.264339 2.9918725 39 30
6.0557499 5.6767926 -0.24156781 1 15
4.3761516 4.5237322 -1.7619447 2 1
5.6201653 5.2684665 -1.5406976 1 2
12.665301 10.759976 -0.19347481 13 18
5.1883836 5.3633556 -1.1609497 5 3
5.6740146 5.3189454 -0.98994291 0 4
11.950085 11.202271 -0.095199153 24 19
5.2233634 5.3995152 -0.80922532 2 5
6.3345013 5.3815603 -0.77589715 1 6
12.689687 10.780693 0.19384733 22 22
5.3434339 5.5236344 -0.53740388 1 8
5.8229914 5.4585996 -0.65156674 1 7
11.951385 11.203489 0.28594023 20 23
5.2139587 5.9453821 -0.50679958 0 9
10.42275 10.774246 0.87301558 22 27
5.5201459 5.706306 -0.36982939 0 12
10.445402 10.797661 1.8446145 27 29
11.547091 10.824496 1.292068 24 28
5.3178272 6.0638213 -0.3285892 0 13
11.95744 11.209167 2.9882851 39 30
6.0999331 5.6763477 -0.2424987 1 15
4.3900156 4.5049028 -1.7608664 3 1
5.6681528 5.2745509 -1.5485423 1 2
12.768868 10.767628 -0.19445266 16 18
5.2135243 5.3499632 -1.1621795 4 3
5.7109017 5.3143311 -0.99297333 0 4
11.979352 11.147493 -0.095106162 24 19
5.2597742 5.3974228 -0.81179571 2 5
6.3724532 5.3737102 -0.77812785 1 6
10.915237 11.200891 0.36392859 17 24
12.784159 10.780521 0.19468549 22 22
5.3803535 5.5211582 -0.539078 1 8
5.8633904 5.4562306 -0.65384495 1 7
11.971874 11.140535 0.28545156 21 23
10.50119 10.776008 0.87627137 24 27
11.97255 11.141165 0.66629678 15 26
5.5326591 5.6774492 -0.36927101 1 12
10.518161 10.793423 1.8504643 22 29
11.62755 10.820122 1.2966243 22 28
5.2474012 5.9394574 -0.32289016 0 13
11.969639 11.138455 2.9811106 34 30
10.9264 11.212345 -0.36430079 22 16
9.9584808 11.192879 -0.26150686 26 17
6.1373281 5.6713023 -0.24319687 1 15
4.3895249 4.4730563 -1.7543966 2 1
5.7153358 5.2813535 -1.5563869 1 2
10.976843 11.185729 0 19 20
5.2404718 5.3401961 -1.1640242 3 3
5.7585583 5.3212938 -0.99802405 0 4
9.965148 11.200372 0.087132215 24 21
11.968248 11.059464 -0.094710954 21 19
5.2869377 5.3875465 -0.81308085 2 5
6.4278131 5.3821158 -0.78258908 1 6
10.987877 11.196973 0.36504519 17 24
12.870775 10.776917 0.1954305 22 22
5.4107714 5.5137367 -0.54019415 1 8
5.902895 5.4546704 -0.65612316 1 7
9.9743872 11.210756 0.43670711 19 25
11.966628 11.057965 0.28440443 20 23
5.1236997 5.7588048 -0.49400809 0 9
10.580693 10.782041 0.87975973 24 27
11.967336 11.058619 0.66385436 20 26
5.5300531 5.6352882 -0.367782 1 12
6.0581684 5.5981531 -0.43229502 0 11
10.59192 10.793481 1.8568015 22 29
11.715022 10.825465 1.3021572 26 28
5.3610826 6.0256124 -0.3285892 0 13
11.014155 11.223752 4.2135744 15 31
11.970872 11.061888 2.9717834 34 30
10.993479 11.202682 -0.36523131 16 16
10.016177 11.178897 -0.26199552 22 17
6.1777105 5.6687665 -0.2440114 1 15
4.4132361 4.4659252 -1.7576314 2 1
5.7452979 5.2719774 -1.5595248 0 2
11.060811 11.192864 0 6 20
12.9483 10.765161 -0.19603585 16 18
5.2618604 5.3246808 -1.1646391 3 3
5.7917175 5.3145733 -1.0005494 0 4
10.02554 11.189348 0.087318197 16 21
11.971416 10.985164 -0.094431981 21 19
5.3196907 5.3832016 -0.8152228 2 5
6.4710627 5.3800139 -0.78556335 1 6
11.074682 11.206902 0.3666271 4 24
12.954452 10.770275 0.19612899 19 22
5.4496198 5.5146818 -0.54214734 1 8
5.9395256 5.4502039 -0.65807593 1 7
10.034807 11.199691 0.43763798 9 25
11.972741 10.98638 0.28363651 20 23
5.2263503 5.8330469 -0.50193882 0 9
10.660371 10.787643 0.88324803 22 27
11.96464 10.978946 0.66157478 23 26
5.5637345 5.6301594 -0.36871263 1 12
6.0865035 5.5850735 -0.43292308 0 11
10.668604 10.795975 1.8636261 24 29
11.799741 10.827631 1.3073645 26 28
5.3820853 6.0068607 -0.3285892 0 13
11.09129 11.223708 4.2280679 14 31
11.965924 10.980124 2.9610212 37 30
6.2279868 5.6789651 -0.24529138 1 15
4.4218106 4.4465761 -1.7554748 2 1
5.7850175 5.2750454 -1.5658005 0 2
5.2924957 5.3221374 -1.1677136 2 3
5.8259768 5.3123941 -1.0035799 0 4
11.970399 10.915161 -0.094153009 21 19
5.3505964 5.3805633 -0.81736475 1 5
6.5155659 5.3824878 -0.78890938 1 6
5.4950528 5.5258288 -0.54493755 0 8
5.9831314 5.4556947 -0.66100502 1 7
11.962868 10.908294 0.28258938 18 23
5.244648 5.8166003 -0.50193882 0 9
6.769877 5.5925732 -0.51139086 0 10
10.722363 10.782416 0.88557363 22 27
11.966585 10.911684 0.65978366 19 26
5.5926633 5.6239862 -0.36945713 1 12
7.6064105 6.9358754 -0.53947908 1 11
10.741658 10.801819 1.8704509 22 29
11.874938 10.828115 1.3119209 22 28
5.2671094 5.8415117 -0.32044774 0 13
6.8234453 5.636826 -0.30906993 0 14
11.172809 11.235385 4.2456679 12 31
11.968372 10.913313 2.9531288 34 30
6.2675343 5.6711073 -0.24598956 1 15
4.4361248 4.426846 -1.7543966 2 1
5.8924813 5.3317447 -1.5893346 1 2
13.944962 11.430092 -0.20991203 2 18
5.3268795 5.3157377 -1.1707882 2 3
5.8698692 5.3112845 -1.0076205 0 4
11.97366 10.834231 -0.093850791 21 19
5.3796611 5.3684082 -0.81864995 2 5
6.508462 5.3347092 -0.78556335 0 6
12.652875 12.626409 0.41594496 1 24
13.944962 11.430092 0.20991203 3 22
5.5303512 5.5187836 -0.54633272 0 8
6.0276837 5.4540811 -0.66360867 1 7
12.559593 13.822194 0.54352754 1 25
11.97204 10.832765 0.28182146 17 23
5.2374125 5.7639236 -0.49912468 0 9
6.849978 5.6146355 -0.51580948 0 10
10.797603 10.775018 0.88836432 22 27
11.969865 10.830796 0.65766686 17 26
5.6255288 5.6137619 -0.37020162 1 12
10.819587 10.796956 1.876788 22 29
11.966681 10.827916 1.3174537 24 28
5.2894988 5.8212457 -0.32044774 0 13
6.7924786 5.5675058 -0.30669677 0 14
11.259624 11.236072 4.2622323 14 31
12.051037 10.904243 2.9631736 31 30
10.387907 11.360282 -0.26869726 2 17
6.3061304 5.6701035 -0.24680409 1 15
4.4418044 4.4047513 -1.7511616 2 1
5.357585 5.3128929 -1.1738628 2 3
5.91013 5.3140435 -1.0116611 0 4
12.004663 10.793891 -0.093827546 19 19
5.4106183 5.3654838 -0.82079184 2 5
4.9440732 4.026547 -0.59521383 0 6
16.454788 16.317524 0.53923959 3 24
5.5703273 5.5238609 -0.54856491 0 8
6.0685039 5.4564438 -0.66621238 0 7
12.578671 13.756114 0.54248029 1 25
12.011958 10.80045 0.28196108 16 23
5.2016187 5.6885233 -0.49400809 0 9
6.8861599 5.6082191 -0.51720482 0 10
10.876766 10.786034 0.89208519 22 27
12.006801 10.795814 0.6578297 15 26
5.6488104 5.6016893 -0.37057388 1 12
6.219954 5.5926189 -0.43836603 0 11
10.892918 10.802051 1.8836126 22 29
12.059929 10.843583 1.3239628 24 28
5.3940649 5.898984 -0.32565826 0 13
6.9463201 5.6572146 -0.31283909 0 14
11.333273 11.238733 4.2767258 11 31
12.137904 10.913693 2.9760883 31 30
10.397701 11.291588 -0.26792935 2 17
6.343781 5.6640325 -0.24750227 1 15
4.4544086 4.3865156 -1.7500832 2 1
5.9072323 5.274261 -1.5838434 15 2
11.927518 11.745722 0 1 20
14.079556 11.385139 -0.21079676 38 18
5.3958125 5.3135705 -1.1781672 2 3
5.9582434 5.3198056 -1.0167117 0 4
12.087026 10.791877 -0.094176255 16 19
5.4378166 5.3549347 -0.82207704 1 5
11.955632 11.773407 0.39044854 1 24
14.073335 11.380107 0.21070361 34 22
5.5895767 5.5043817 -0.54856491 0 8
6.1053586 5.4511571 -0.66816515 0 7
12.588697 13.670943 0.54085124 1 25
12.094338 10.798407 0.28300825 13 23
5.2214451 5.670331 -0.49400809 0 9
6.9056954 5.584146 -0.51720482 0 10
10.95134 10.784422 0.89510846 22 27
12.098079 10.801746 0.66076064 15 26
5.6854129 5.5987568 -0.37169063 1 12
6.2483788 5.5788527 -0.43899405 0 11
10.967335 10.800173 1.8899499 22 29
12.142317 10.841244 1.3288447 20 28
5.4633565 5.9330392 -0.3285892 0 13
6.732893 5.4444127 -0.30236924 0 14
11.394462 11.22079 4.2850084 11 31
12.219959 10.910566 2.9868503 30 30
6.3944187 5.6672645 -0.24866588 1 15
4.4704552 4.3701611 -1.7500832 1 1
11.953323 11.685153 0 1 20
14.06504 11.288398 -0.2099586 29 18
5.4152503 5.2937603 -1.1781672 2 3
5.9955177 5.313725 -1.0197423 0 4
12.162416 10.779343 -0.094455227 12 19
5.468781 5.3460898 -0.82379055 2 5
11.972965 11.704353 0.3896111 1 24
14.077517 11.298411 0.21014483 31 22
5.6410995 5.5145426 -0.55163419 0 8
6.1461806 5.4472551 -0.67044336 1 7
12.573455 13.554362 0.53805852 1 25
12.187708 10.801758 0.28426477 15 23
5.2421913 5.6511564 -0.49400809 0 9
6.9043145 5.5413032 -0.51557684 0 10
11.030768 10.783295 0.89836419 21 27
12.191424 10.805052 0.66369158 15 26
5.7287517 5.6002278 -0.37317961 1 12
11.04659 10.798761 1.8967746 21 29
12.220754 10.831045 1.3330756 20 28
5.3491602 5.7664704 -0.32044774 0 13
11.460375 11.203262 4.2943258 13 31
12.318762 10.917908 3.0011997 33 30
6.4321733 5.6607561 -0.24936406 1 15
4.4829206 4.3518457 -1.7490051 1 1
11.942382 11.593202 0 1 20
14.082464 11.22178 -0.20963265 29 18
5.4563856 5.2968478 -1.1830865 1 3
6.0557332 5.329463 -1.0268131 0 4
12.245014 10.776458 -0.094803944 9 19
5.5073857 5.3463569 -0.82678926 1 5
4.8464994 3.8619912 -0.57848394 0 6
11.982189 11.631845 0.3885875 1 24
14.08872 11.226765 0.20972577 31 22
5.6774945 5.5114918 -0.55330831 0 8
6.1891012 5.446836 -0.67304695 1 7
12.574297 13.460716 0.53608036 1 25
12.273378 10.80142 0.28538176 15 23
5.2346377 5.603651 -0.49144977 0 9
5.0498371 4.0240231 -0.37604323 0 10
11.111324 10.786443 0.90185255 22 27
12.277074 10.804672 0.66629678 13 26
5.7740698 5.6052432 -0.37485474 1 12
11.126951 10.801613 1.9040867 21 29
12.318346 10.840995 1.3395848 22 28
5.5056725 5.8937922 -0.3285892 0 13
11.510505 11.173952 4.2984672 9 31
12.409974 10.921634 3.0141144 30 30
10.787875 11.463847 -0.27477068 2 17
6.4920211 5.6713414 -0.25087678 1 15
4.4932923 4.3300409 -1.7468485 2 1
4.7410359 4.1417046 -1.259073 0 2
11.961747 11.52715 0 3 20
14.082715 11.137837 -0.20902731 28 18
5.4899917 5.2905273 -1.186161 0 3
6.0752244 5.3072338 -1.0268131 0 4
12.34166 10.781507 -0.095245644 7 19
5.5383978 5.3371749 -0.82850283 1 5
4.9293447 3.898555 -0.58666301 0 6
11.990184 11.554553 0.38747087 1 24
14.092126 11.145281 0.20916699 34 22
6.2330418 5.4451008 -0.67565066 1 7
12.596145 13.385423 0.53491676 1 25
12.367099 10.80373 0.28663835 12 23
5.0175705 3.9683316 -0.37255487 0 10
11.191035 10.784439 0.90510833 21 27
12.361739 10.799047 0.66873932 15 26
5.8319769 5.6200876 -0.37727436 0 12
11.212204 10.804839 1.9118865 23 29
12.406034 10.837742 1.344792 20 28
5.3519421 5.6872969 -0.31816813 0 13
11.556942 11.137052 4.3005376 7 31
12.488444 10.909736 3.0234416 31 30
5.9259844 5.71068 -0.19150217 0 16
10.790841 11.395051 -0.27393299 2 17
6.5188661 5.6587796 -0.25122586 1 15
4.498528 4.30791 -1.7436135 1 1
4.7066331 4.0856495 -1.2465216 0 2
11.989237 11.481212 0 3 20
14.083044 11.066353 -0.20851509 28 18
5.5351324 5.3005896 -1.1923101 0 3
6.1158414 5.308929 -1.0308539 0 4
12.414743 10.776766 -0.09554787 7 19
5.5695004 5.3335018 -0.83064479 1 5
4.9290433 3.8732061 -0.58517593 0 6
11.977329 11.469809 0.38588899 1 24
14.092479 11.073767 0.20865479 31 22
6.2742038 5.4463978 -0.67825431 1 7
12.591402 13.29643 0.5329386 1 25
12.446284 10.804146 0.28768548 15 23
5.2836385 5.5794845 -0.4924731 1 9
11.262357 10.785131 0.9081316 19 27
12.455971 10.812554 0.67199588 16 26
11.28624 10.808002 1.9187111 21 29
12.494215 10.845753 1.3506503 20 28
6.9654145 5.473372 -0.30934915 0 14
11.591876 11.100688 4.3005376 7 31
12.579123 10.919457 3.0370736 31 30
6.068089 5.8109632 -0.19550343 0 16
10.847109 11.374681 -0.27435184 2 17
6.580977 5.6725373 -0.25285491 0 15
4.5163288 4.294836 -1.7446917 1 1
4.7119527 4.0615134 -1.2441682 0 2
14.080587 10.985144 -0.20790975 28 18
5.616612 5.3411584 -1.2058381 1 3
6.1403456 5.2927308 -1.0318639 0 4
12.512877 10.785597 -0.096012823 7 19
5.5996108 5.3249912 -0.8323583 1 5
4.9739332 3.8804755 -0.58889365 0 6
14.086894 10.990065 0.20800288 31 22
6.3112946 5.4400816 -0.68020707 0 7
12.582548 13.194528 0.5306114 1 25
12.544506 10.81286 0.28908166 13 23
5.3085904 5.5667853 -0.49298474 1 9
11.340446 10.78428 0.91138732 19 27
12.539044 10.808152 0.6744383 13 26
11.361297 10.804109 1.9250482 21 29
12.580314 10.843723 1.3558577 20 28
5.4281588 5.6921687 -0.32044774 0 13
11.630552 11.060159 4.3005376 5 31
12.676771 10.926867 3.0514231 31 30
6.0883355 5.7897472 -0.19550343 0 16
6.6219997 5.6677318 -0.25366947 0 15
4.525691 4.2737565 -1.7425351 2 1
4.6873617 4.0118861 -1.23397 0 2
14.084062 10.908989 -0.20739754 28 18
5.6438413 5.3296623 -1.2076828 1 3
6.2190747 5.3228703 -1.0419655 0 4
12.602109 10.786073 -0.096408032 7 19
5.6528606 5.3381796 -0.83749896 1 5
5.0441232 3.9069898 -0.59558564 0 6
14.090387 10.913889 0.20749068 31 22
6.3544745 5.4387584 -0.68281066 1 7
12.630786 10.810617 0.29019859 12 23
5.3362832 5.5568595 -0.49375224 1 9
4.9690876 3.84887 -0.3660433 0 10
11.430277 10.793981 0.91557342 19 27
12.628314 10.808501 0.6772064 13 26
6.6673145 5.7065163 -0.45992842 0 11
11.448009 10.810726 1.9333354 23 29
12.663517 10.838632 1.3607396 20 28
7.2088804 5.5837297 -0.318423 0 14
11.671895 11.022149 4.3015728 5 31
12.756689 10.918377 3.0614676 32 30
6.1026931 5.7629704 -0.19531734 0 16
6.6671076 5.6641302 -0.25460038 0 15
4.5413256 4.2571387 -1.7425351 1 1
4.7259493 4.0149932 -1.2402458 0 2
11.932775 11.186047 0 24 20
14.092242 10.832914 -0.2069319 28 18
5.6604552 5.3062353 -1.207068 1 3
4.8747125 4.141377 -0.81417757 0 4
12.693382 10.783833 -0.09680324 7 19
5.6927004 5.3364625 -0.84049773 1 5
5.0584102 3.8884745 -0.59558564 0 6
11.95872 11.210368 0.38142243 21 24
14.101756 10.840227 0.20707159 31 22
6.3956361 5.4334979 -0.68508887 1 7
12.719095 10.805677 0.29131559 13 23
5.3677182 5.548739 -0.49477559 1 9
4.9926596 3.8379309 -0.36674097 0 10
11.513465 10.792975 0.91906172 18 27
12.725718 10.811303 0.68030012 15 26
11.536799 10.81485 1.9416226 21 29
12.760889 10.841184 1.3669233 22 28
5.4687524 5.6531801 -0.32044774 0 13
7.3529034 5.6522851 -0.32386735 0 14
11.712218 10.979291 4.3015728 7 31
12.850606 10.917404 3.0743823 32 30
6.1383624 5.7542362 -0.19578259 0 16
10.923778 11.217486 -0.2733047 26 17
6.7041893 5.6574607 -0.25529853 0 15
4.5554194 4.2420545 -1.7425351 1 1
4.7212529 3.9841211 -1.235539 0 2
11.961024 11.138232 0 28 20
14.137628 10.793401 -0.20707159 20 18
5.6780219 5.2874341 -1.207068 1 3
10.919676 11.213275 0.09096808 24 21
12.799386 10.80101 -0.097337939 9 19
5.7220087 5.3283949 -0.84221125 1 5
5.1060991 3.8982618 -0.59967518 0 6
11.984127 11.159746 0.38105026 27 24
14.140808 10.795829 0.20711817 21 22
6.4379959 5.4328279 -0.68769258 0 7
10.931976 11.225905 0.45602322 18 25
12.819049 10.817603 0.29278156 13 23
5.4027996 5.5480657 -0.49631053 1 9
5.0117083 3.8261988 -0.3672061 0 10
11.587186 10.790111 0.92208493 18 27
12.813428 10.81286 0.68306822 12 26
11.610374 10.811704 1.9479598 22 29
12.851616 10.845086 1.3727815 22 28
5.5766973 5.7266388 -0.32565826 0 13
7.4160919 5.6618304 -0.3258217 0 14
11.751392 10.943021 4.302608 9 31
12.949898 10.928022 3.0894494 29 30
6.1457062 5.7229466 -0.19541039 0 16
10.976866 11.193567 -0.27365372 22 17
6.757607 5.6622729 -0.25657853 0 15
4.5588856 4.2156682 -1.738222 1 1
4.7441497 3.9751749 -1.2378924 0 2
11.982208 11.080124 0 26 20
14.23578 10.789894 -0.20795631 18 18
5.7196579 5.2890515 -1.2119873 1 3
4.8997469 4.1055517 -0.81367248 13 4
10.983954 11.200796 0.091177307 18 21
12.882996 10.794803 -0.097686648 14 19
5.7522516 5.3191915 -0.84392482 1 5
5.1260228 3.8852277 -0.60041875 0 6
11.987774 11.08527 0.37993363 24 24
14.23578 10.789894 0.20795631 18 22
6.4844213 5.4333673 -0.69062173 0 7
10.990688 11.207663 0.45683774 7 25
12.90271 10.811322 0.29382873 13 23
5.4444914 5.5519748 -0.49835718 1 9
5.0218501 3.8062706 -0.36697352 0 10
11.674619 10.795691 0.92603838 18 27
12.900105 10.809139 0.68567348 15 26
6.0990262 5.6398587 -0.38695282 0 12
11.694679 10.814241 1.9557593 22 29
12.938284 10.84113 1.3779888 22 28
5.6470218 5.7585034 -0.3285892 0 13
7.4772243 5.6673021 -0.32763648 0 14
11.792353 10.904562 4.3036432 9 31
13.039239 10.925721 3.1016464 33 30
6.1979399 5.7313261 -0.19643396 0 16
6.8121309 5.6655889 -0.25785848 0 15
4.5799828 4.2041388 -1.7403786 1 1
4.7375789 3.9402025 -1.2324011 0 2
11.975593 10.992848 0 26 20
14.351949 10.795344 -0.20907387 18 18
5.7652116 5.2921057 -1.2175214 1 3
12.971683 10.788434 -0.098058619 4 19
5.8039384 5.3276539 -0.84863704 1 5
5.0765729 3.8185306 -0.59298319 0 6
11.981191 10.997988 0.37844479 22 24
14.345555 10.790536 0.20898074 18 22
6.0026064 5.5100188 -0.56977087 0 8
6.5410752 5.4401546 -0.69452721 1 7
5.4788318 5.5461798 -0.49963632 0 9
5.0230031 3.7782362 -0.3660433 0 10
11.758238 10.79333 0.92952675 19 27
12.979586 10.795007 0.68779027 6 26
6.3051028 5.7876916 -0.39867869 0 12
6.8363857 5.6857619 -0.46599939 0 11
11.781037 10.814259 1.9635592 22 29
13.039238 10.844619 1.384498 22 28
5.5276527 5.5956011 -0.32044774 0 13
14.420851 10.847172 -0.63014537 2 14
11.855014 10.882165 4.3119254 16 31
13.142733 10.930695 3.1167135 30 30
6.2454205 5.7329068 -0.19727144 0 16
6.8483877 5.6594429 -0.25855666 0 15
4.5817838 4.179347 -1.7360654 1 1
4.7166748 3.8978152 -1.2237719 0 2
11.980516 10.928218 0 26 20
14.44987 10.798091 -0.21000515 19 18
5.8110094 5.3006043 -1.2236705 1 3
13.88426 11.473822 -0.1046842 1 19
5.8382759 5.3254757 -0.85120744 1 5
11.986137 10.933345 0.37751424 24 24
14.44987 10.798091 0.21000515 18 22
6.0198865 5.4911351 -0.56977087 0 8
6.5827179 5.4398961 -0.69713086 0 7
16.247728 16.344435 0.6707114 2 25
13.885463 11.474815 0.31442255 1 23
5.5187416 5.551589 -0.501683 0 9
5.1052203 3.8150263 -0.37115952 0 10
11.833389 10.794014 0.93278253 17 27
13.869905 11.461958 0.73305678 19 26
6.8542137 5.664257 -0.46599939 0 11
11.853084 10.811978 1.9698963 20 29
13.131632 10.851856 1.3906817 22 28
5.0723286 3.790447 -0.22112322 0 14
11.960505 10.909966 4.3378072 20 31
13.225539 10.929461 3.1281929 30 30
6.292943 5.7402077 -0.19820195 0 16
6.9092717 5.6672692 -0.26006937 0 15
4.5942149 4.1599412 -1.7349871 1 1
4.7097001 3.8630903 -1.2182807 0 2
11.967114 10.835909 0 26 20
14.563239 10.799856 -0.21107613 17 18
5.8626251 5.3084536 -1.2304345 1 3
5.8754425 5.3200593 -0.85377777 1 5
11.984627 10.851766 0.37621152 24 24
14.556813 10.795091 0.21098299 18 22
6.6211052 5.4309034 -0.69908357 0 7
16.34996 16.327158 0.6724568 2 25
5.5503497 5.5426087 -0.50270635 0 9
5.2089772 3.8628912 -0.37767109 0 10
11.929111 10.801497 0.93720108 19 27
13.955081 11.446533 0.73533642 14 26
6.8316889 5.6036329 -0.4630686 0 11
11.942659 10.813765 1.9781833 20 29
13.229882 10.851695 1.3968654 20 28
12.009002 10.873837 4.3409133 15 31
13.326358 10.930828 3.1425424 31 30
6.3198676 5.7224746 -0.19838807 0 16
6.9373283 5.6519012 -0.26041847 0 15
4.6108494 4.1472583 -1.7360654 1 1
4.7224855 3.84745 -1.2182807 0 2
11.979194 10.774763 0 26 20
5.9066448 5.3127704 -1.2359686 1 3
11.938142 11.84268 0.09773314 2 21
5.9137511 5.3191619 -0.85677642 0 5
11.990816 10.785217 0.37528098 22 24
4.9082212 3.9987705 -0.51682717 0 7
11.936131 11.840685 0.48930281 1 25
5.5942063 5.5494728 -0.50500876 0 9
12.006433 10.799264 0.94045687 19 27
14.045641 11.443106 0.73810446 22 26
6.2207694 5.5953116 -0.3897447 0 12
6.8812032 5.6061759 -0.46516204 0 11
12.031588 10.82189 1.9869579 23 29
13.318339 10.850567 1.4023981 20 28
12.096704 10.88046 4.3595481 15 31
13.420502 10.933799 3.1561744 31 30
6.3715153 5.7309012 -0.19941165 0 16
11.934248 11.752351 -0.29236272 2 17
6.9890857 5.6515789 -0.26158208 0 15
4.6145244 4.1200705 -1.7317522 1 1
4.7335048 3.8276503 -1.2174962 0 2
12.045456 10.754764 0 19 20
15.345493 11.214767 -0.22127372 2 18
5.9437666 5.3068814 -1.2396581 0 3
11.950116 11.767977 0.097477429 2 21
14.055388 11.365598 -0.10505616 24 19
5.9510059 5.3133454 -0.85934675 1 5
12.066059 10.773159 0.37639761 18 24
15.345493 11.214767 0.22127372 3 22
4.9445434 3.9983025 -0.51910537 0 7
14.047266 11.35903 0.31533009 21 23
5.6315727 5.5457382 -0.50654376 0 9
12.090611 10.795081 0.94394517 17 27
14.062622 11.371447 0.7368018 24 26
6.8675375 5.5532913 -0.46285927 0 11
12.115592 10.817386 1.9942701 21 29
13.42932 10.859341 1.4098837 20 28
12.191259 10.884945 4.3792181 13 31
13.521682 10.934027 3.1705239 32 30
6.4252882 5.7368073 -0.20043522 0 16
11.904538 11.645591 -0.29068726 2 17
7.0576644 5.6684322 -0.26344389 0 15
4.6339245 4.1098576 -1.7339088 1 1
4.718648 3.7898283 -1.210436 0 2
12.122947 10.751921 0 21 20
15.460284 11.220201 -0.22239126 2 18
5.990901 5.3133693 -1.2458072 0 3
11.94618 11.686328 0.097128704 2 21
14.058696 11.291379 -0.10480044 21 19
5.9983454 5.3199716 -0.86363065 1 5
12.149584 10.775545 0.37788647 19 24
15.489419 11.241346 0.22281034 3 22
11.941326 11.68158 0.48616099 2 25
14.047436 11.282335 0.31449237 19 23
12.180116 10.802624 0.9481312 19 27
14.059743 11.29222 0.73468506 24 26
6.8890281 5.53299 -0.4630686 0 11
12.195951 10.816669 2.0015824 21 29
13.518094 10.857189 1.4154164 20 28
12.276427 10.888043 4.3968182 13 31
13.616156 10.935948 3.1841559 32 30
6.4502592 5.720777 -0.20062132 0 16
11.939383 11.59839 -0.29054767 2 17
7.1117964 5.6711802 -0.26472387 0 15
4.6424623 4.0885644 -1.7317522 1 1
4.7318497 3.7733321 -1.210436 0 2
12.208437 10.751835 0 10 20
15.586983 11.229289 -0.22364852 2 18
6.0123796 5.2950358 -1.2464222 2 3
11.952477 11.61111 0.09684974 2 21
14.063626 11.214797 -0.10454471 24 19
6.0526953 5.3305411 -0.86877131 0 5
4.7469721 3.4198489 -0.54613942 0 6
12.238144 10.777997 0.37946835 19 24
15.61619 11.250331 0.22406758 3 22
6.2555447 5.5091882 -0.58288509 0 8
11.941882 11.600818 0.48453191 2 25
14.055468 11.208291 0.31379429 19 23
12.274692 10.810184 0.95254982 17 27
14.058456 11.210674 0.73256826 22 26
6.9083014 5.5089064 -0.4630686 0 11
12.293225 10.826507 2.011332 21 29
13.624489 10.864615 1.4225765 20 28
5.785048 5.6198249 -0.3285892 0 13
12.366553 10.891086 4.4154534 14 31
13.721936 10.942323 3.1999404 32 30
6.4881973 5.7140827 -0.20117965 0 16
11.947269 11.521235 -0.28970996 2 17
7.2109156 5.707108 -0.26763293 0 15
4.6603174 4.0740561 -1.7328305 1 1
4.7148929 3.7316208 -1.2025913 0 2
12.289927 10.743871 0 8 20
15.680099 11.209297 -0.22439353 2 18
6.0615044 5.2989755 -1.2525713 0 3
4.7915621 3.7923009 -0.7778123 0 4
11.943129 11.517241 0.096431278 2 21
14.067001 11.133385 -0.10426573 24 19
6.0901585 5.3240247 -0.87134171 0 5
12.340792 10.788338 0.38142243 18 24
15.702876 11.22558 0.22471948 3 22
4.9392519 3.9091907 -0.51422352 0 7
11.94691 11.520887 0.4830192 2 25
14.05569 11.124432 0.31288674 21 23
12.350309 10.796658 0.9553405 17 27
14.071248 11.136746 0.73110282 21 26
5.0804443 4.0209379 -0.33955571 0 11
12.380651 10.823182 2.0191314 19 29
13.720492 10.859138 1.4284348 18 28
5.9321923 5.7206526 -0.33575368 0 13
12.452933 10.886372 4.4320173 16 31
13.817495 10.935912 3.2128551 30 30
6.5512476 5.7271094 -0.20248237 0 16
14.062317 11.050067 -0.52048784 1 15
4.6657829 4.050189 -1.7295955 1 1
4.7309723 3.7175639 -1.2033758 0 2
12.366621 10.734994 0 10 20
15.810461 11.219308 -0.22569732 2 18
6.0889182 5.2855587 -1.2544161 0 3
4.7766891 3.7534876 -0.77326661 0 4
14.061744 11.049617 -0.10394027 24 19
6.1267247 5.318377 -0.87391204 1 5
12.41763 10.779273 0.38263211 16 24
15.797416 11.210051 0.22551109 3 22
4.9434619 3.8845365 -0.51324713 0 7
14.059839 11.04812 0.31211883 22 23
12.439183 10.797983 0.95929384 19 27
14.081752 11.065338 0.72963738 24 26
5.0190673 3.9439466 -0.33453146 0 11
12.47232 10.826747 2.0279062 22 29
13.830408 10.867834 1.4359204 21 28
12.540458 10.885895 4.4496174 12 31
13.920558 10.938674 3.227922 22 30
6.5983768 5.7278004 -0.20331986 0 16
4.66752 4.0246315 -1.7252823 2 1
4.7278147 3.6897879 -1.1994535 0 2
12.45668 10.74094 0 10 20
6.1243725 5.2808228 -1.2581054 1 3
4.7390618 3.6985657 -0.76518548 0 4
14.066779 10.978313 -0.1037078 21 19
6.1804709 5.3291941 -0.87905264 0 5
12.495709 10.774593 0.38393489 18 24
15.965287 11.249754 0.22737366 3 22
4.9877467 3.8926497 -0.51650172 0 7
14.055414 10.969444 0.31121132 19 23
12.538435 10.811434 0.96417761 19 27
14.067959 10.979235 0.72703207 24 26
12.562277 10.831992 2.0366805 22 29
13.926089 10.868513 1.442104 19 28
12.632087 10.892186 4.4692879 14 31
6.6567063 5.7398343 -0.20452954 0 16
11.890833 11.232817 -0.28552136 38 17
14.045551 10.883075 -0.51711333 19 15
4.6815395 4.0083151 -1.7252823 2 1
4.7034588 3.6444349 -1.1900399 0 2
12.548788 10.744222 0 8 20
6.2598586 5.3596659 -1.2820868 1 3
4.7331223 3.6674194 -0.762155 0 4
11.901167 11.242579 0.095152661 27 21
14.079716 10.909547 -0.10352181 21 19
6.2232027 5.3282814 -0.88247979 0 5
12.60007 10.78813 0.38598204 19 24
16.073286 11.242101 0.2283515 3 22
5.0422711 3.9069605 -0.52073264 0 7
11.913769 11.254483 0.47696838 20 25
14.065165 10.898273 0.31058303 21 23
12.621593 10.806559 0.96766597 17 27
14.068284 10.900689 0.72507811 21 26
12.648263 10.829391 2.0444803 19 29
14.026968 10.868676 1.4486132 19 28
12.731661 10.900797 4.4910283 14 31
14.859446 11.513714 3.4273803 4 30
6.6858139 5.7243671 -0.2048087 0 16
11.927057 11.188502 -0.28545156 27 17
14.061274 10.81691 -0.51629883 21 15
4.6896343 3.9869578 -1.7231257 2 1
4.7068262 3.6208184 -1.1876864 0 2
12.63498 10.741804 0 8 20
6.3297229 5.3813019 -1.2925403 0 3
4.8056531 3.6968427 -0.77175146 0 4
11.943259 11.203701 0.095175907 27 21
14.086013 10.835941 -0.10328934 19 19
6.266005 5.3271313 -0.88590688 0 5
12.6864 10.78552 0.38747087 17 24
16.194571 11.242945 0.22951561 3 22
5.0685191 3.8990576 -0.52203453 0 7
11.932573 11.193676 0.47615385 25 25
14.087275 10.836912 0.31023398 18 23
12.714006 10.80899 0.971852 19 27
14.084078 10.834453 0.72393835 17 26
12.734387 10.826316 2.0522799 19 29
14.128023 10.868258 1.4551224 19 28
12.813792 10.893824 4.5065575 14 31
14.80286 11.38739 3.4051385 4 30
6.7423162 5.7320738 -0.20592532 0 16
11.955314 11.140711 -0.28524211 31 17
14.090712 10.765371 -0.51606613 14 15
4.6881146 3.9589596 -1.7177342 2 1
4.7094569 3.5980475 -1.185333 0 2
12.737763 10.756625 0 11 20
4.8376532 4.0852404 -0.98508555 0 3
4.7642827 3.6399348 -0.76316518 0 4
11.954006 11.139493 0.094966672 31 21
14.163186 10.820742 -0.10359156 14 19
6.317059 5.3345499 -0.8906191 0 5
12.774035 10.787255 0.38905278 19 24
16.314091 11.245936 0.23067974 3 22
5.1226044 3.9136941 -0.52626544 0 7
11.946224 11.13224 0.47522298 25 25
14.167624 10.824132 0.31121132 13 23
12.810797 10.818299 0.97650313 21 27
14.167566 10.824088 0.72638083 13 26
12.833918 10.837824 2.0625172 23 29
14.227345 10.869759 1.4616315 19 28
6.0847216 5.6701255 -0.33884743 0 13
12.914788 10.906116 4.5293331 14 31
6.8101707 5.7509665 -0.20741417 0 16
11.954962 11.0588 -0.28426477 25 17
14.209722 10.774049 -0.51897514 13 15
4.7055445 3.9442258 -1.7188126 2 1
4.706984 3.5689142 -1.1814107 0 2
12.832281 10.756123 0 16 20
4.882884 4.0928731 -0.9912346 0 3
4.7586203 3.6080654 -0.76013476 0 4
11.953644 11.057581 0.094641209 27 21
14.263309 10.81468 -0.10403327 14 19
6.3822861 5.3496842 -0.89704496 0 5
12.871714 10.789175 0.39082077 17 24
16.460842 11.258325 0.23216976 3 22
5.1114988 3.8756242 -0.52366179 0 7
11.945852 11.050373 0.47359389 22 25
14.280499 10.827713 0.31281695 13 23
6.0306182 5.5785542 -0.5264985 0 9
5.4681497 3.7399182 -0.38581055 0 10
12.890143 10.804623 0.97952634 19 27
14.289942 10.834873 0.7306143 11 26
12.922233 10.831521 2.0703166 20 29
14.34333 10.875353 1.4694425 19 28
7.3875794 6.8337951 -0.41000378 0 13
13.00205 10.898425 4.545898 12 31
14.897673 11.295665 3.408726 17 30
6.8679786 5.7567954 -0.2085308 0 16
11.956233 10.986619 -0.28342709 27 17
14.306061 10.772562 -0.52118599 13 15
4.7062612 3.5438471 -1.1782728 0 2
12.923213 10.759575 0 16 20
4.8660555 4.0513678 -0.98508555 0 3
4.7705598 3.5922642 -0.76013476 0 4
11.949016 10.979986 0.094315745 23 21
14.378979 10.82747 -0.10461445 14 19
4.9329453 4.1070585 -0.69141859 0 5
12.938155 10.772016 0.39175129 13 24
16.52787 11.223897 0.23258886 3 22
5.0797367 3.8250766 -0.51910537 0 7
11.94416 10.975525 0.47208118 21 25
14.389812 10.835627 0.31442255 12 23
6.0108747 5.5234113 -0.52317274 0 9
5.4772196 3.7195201 -0.38557804 0 10
14.386458 10.833101 0.73370808 11 26
6.8537989 5.7063179 -0.41542989 0 12
4.8949986 3.6859677 -0.32113346 0 11
13.019106 10.839414 2.0800662 23 29
14.449383 10.880485 1.4766026 17 28
7.2954297 6.7037926 -0.40365344 0 13
13.091568 10.899744 4.5645332 12 31
6.8778129 5.7263117 -0.20825164 0 16
11.955051 10.904993 -0.28244972 29 17
14.42872 10.782288 -0.52421141 15 15
4.7270274 3.9063711 -1.716656 14 1
4.6972241 3.5101395 -1.1727816 0 2
4.8229833 3.9856679 -0.9734022 0 3
4.7582645 3.5557542 -0.75609416 0 4
11.956671 10.906469 0.094060011 25 21
14.479442 10.820191 -0.10505616 14 19
4.9142427 4.0610838 -0.6867063 0 5
5.3540998 3.6073101 -0.60264939 1 6
16.701578 11.252643 0.23445143 3 22
11.951812 10.902038 0.47080117 22 25
14.496704 10.833091 0.31588855 13 23
5.4312034 3.6592584 -0.381392 0 10
13.768663 11.378294 1.0402234 7 27
14.4997 10.83533 0.73745316 13 26
4.9308739 3.6847413 -0.32259887 0 11
13.113832 10.837148 2.0888407 21 29
14.54984 10.872799 1.4827863 17 28
6.212656 5.6669745 -0.34259251 0 13
13.196952 10.905837 4.5873089 14 31
15.411173 11.516455 3.5077376 4 30
11.952617 10.830379 -0.28154221 27 17
14.518976 10.77489 -0.52618963 14 15
4.7369771 3.8882315 -1.7155776 3 1
4.718286 3.5015564 -1.1751349 0 2
13.910096 11.417761 0 2 20
10.116418 6.7672448 -0.14169528 1 18
4.6681442 3.8317318 -0.93958217 0 3
4.7477245 3.5234032 -0.75255865 0 4
11.960164 10.837217 0.0938043 29 21
14.569847 10.812643 -0.10545137 8 19
4.9061637 4.0271039 -0.68370759 0 5
13.940334 11.442581 0.41966707 1 24
11.946416 10.824759 0.46917212 22 25
14.596776 10.832627 0.31728473 4 23
7.7235637 6.9983935 -0.66797256 1 9
5.4300308 3.6323476 -0.38046178 0 10
13.75693 11.292039 1.0365026 3 27
14.596528 10.832443 0.74054694 4 26
13.198795 10.833907 2.0966403 21 29
14.659446 10.879136 1.4902717 14 28
7.2650456 6.5829263 -0.39941987 0 13
13.286798 10.906142 4.6059442 14 31
15.512476 11.512191 3.5220871 4 30
11.969541 10.76986 -0.28105354 25 17
4.7684369 3.886272 -1.7220476 2 1
4.7273235 3.4827378 -1.1743505 0 2
9.9733677 6.6212745 -0.13936704 1 18
4.8316183 3.9377646 -0.96971273 0 3
4.7663851 3.5115151 -0.75356883 0 4
11.980083 10.779346 0.09366481 25 21
4.8647008 3.9647269 -0.6759966 0 5
5.4017563 3.5862017 -0.60525179 0 6
6.8481393 5.5812278 -0.61776328 0 8
11.998993 10.796361 0.46975395 20 25
7.7301426 6.955368 -0.66643757 1 9
5.3661609 3.5625701 -0.37511298 0 10
13.71269 11.175831 1.0302236 5 27
6.8729124 5.6014175 -0.41301027 0 12
13.304241 10.842945 2.1073649 21 29
14.771159 10.882283 1.4977573 18 28
7.2909541 6.5601983 -0.39958271 0 13
13.378699 10.903628 4.6245785 14 31
15.685633 11.555999 3.5522208 4 30
12.03876 10.752564 -0.28175166 19 17
15.321942 11.201659 -0.55237108 1 15
4.7736635 3.8615019 -1.7188126 1 1
4.7273903 3.4561293 -1.1712126 0 2
4.8306527 3.9076014 -0.96663815 0 3
4.7632065 3.4823139 -0.75104344 0 4
12.064257 10.775336 0.09401352 19 21
15.392751 11.253426 -0.11082157 1 19
4.8575549 3.929363 -0.67299789 0 5
5.4481244 3.5882871 -0.60896963 1 6
14.071601 11.38277 0.42115587 35 24
16.855238 11.101331 0.23496363 30 22
12.092156 10.800256 0.47184849 17 25
