# .PCD v0.7 - Point Cloud Data file format
VERSION 0.7
FIELDS x y z intensity ring
SIZE 4 4 4 4 2
TYPE F F F F U
COUNT 1 1 1 1 1
WIDTH 1276
HEIGHT 1
VIEWPOINT 0 0 0 1 0 0 0
POINTS 1276
DATA ascii
-2.7789145 11.875904 0.28381032 35 24
-1.5881237 11.950117 0.1403449 47 22
-1.3907691 7.6000948 -0.63073742 0 7
-3.5356317 12.354602 0.37398791 39 25
-2.1906824 11.971357 0.2124307 10 23
-1.1447066 8.6135464 -0.50604206 0 10
-2.7813337 11.886242 0.71092403 24 27
-2.1906388 11.971119 0.49581471 5 26
-1.7979985 7.6838846 -0.36759588 0 12
-1.3906072 7.5992103 -0.40487102 0 11
-2.7815619 11.887217 1.498993 37 29
-2.1923633 11.980542 0.9942739 3 28
-3.5407948 12.372643 -0.52430987 13 13
-1.0474677 7.881856 -0.2776604 0 14
-2.7976317 11.955894 3.290108 13 31
-2.2043574 12.046086 2.2327836 4 30
-2.7807367 11.883691 -0.2839964 20 16
-0.63498473 3.539726 -1.6769494 1 0
-3.4999497 12.393315 -0.22478701 12 17
-2.1461778 11.96388 -0.3537409 11 15
-1.4152329 6.1447186 -1.7651795 0 1
-1.5007837 8.3661261 -1.6999447 2 2
-2.7283053 11.845873 0 48 20
-1.5448579 11.943688 -0.14020522 40 18
-1.7067664 7.4105115 -1.1830865 0 3
-1.329787 7.4129052 -0.95862842 0 4
-3.4862914 12.344952 0.074555241 48 21
-2.1569378 12.023862 -0.070998341 5 19
-1.7129009 7.4371467 -0.82207704 0 5
-0.97272515 7.5203853 -0.70786208 0 6
-2.7392347 11.893327 0.2839964 18 24
-1.5463971 11.955588 0.1403449 47 22
-1.3628215 7.5970554 -0.63008654 0 7
-3.4870481 12.347631 0.37340608 39 25
-2.1509964 11.990741 0.21264012 12 23
-0.98554629 7.6195092 -0.44743794 0 10
-2.7389266 11.891989 0.71069145 16 27
-2.1573036 12.0259 0.49776867 7 26
-1.3718288 7.6472669 -0.40717378 0 11
-2.7427206 11.908463 1.5004555 19 29
-2.1646054 12.066605 1.0007831 8 28
-3.495409 12.377236 -0.52398419 6 13
-1.0071266 7.7863517 -0.27417046 0 14
-2.7532763 11.954293 3.2870021 13 31
-2.158123 12.030468 2.2284787 2 30
-2.7374399 11.885533 -0.28381032 17 16
-0.62199634 3.5383506 -1.6752589 1 0
-3.4545174 12.397753 -0.22464737 9 17
-2.1043997 11.971299 -0.3537409 23 15
-1.3988823 6.1721616 -1.7716494 0 1
-1.4702108 8.3635883 -1.6983759 2 2
-2.6851678 11.847523 0 46 20
-1.5036534 11.952977 -0.14025177 41 18
-1.6817603 7.420279 -1.1837014 0 3
-1.3073361 7.4370427 -0.96115375 0 4
-3.4399543 12.345487 0.074485496 47 21
-1.6922024 7.466352 -0.82464731 0 5
-0.94348377 7.5000262 -0.70563143 0 6
-2.6968157 11.898917 0.28390336 16 24
-1.5041528 11.956946 0.14029835 47 22
-1.3286998 7.5585752 -0.62650651 0 7
-3.4428494 12.355877 0.37328973 38 25
-2.1279266 7.6368136 -0.50807875 0 9
-1.0905217 8.6688738 -0.50883275 0 10
-2.6973963 11.901478 0.71069145 18 27
-2.1063137 11.982186 0.4956519 5 26
-2.1155455 12.034703 -0.64038283 1 11
-2.7020106 11.921837 1.5009429 17 29
-2.103142 11.964145 0.99167025 11 28
-3.4478889 12.373963 -0.52333283 8 13
-0.96447152 7.6668639 -0.26984292 0 14
-2.7098203 11.956295 3.2849314 13 31
-2.1154313 12.034054 2.2277613 4 30
-2.6959319 11.895017 -0.28381032 17 16
-0.60902697 3.5369277 -1.6735685 1 0
-3.4059222 12.390452 -0.22429833 9 17
-2.0571737 11.947048 -0.35281 33 15
-1.3781682 6.1807661 -1.7727276 0 1
-1.4416748 8.3725348 -1.6991603 2 2
-2.651633 11.89196 0 20 20
-1.4609524 11.950212 -0.14015865 41 18
-1.6532694 7.4145308 -1.1818566 0 3
-1.2773296 7.418098 -0.95812333 0 4
-3.3947215 12.349705 0.074438997 47 21
-2.0661554 11.999208 -0.070765868 28 19
-1.6609381 7.4489236 -0.82207704 0 5
-0.92309922 7.5507126 -0.71009272 0 6
-2.6543965 11.904354 0.28381032 18 24
-1.4624087 11.962124 0.14029835 45 22
-1.2955438 7.5238776 -0.62325191 0 7
-3.3965213 12.356253 0.37294066 39 25
-2.0618033 11.973934 0.21208164 34 23
-2.1044319 7.6557422 -0.50884622 0 9
-0.92602873 7.5746756 -0.44441471 0 10
-2.6514928 11.891333 0.70952868 19 27
-2.0651557 11.993403 0.49581471 10 26
-2.0633583 11.982965 -0.63724267 1 11
-2.6577892 11.91957 1.4994806 16 29
-3.4036174 12.382068 -0.52316999 10 13
-0.95274323 7.7931929 -0.27417046 0 14
-2.6647072 11.950596 3.2807903 13 31
-2.6526561 11.896548 -0.2836242 18 16
-0.59605855 3.5391359 -1.6735685 1 0
-3.3573451 12.391272 -0.22408889 10 17
-2.0040724 11.899309 -0.35118094 26 15
-1.3530302 6.1744881 -1.7694926 0 1
-1.4116277 8.3816299 -1.6999447 2 2
-2.6054571 11.889877 0 18 20
-1.4171398 11.955487 -0.14015865 41 18
-1.6252347 7.4166799 -1.1812418 0 3
-1.2527664 7.4383812 -0.96014363 0 4
-3.3473394 12.354343 0.074392498 48 21
-2.0115302 11.94359 -0.070393905 41 19
-1.6378798 7.4743853 -0.82421899 0 5
-0.88744664 7.4868102 -0.70377254 0 6
-2.608176 11.902286 0.28353116 18 24
-1.4176106 11.959458 0.14020522 49 22
-2.6110682 11.915483 -0.85298216 1 8
-1.2699432 7.5403695 -0.6242283 0 7
-3.3501618 12.36476 0.37282431 39 25
-2.0112576 11.941973 0.21138355 42 23
-2.0554776 7.5863461 -0.50372964 0 9
-0.91517967 7.7207756 -0.45278674 0 10
-2.607888 11.90097 0.70952868 18 27
-1.3069189 7.7599149 -0.4124074 0 11
-2.6140809 11.929232 1.4994806 17 29
-2.0148265 11.963162 0.99036849 58 28
-3.3498473 12.3636 -0.52186739 23 13
-0.91523075 7.7212067 -0.27151808 0 14
-2.619231 11.952734 3.2787197 12 31
-2.0161924 11.971272 2.2134116 48 30
-2.6064639 11.894472 -0.28334504 18 16
-0.58370173 3.5411952 -1.6735685 1 0
-1.9599252 11.890452 -0.35071549 31 15
-1.3339045 6.1904697 -1.7727276 0 1
-1.3804495 8.374896 -1.6975913 2 2
-2.56057 11.883259 0 18 20
-1.3763151 11.968307 -0.14025177 43 18
-1.6010025 7.4300356 -1.1824715 0 3
-1.2261502 7.4387937 -0.95963854 0 4
-3.3031645 12.362087 0.074369252 45 21
-1.9685284 11.942646 -0.070347413 41 19
-1.6109433 7.4761691 -0.82379055 0 5
-0.86631387 7.5333848 -0.70786208 0 6
-2.5666161 11.911317 0.28353116 17 24
-1.3754011 11.960361 0.14015865 49 22
-2.5694623 11.924525 -0.85298216 1 8
-1.2436162 7.5447569 -0.6242283 0 7
-3.3059509 12.372516 0.3727079 39 25
-1.9695626 11.94892 0.21138355 42 23
-0.87180185 7.5811081 -0.44441471 0 10
-2.5671737 11.913905 0.7097612 19 27
-1.97343 11.972383 0.49434927 53 26
-1.6521734 7.6675124 -0.36536238 59 12
-1.2655329 7.6777205 -0.40780181 0 11
-2.5682452 11.918878 1.4970431 17 29
-1.9704636 11.954387 0.9890666 41 28
-0.88827473 7.7243543 -0.27151808 0 14
-2.5774949 11.961803 3.2787197 13 31
-1.9731151 11.970472 2.2119768 46 30
-2.5640891 11.89959 -0.283252 17 16
-0.57133621 3.5432112 -1.6735685 1 0
-3.2585287 12.368 -0.22325119 54 17
-1.9190412 11.901169 -0.35083184 25 15
-1.3106896 6.1875525 -1.770571 0 1
-1.3524541 8.3874092 -1.6991603 2 2
-2.5182421 11.888212 0 19 20
-1.332754 11.957139 -0.14006552 40 18
-1.5742359 7.4317126 -1.1818566 0 3
-1.2020695 7.4547815 -0.96115375 0 4
-3.257951 12.365808 0.07432276 42 21
-1.9274625 11.953395 -0.070370659 41 19
-1.5790657 7.4545131 -0.82079184 0 5
-0.84001017 7.5363636 -0.70786208 0 6
-2.5233614 11.912379 0.28334504 17 24
-1.332754 11.957139 0.14006552 47 22
-2.5129347 11.863157 -0.84795964 1 8
-1.2185398 7.5569239 -0.62487918 0 7
-3.2596829 12.372381 0.37235883 39 25
-1.9272015 11.951776 0.21131374 45 23
-0.85019732 7.6277604 -0.44697282 0 10
-2.5222576 11.907168 0.70883101 18 27
-1.9265336 11.947634 0.49304664 45 26
-1.2425383 7.7057533 -0.40905789 0 11
-2.525799 11.923887 1.4965557 16 29
-1.9261814 11.94545 0.98776478 43 28
-3.2542872 12.351901 -0.5204019 47 13
-0.87104648 7.8148141 -0.27458924 0 14
-2.5341201 11.96317 3.2766492 13 31
-1.930689 11.973404 2.2112594 46 30
-2.5217042 11.904555 -0.28315896 18 16
-0.55896533 3.5451839 -1.6735685 1 0
-3.2113175 12.363815 -0.22297195 52 17
-1.8781118 11.911744 -0.35094818 17 15
-1.2906544 6.1996312 -1.7727276 0 1
-1.3225591 8.3882036 -1.6983759 2 2
-2.4759166 11.893013 0 18 20
-1.2918687 11.969671 -0.14015865 42 18
-1.5482866 7.4371619 -1.1818566 0 3
-1.1717157 7.4314947 -0.9576183 0 4
-3.2127578 12.369361 0.074276261 45 21
-1.8851051 11.956099 -0.070347413 42 19
-1.5554684 7.4716597 -0.82207704 0 5
-0.8136999 7.5392494 -0.70786208 0 6
-2.4793217 11.909369 0.28306589 17 24
-1.2914395 11.965694 0.14011209 47 22
-2.4820845 11.92264 -0.851587 1 8
-1.1921554 7.561131 -0.62487918 0 7
-3.2134628 12.372075 0.37200975 41 25
-1.8836039 11.946577 0.21110432 42 23
-0.83428037 7.7299361 -0.45278674 0 10
-2.4790535 11.908081 0.70836592 19 27
-1.8848193 11.954285 0.49304664 46 26
-1.2175006 7.7218804 -0.40968591 0 11
-2.4833553 11.928744 1.4960682 17 29
-1.8850957 11.956038 0.98809028 45 28
-3.2101493 12.359318 -0.52023911 48 13
-0.8424772 7.8058829 -0.27417046 0 14
-2.4891984 11.956812 3.2725081 13 31
-1.8894975 11.983956 2.2119768 47 30
-2.4801369 11.913285 -0.28315896 18 16
-0.54658765 3.5471134 -1.6735685 1 0
-3.1651673 12.363326 -0.22276253 52 17
-1.8353053 11.910324 -0.35071549 13 15
-1.2736385 6.2267418 -1.7791975 0 1
-1.2938699 8.3966465 -1.6991603 2 2
-2.433588 11.897665 0 19 20
-1.2488354 11.962174 -0.14001895 42 18
-1.5183578 7.4231596 -1.1787821 0 3
-1.1457695 7.4355397 -0.9576183 0 4
-3.1685722 12.376625 0.074253015 43 21
-1.8409247 11.946792 -0.070254415 42 19
-1.5341611 7.500421 -0.82464731 0 5
-0.78986084 7.5658112 -0.71009272 0 6
-2.438539 11.921869 0.28315896 17 24
-1.2496661 11.97013 0.14011209 47 22
-2.4300587 11.88041 -0.84795964 1 8
-1.1621134 7.5416045 -0.62292641 0 7
-3.1702595 12.383216 0.37200975 41 25
-1.8400663 11.941221 0.21089488 43 23
-0.80729443 7.7328014 -0.45278674 0 10
-2.4366734 11.912748 0.70813334 19 27
-1.8424734 11.956841 0.4928838 45 26
-1.5749943 7.7000523 -0.3661069 0 12
-1.1832402 7.6787081 -0.40717378 0 11
-2.4417033 11.93734 1.4960682 17 29
-1.8433524 11.962546 0.98809028 45 28
-3.1630254 12.354959 -0.51958781 46 13
-0.82560319 7.908175 -0.2776604 0 14
-2.4459 11.957857 3.2704377 13 31
-1.8452594 11.974922 2.2091069 45 30
-2.4361351 11.910117 -0.2828798 19 16
-0.53474122 3.5525844 -1.6752589 1 0
-3.1200318 12.366543 -0.2226229 49 17
-1.792526 11.90875 -0.35048276 11 15
-1.2465827 6.2047143 -1.7716494 0 1
-1.2651339 8.4049902 -1.6999447 2 2
-2.3928273 11.910008 0 16 20
-1.2066675 11.96248 -0.13997239 39 18
-1.4900993 7.4167886 -1.1769373 0 3
-1.1192149 7.4355693 -0.95711321 0 4
-3.1194758 12.36434 0.074113533 39 21
-1.7992083 11.953144 -0.070254415 42 19
-1.5134521 7.5330238 -0.82764602 0 5
-0.76424384 7.5764465 -0.71083629 0 6
-2.3937552 11.914626 0.28278673 17 24
-1.2074703 11.970439 0.14006552 47 22
-2.3987882 11.939677 -0.851587 1 8
-1.1375594 7.5574417 -0.6239028 0 7
-3.1035366 12.301164 0.36921707 30 25
-1.7989646 11.951526 0.21096468 42 23
-0.77027571 7.6362443 -0.44697282 0 10
-2.3934994 11.913353 0.70766824 19 27
-1.7989371 11.951343 0.49239531 47 26
-1.5544008 7.7368417 -0.36759588 0 12
-1.1653457 7.7420416 -0.41031393 0 11
-2.396888 11.93022 1.4941182 17 29
-1.8003941 11.961022 0.98743933 42 28
-2.9927733 11.862143 -0.49842 36 13
-0.77391928 7.6723657 -0.26928452 0 14
-2.4041412 11.966322 3.2704377 13 31
-1.8022732 11.973506 2.2076719 46 30
-2.3929675 11.910706 -0.28269368 19 16
-0.52295822 3.5543382 -1.6752589 1 0
-2.9515607 11.864516 -0.21340802 50 17
-1.7530278 11.91463 -0.35048276 8 15
-1.2230166 6.1936984 -1.7673361 0 1
-1.2361147 8.4013777 -1.6983759 1 2
-2.349447 11.898256 0 18 20
-1.1669942 11.966415 -0.13997239 40 18
-1.4700917 7.4449553 -1.1806267 0 3
-1.0974411 7.458869 -0.95963854 0 4
-2.9471323 11.846715 0.070951849 51 21
-1.7589806 11.955089 -0.070231169 42 19
-1.4784493 7.4872804 -0.82207704 0 5
-0.73099881 7.495698 -0.70302898 0 6
-2.3526847 11.914653 0.28260064 18 24
-1.1669942 11.966415 0.13997239 47 22
-1.5042503 7.6179438 -0.54298437 0 8
-1.1194574 7.6085048 -0.62780833 0 7
-2.9517264 11.865181 0.35583541 43 25
-1.7581602 11.949513 0.21082507 45 23
-2.2097158 8.8824902 -0.58661866 0 9
-0.74495029 7.6387568 -0.44697282 0 10
-2.3532085 11.917307 0.70743567 18 27
-1.7604612 11.965152 0.49272099 46 26
-1.5403482 7.8007541 -0.37038776 0 12
-1.1361786 7.7221522 -0.40905789 0 11
-2.3573153 11.938103 1.4941182 17 29
-1.7607225 11.966928 0.98743933 43 28
-2.9495635 11.856487 -0.49776867 49 13
-0.75545824 7.7465062 -0.2717973 0 14
-2.3644485 11.974229 3.2704377 13 31
-1.763133 11.983311 2.2083893 45 30
-2.3526847 11.914653 -0.28260064 19 16
-0.510032 3.5525539 -1.6735685 1 0
-2.908221 11.866978 -0.2132684 64 17
-1.7119925 11.924635 -0.35059914 7 15
-1.2065184 6.2244 -1.7748842 0 1
-1.0791334 7.5165467 -1.5187324 2 2
-2.3071358 11.902458 0 19 20
-1.1233417 11.950506 -0.13973957 31 18
-1.4410845 7.4345207 -1.1781672 0 3
-1.072524 7.47051 -0.96064866 0 4
-2.9048064 11.853045 0.070928596 55 21
-1.7166674 11.957197 -0.070207924 42 19
-1.4621412 7.5431514 -0.82764602 0 5
-0.70967293 7.5497518 -0.70786208 0 6
-2.3103163 11.918867 0.2825076 18 24
-1.1252133 11.970417 0.13997239 47 22
-2.3075902 11.904803 -0.84795964 1 8
-1.0985556 7.6518292 -0.63106292 0 7
-2.9055297 11.855996 0.35525361 45 25
-1.7170032 11.959536 0.21089488 43 23
-0.72762233 7.7407041 -0.45278674 0 10
-2.3100722 11.917607 0.70697057 20 27
-1.7175453 11.963312 0.49239531 43 26
-1.5009413 7.74332 -0.36740977 0 12
-1.1041054 7.6904855 -0.40717378 0 11
-2.312604 11.930668 1.4921683 16 29
-1.7172365 11.961162 0.98646295 43 28
-2.9053018 11.855066 -0.49728018 47 13
-0.72766298 7.7411361 -0.27151808 0 14
-2.3211625 11.974821 3.2683671 13 31
-1.7207304 11.985497 2.2076719 46 30
-2.3095553 11.91494 -0.28241453 20 16
-0.49751055 3.5579896 -1.6752589 1 0
-2.862834 11.869781 -0.21312879 64 17
-1.6677235 11.926869 -0.35048276 7 15
-1.1851366 6.2363491 -1.7770408 0 1
-1.0591824 7.5748343 -1.5297149 2 2
-2.2627513 11.906905 0 19 20
-1.0773776 11.930642 -0.13946018 38 18
-1.4094001 7.4164548 -1.1744777 0 3
-1.0407414 7.4429526 -0.95660806 0 4
-2.8557191 11.840281 0.070789114 55 21
-1.6728328 11.963408 -0.070207924 42 19
-1.4129539 7.4351549 -0.8152228 0 5
-0.6848641 7.5840344 -0.71083629 0 6
-2.265872 11.923325 0.28241453 19 24
-1.0802554 11.96251 0.13983271 47 22
-2.2639441 11.913181 -0.84795964 1 8
-1.0555979 7.5491991 -0.62227553 0 7
-2.8620584 11.866566 0.35525361 43 25
-1.6714985 11.953866 0.21068545 42 23
-2.1376743 8.8631506 -0.58431613 0 9
-0.69924802 7.743319 -0.45278674 0 10
-2.2671247 11.929917 0.70720309 19 27
-1.673135 11.965569 0.4922325 45 26
-1.4747902 7.7605457 -0.36796814 0 12
-1.0759124 7.6944804 -0.40717378 0 11
-2.2673805 11.931264 1.4911934 17 29
-1.6733875 11.967375 0.98646295 45 28
-0.69712991 7.7198634 -0.27068052 0 14
-2.273653 11.964271 3.2631907 14 31
-1.6757022 11.983929 2.2062368 46 30
-2.2666187 11.927255 -0.2825076 14 16
-0.48718017 3.5703952 -1.6803303 1 0
-2.8160603 11.848081 -0.21257031 52 17
-1.6265442 11.920447 -0.35013366 3 15
-1.1609179 6.221312 -1.7716494 0 1
-1.0335289 7.5744185 -1.5289305 1 2
-2.2379315 11.992985 0 10 20
-1.0385038 11.942119 -0.13955332 38 18
-1.3855251 7.424973 -1.1750927 0 3
-1.0171286 7.454226 -0.9576183 0 4
-2.8145921 11.841904 0.070742622 54 21
-1.630991 11.953036 -0.070114933 40 19
-1.3948574 7.4749846 -0.81907827 0 5
-0.65971237 7.5862641 -0.71083629 0 6
-2.2424607 12.017257 0.28446168 9 24
-1.0409293 11.970012 0.13987927 49 22
-1.4090244 7.5509048 -0.53712487 0 8
-1.0375665 7.6040092 -0.62650651 0 7
-2.8199203 11.864321 0.35490453 41 25
-1.6302294 11.947454 0.21047603 43 23
-2.1008885 8.8391199 -0.58226949 0 9
-0.6649192 7.6461396 -0.44697282 0 10
-2.2451336 12.031581 0.71278441 9 27
-1.6329086 11.96709 0.49206963 45 26
-1.4439181 7.7378988 -0.36666527 0 12
-1.1783836 8.6360149 -0.45678827 0 11
-2.2481966 12.047996 1.5048428 8 29
-1.6326176 11.964957 0.98581201 47 28
-0.68884403 7.9212589 -0.2776604 0 14
-2.2453079 12.032515 3.2797551 9 31
-1.6354234 11.98552 2.2055194 45 30
-2.2409937 12.009395 -0.28427556 8 16
-0.47218034 3.5577824 -1.6735685 1 0
-2.7762496 11.873903 -0.21284956 27 17
-1.5828339 11.926331 -0.35013366 3 15
-1.1415668 6.2444715 -1.7770408 0 1
-1.0042067 7.5664916 -1.5265771 1 2
-2.188916 11.973565 0 6 20
-0.9947179 11.945845 -0.13955332 40 18
-1.3611395 7.4455543 -1.1775522 0 3
-0.98927307 7.4539704 -0.95711321 0 4
-2.7711618 11.852142 0.070742622 57 21
-1.5871611 11.958935 -0.070114933 41 19
-1.3674453 7.4800477 -0.81907827 0 5
-0.63156682 7.5846624 -0.71046454 0 6
-2.1919193 11.989993 0.2836242 6 24
-0.99670929 11.969761 0.13983271 42 22
-2.166362 11.850193 -0.84237915 1 8
-1.0096838 7.6077614 -0.62650651 0 7
-2.7782283 11.882365 0.35513723 20 25
-1.5874724 11.96128 0.21061565 43 23
-0.65345287 7.8474984 -0.45860064 0 10
-2.189522 11.97688 0.70906359 3 27
-1.5879756 11.965072 0.49174401 45 26
-1.4076378 7.699904 -0.36461788 0 12
-1.0226905 7.7057643 -0.40738311 0 11
-2.1947329 12.005384 1.4985056 4 29
-1.588744 11.970861 0.98581201 46 28
-1.8353252 7.8496089 -0.32842639 0 13
-0.64321446 7.7245421 -0.27068052 0 14
-2.2074358 12.07487 3.2890725 3 31
-1.5914745 11.991435 2.2055194 45 30
-2.1890426 11.974258 -0.283252 10 16
-0.46224222 3.5737095 -1.6803303 0 0
-2.7377648 11.88694 -0.21291937 20 17
-1.5432842 11.931514 -0.35013366 5 15
-1.1181368 6.2330561 -1.7727276 0 1
-0.97408342 7.5308809 -1.5187324 2 2
-2.1456749 11.96107 0 9 20
-0.95478785 11.945089 -0.13950674 39 18
-1.3336552 7.4344645 -1.1750927 0 3
-0.96608144 7.4690156 -0.95862842 0 4
-2.7300558 11.853469 0.070696123 55 21
-1.5469902 11.960165 -0.070091687 43 19
-1.3377227 7.4571385 -0.81607956 0 5
-0.60419548 7.5589242 -0.70786208 0 6
-2.1500368 11.985386 0.28334504 9 24
-0.95638138 11.965025 0.13973957 42 22
-1.3668431 7.6194706 -0.54131025 0 8
-1.1082153 8.5678883 -0.70526731 0 7
-2.7388177 11.891511 0.35513723 17 25
-1.5472937 11.962512 0.21054582 43 23
-0.61947709 7.7501082 -0.45278674 0 10
-2.1589675 12.03517 0.71208674 4 27
-1.5482974 11.970272 0.49174401 45 26
-1.3926842 7.7635217 -0.36740977 0 12
-1.1211386 8.6678009 -0.45804435 0 11
-2.1563201 12.020411 1.4994806 4 29
-1.5500695 11.983972 0.98646295 45 28
-1.7922467 7.7816505 -0.32533264 0 13
-0.61760062 7.7266321 -0.27068052 0 14
-2.1626148 12.055502 3.2818255 4 31
-1.5512041 11.992744 2.204802 46 30
-2.1563916 12.020811 -0.28418252 7 16
-0.44840646 3.5645108 -1.6752589 0 0
-2.6918316 11.876922 -0.21257031 22 17
-1.5006248 11.928895 -0.34990096 5 15
-1.0963708 6.2369213 -1.7727276 0 1
-0.94876683 7.5420184 -1.5203013 1 2
-2.1059842 11.980307 0 13 20
-0.91277796 11.944363 -0.13946018 40 18
-1.3117998 7.4624314 -1.1787821 0 3
-0.93901128 7.464469 -0.9576183 0 4
-2.6895437 11.866827 0.070719369 40 21
-1.5052288 11.965492 -0.070091687 41 19
-1.3171906 7.4930987 -0.8195067 0 5
-0.57780421 7.5609875 -0.70786208 0 6
-2.110261 12.004635 0.2836242 14 24
-0.91552085 11.980255 0.13987927 40 22
-2.1098351 12.002213 -0.85214508 1 8
-0.95340115 7.5788579 -0.62357736 0 7
-2.6955211 11.893201 0.35490453 19 25
-1.505524 11.96784 0.21054582 43 23
-0.58967984 7.7163892 -0.45069373 0 10
-2.1079528 11.991506 0.70906359 5 27
-1.5065007 11.975604 0.49174401 45 26
-1.3545054 7.7053709 -0.36443177 0 12
-0.95276892 7.573832 -0.40005609 0 11
-2.1150317 12.031775 1.4999681 2 29
-1.5062345 11.973488 0.98516113 47 28
-1.7527028 7.7332897 -0.323053 0 13
-0.58300871 7.6290922 -0.26719055 0 14
-2.1265373 12.097226 3.2911432 3 31
-1.5093288 11.998086 2.204802 45 30
-2.6503541 11.886246 -0.21257031 22 17
-1.4580024 11.926122 -0.34966823 8 15
-1.0772063 6.2558947 -1.7770408 0 1
-0.92624038 7.5764308 -1.5265771 2 2
-2.0607555 11.967875 0 28 20
-0.87107593 11.947476 -0.13946018 40 18
-1.2797048 7.4319091 -1.1732479 0 3
-0.91150326 7.4558849 -0.95610303 0 4
-2.6524541 11.895664 0.070835613 19 21
-1.4624784 11.962733 -0.070045188 42 19
-1.2950742 7.5211668 -0.82207704 0 5
-0.55314368 7.586791 -0.71009272 0 6
-0.87282097 11.971411 0.13973957 43 22
-1.3095497 7.6052337 -0.53963608 0 8
-0.92548692 7.5702682 -0.62260097 0 7
-2.6513765 11.890831 0.35455543 18 25
-1.4617949 11.957143 0.21026659 42 23
-2.6314306 11.801379 -0.77490962 1 9
-0.56361026 7.7303481 -0.4513914 0 10
-2.0667565 12.002726 0.70929611 6 27
-1.4642006 11.976821 0.49158114 45 26
-1.3343787 7.7494287 -0.36629301 0 12
-2.0656064 11.996046 1.4946058 4 29
-1.4639432 11.974716 0.98483568 46 28
-1.7317847 7.7666674 -0.32419282 0 13
-0.56596547 7.7626514 -0.2717973 0 14
-2.0738037 12.043653 3.2745786 2 31
-1.4669578 11.999374 2.2040844 45 30
-2.0642693 11.988281 -0.28306589 26 16
-2.6054282 11.879797 -0.21229108 22 17
-1.4173145 11.939079 -0.34990096 7 15
-1.0515244 6.2368269 -1.770571 0 1
-0.89378214 7.5289826 -1.516379 1 2
-2.0116601 11.931606 0 29 20
-0.82937413 11.950443 -0.13946018 40 18
-1.2537599 7.4363303 -1.1732479 0 3
-0.88407356 7.4471998 -0.95458782 0 4
-2.606638 11.885313 0.070719369 21 21
-1.4193052 11.955849 -0.069975451 40 19
-1.2602222 7.4746599 -0.816508 0 5
-0.52362937 7.544971 -0.70600319 0 6
-2.0151048 11.952038 0.28204232 29 24
-0.83103561 11.974384 0.13973957 49 22
-1.2783558 7.5822144 -0.53768289 0 8
-0.90141112 7.5932465 -0.6242283 0 7
-2.6072919 11.888294 0.35420635 18 25
-1.4200559 11.962172 0.21026659 45 23
-2.6116068 11.907969 -0.78130537 1 9
-0.53828686 7.7561703 -0.45278674 0 10
-1.4219218 11.97789 0.49141833 45 26
-1.3093182 7.7658591 -0.36685139 0 12
-0.91588426 7.7151647 -0.40717378 0 11
-1.4216728 11.975793 0.98451018 46 28
-1.710662 7.7999911 -0.32533264 0 13
-0.54357558 7.832375 -0.27417046 0 14
-1.4241437 11.996606 2.2026496 45 30
-2.0104511 11.924435 -0.28139096 38 16
-2.5630977 11.884911 -0.21222126 22 17
-1.3737977 11.928065 -0.34943551 7 15
-1.02661 6.2214565 -1.7651795 0 1
-0.86839122 7.5398498 -1.5179479 1 2
-1.9673905 11.92277 0 37 20
-0.78791398 11.957256 -0.13950674 37 18
-1.2277925 7.4406619 -1.1732479 0 3
-0.85670853 7.4384141 -0.95307261 0 4
-2.5642881 11.89043 0.070696123 21 21
-1.378475 11.968677 -0.070021942 40 19
-1.2321784 7.4672418 -0.8152228 0 5
-0.49754924 7.5507274 -0.70637494 0 6
-1.9701134 11.939271 0.28157708 37 24
-0.78922898 11.977212 0.13973957 50 22
-1.2531784 7.5945053 -0.53824097 0 8
-0.87717897 7.6161494 -0.62585557 0 7
-2.5666177 11.901232 0.3543227 19 25
-1.3782881 11.967055 0.21026659 46 23
-2.5489829 11.81946 -0.77490962 1 9
-0.50464344 7.6583872 -0.44697282 0 10
-1.9731644 11.957761 0.70580775 43 27
-1.3791847 11.974839 0.49109265 43 26
-1.2724421 7.7112474 -0.36405951 0 12
-0.87751967 7.6191077 -0.40194017 0 11
-1.9727637 11.955333 1.487781 34 29
-1.3794016 11.976722 0.98418474 47 28
-1.6724693 7.755126 -0.32321584 0 13
-0.51623011 7.8342247 -0.27417046 0 14
-1.9758389 11.973969 3.2518024 30 31
-1.3813553 11.993686 2.2012146 47 30
-1.9681604 11.927435 -0.28129789 40 16
-2.5191102 11.882049 -0.21201184 20 17
-1.3325988 11.936762 -0.34955186 8 15
-1.0048883 6.2250023 -1.7651795 0 1
-0.84076315 7.5311408 -1.5155945 1 2
-1.9244882 11.921667 0 36 20
-1.2043335 7.4605098 -1.1757075 0 3
-0.83426207 7.4729075 -0.95711321 0 4
-2.5227697 11.899309 0.070696123 22 21
-1.3366908 11.973416 -0.070021942 40 19
-1.2130789 7.5146847 -0.81993502 0 5
-1.9277912 11.942128 0.28148401 39 24
-0.76186377 12.211429 0.1424403 35 22
-1.2304782 7.6224685 -0.53991508 0 8
-0.84749377 7.5914302 -0.62357736 0 7
-2.5225737 11.898385 0.35397363 19 25
-1.3360661 11.96782 0.21019679 47 23
-2.5408285 11.984488 -0.78514284 1 9
-0.48238498 7.7318406 -0.45115882 0 10
-1.9288695 11.948808 0.70487756 41 27
-1.3373791 11.979581 0.49109265 47 26
-1.2429719 7.6998639 -0.36331502 0 12
-0.87307984 7.8206182 -0.4124074 0 11
-1.9278591 11.942549 1.4853437 39 29
-1.3375894 11.981464 0.98418474 47 28
-1.6263251 7.6709924 -0.31947076 0 13
-0.48888212 7.835979 -0.27417046 0 14
-1.9340328 11.980793 3.2518024 29 31
-1.3403571 12.006257 2.2026496 47 30
-1.9271539 11.93818 -0.28139096 41 16
-2.4788744 11.886421 -0.21194203 20 17
-1.2921436 11.933165 -0.34931913 10 15
-0.98664314 6.2435188 -1.7694926 0 1
-0.81367111 7.51439 -1.5116721 1 2
-1.8843163 11.924032 0 37 20
-0.7246632 12.269786 -0.1430922 5 18
-1.1771172 7.4488463 -1.1732479 0 3
-0.80776572 7.4598532 -0.95509285 0 4
-2.4824765 11.903694 0.070672877 21 21
-1.2956831 11.965853 -0.069952197 39 19
-1.1807014 7.4715271 -0.81479442 0 5
-1.8869275 11.940556 0.28129789 37 24
-0.72654974 12.301728 0.14346471 50 22
-1.210175 7.6580377 -0.54214734 0 8
-0.82746315 7.6417623 -0.62748289 0 7
-2.4814677 11.898857 0.3537409 19 25
-1.2959383 11.968208 0.21012698 43 23
-2.4684713 11.836537 -0.77490962 1 9
-0.45674056 7.7333975 -0.45115882 0 10
-1.8886087 11.951194 0.70464498 43 27
-1.2972125 11.979977 0.49092984 45 26
-1.2249135 7.7513032 -0.36554852 0 12
-0.82563782 7.6249046 -0.40194017 0 11
-1.8876227 11.944956 1.4848562 38 29
-1.2974176 11.981871 0.9838593 45 28
-1.6025082 7.6841679 -0.31979644 1 13
-0.46289229 7.8375573 -0.27417046 0 14
-1.8936861 11.983324 3.2507672 28 31
-1.3001087 12.006723 2.2019322 46 30
-1.8869275 11.940556 -0.28129789 40 16
-2.4352889 11.895429 -0.21194203 22 17
-1.2488104 11.941798 -0.34943551 11 15
-0.96492583 6.2547078 -1.7716494 0 1
-0.78693783 7.5251241 -1.5132412 1 2
-1.8405966 11.93086 0 37 20
-0.67946285 12.268366 -0.14304563 7 18
-1.1498058 7.4531112 -1.1732479 0 3
-0.77959114 7.4548712 -0.95408273 1 4
-2.4364209 11.900957 0.070603132 21 21
-1.2522302 11.9745 -0.069975451 41 19
-1.1563387 7.4954576 -0.81693631 0 5
-0.4208726 7.5992665 -0.71046454 0 6
-1.8431472 11.947392 0.28129789 38 24
-1.1784463 7.6387606 -0.54047316 0 8
-0.79530048 7.6050925 -0.6242283 0 7
-2.435431 11.896122 0.35339183 19 25
-1.2512286 11.964923 0.20998736 42 23
-2.4250686 11.845506 -0.77490962 1 9
-0.43943211 7.9343767 -0.46278664 0 10
-1.8435715 11.950143 0.70417988 40 27
-1.2532916 11.984651 0.49092984 46 26
-1.1904011 7.7162519 -0.36368728 0 12
-1.8438263 11.951795 1.4848562 37 29
-1.2526604 11.978615 0.98320836 47 28
-0.43747687 7.8990726 -0.27626443 0 14
-1.8485709 11.982549 3.2486968 32 31
-1.2556804 12.007494 2.2012146 46 30
-1.8407081 11.931582 -0.28092569 40 16
-2.3905995 11.88817 -0.21166278 22 17
-1.1982774 11.858567 -0.34687555 11 15
-0.93907017 6.2313747 -1.7641011 0 1
-0.7602728 7.5239224 -1.5124567 1 2
-1.7989415 11.937211 0 39 20
-0.63725847 12.282646 -0.14318533 9 18
-1.1231952 7.4531703 -1.1726329 0 3
-0.7551614 7.4733386 -0.95610303 0 4
-2.3932891 11.901546 0.070556633 22 21
-1.2092199 11.966859 -0.069905706 40 19
-1.1307619 7.5033808 -0.81736475 0 5
-0.39290076 7.5728474 -0.70786208 0 6
-1.8020302 11.957706 0.28139096 39 24
-0.64243942 12.382505 0.14434944 14 22
-1.1493981 7.6270442 -0.53935707 0 8
-0.76875061 7.6078219 -0.6242283 0 7
-2.3954697 11.912389 0.35362452 18 25
-1.2094582 11.969217 0.20998736 43 23
-2.3837078 11.853898 -0.77490962 1 9
-0.39890707 7.6886139 -0.44836816 0 10
-1.8012542 11.952557 0.70394731 42 27
-1.2110507 11.984977 0.49076703 46 26
-1.1688194 7.755919 -0.36536238 0 12
-0.77105403 7.6306176 -0.40194017 0 11
-1.8020982 11.958158 1.4848562 38 29
-1.2112432 11.986881 0.9835338 47 28
-1.5482684 7.6993566 -0.31995925 2 13
-0.41404551 7.9803953 -0.27905637 0 14
-1.8067353 11.988928 3.2486968 30 31
-1.2121789 11.996142 2.1983447 45 30
-1.7978588 11.930027 -0.28073958 40 16
-2.3490844 11.896444 -0.21166278 22 17
-0.92460048 6.2841568 -1.7781191 0 1
-0.73552549 7.5421457 -1.5155945 1 2
-1.755512 11.931546 0 39 20
-0.59418356 12.280801 -0.14313877 9 18
-1.0942934 7.4374943 -1.1695584 0 3
-0.72906792 7.4759293 -0.95610303 1 4
-2.3509524 11.905904 0.070533387 21 21
-1.1678253 11.974988 -0.069928952 38 19
-1.1045613 7.5072827 -0.81736475 0 5
-0.36646217 7.574173 -0.70786208 0 6
-1.7573653 11.944141 0.28092569 38 24
-0.59959579 12.392663 0.14444257 15 22
-1.1239274 7.638906 -0.53991508 0 8
-0.74218762 7.6104598 -0.6242283 0 7
-2.3515463 11.908912 0.35327545 19 25
-1.1676673 11.973367 0.20998736 45 23
-2.3500452 11.901309 -0.77746791 1 9
-0.37573093 7.7657428 -0.45278674 0 10
-1.7583553 11.95087 0.70348221 41 27
-1.1684288 11.981176 0.49044135 43 26
-1.1318495 7.6927495 -0.36219826 0 12
-0.74441147 7.6332631 -0.40194017 0 11
-1.7591864 11.956519 1.4838812 39 29
-1.1690035 11.987068 0.98320836 50 28
-1.5198326 7.6968727 -0.3196336 2 13
-0.37942249 7.8420415 -0.27417046 0 14
-1.7637472 11.987517 3.2466261 32 31
-1.170294 12.000301 2.1983447 43 30
-1.7562013 11.936231 -0.28073958 40 16
-2.3052688 11.892791 -0.21145335 22 17
-1.1132202 11.842758 -0.34617737 25 15
-0.90266329 6.2873459 -1.7781191 0 1
-0.7073639 7.5251412 -1.5116721 1 2
-1.7132921 11.933641 0 38 20
-0.55221713 12.302779 -0.1433716 11 18
-1.0705768 7.4569182 -1.1720181 0 3
-0.7037155 7.4863291 -0.95711321 1 4
-2.3086259 11.91011 0.070510142 22 21
-1.1230314 11.947132 -0.06974297 38 19
-1.0732678 7.4756622 -0.81350923 0 5
-0.34449095 7.6748734 -0.71715653 0 6
-1.7151017 11.946246 0.28083265 37 24
-0.55562472 12.378696 0.14425631 3 22
-1.1295834 7.8679185 -0.55581957 0 8
-0.71860778 7.6447573 -0.62683195 0 7
-2.3099704 11.917047 0.35327545 19 25
-1.1247507 11.965424 0.20977792 42 23
-1.4759485 7.6143599 -0.49707803 0 9
-0.34987983 7.7949314 -0.45441464 0 10
-1.7166363 11.956935 0.70348221 42 27
-1.1254858 11.973243 0.48995286 41 26
-1.1140804 7.7599349 -0.36517626 0 12
-0.71776712 7.6358142 -0.40194017 0 11
-1.7168835 11.958656 1.4833938 37 29
-1.1252965 11.971229 0.98158103 50 28
-1.4914405 7.6942825 -0.31930795 5 13
-0.35778776 7.9711108 -0.27863759 0 14
-1.7229985 12.001249 3.2486968 32 31
-1.1276697 11.996476 2.1969097 43 30
-1.7151017 11.946246 -0.28083265 41 16
-2.2665632 11.904301 -0.21152318 20 17
-1.0735779 11.842403 -0.34606099 40 15
-0.88073754 6.2826753 -1.7759626 0 1
-0.68240368 7.5274458 -1.5116721 1 2
-1.6731508 11.935296 0 38 20
-0.51025051 12.276567 -0.14304563 10 18
-1.0452921 7.4565129 -1.1714032 0 3
-0.67852581 7.4846697 -0.95660806 2 4
-2.2706106 11.925559 0.070556633 19 21
-1.0834038 11.950791 -0.06974297 40 19
-1.045157 7.4555492 -0.81093895 0 5
-0.31638995 7.6123047 -0.71120805 0 6
-1.6754738 11.951867 0.28083265 38 24
-0.51473516 12.384468 0.14430287 3 22
-1.1040381 7.8755732 -0.55609864 0 8
-0.68929142 7.6034231 -0.62325191 0 7
-2.2741752 11.94428 0.35385725 14 25
-1.0836182 11.953155 0.20949869 45 23
-1.440982 7.5682354 -0.49375224 0 9
-0.32402688 7.7960486 -0.45441464 0 10
-1.6758645 11.954654 0.70301712 43 27
-1.0846891 11.964969 0.48946437 45 26
-1.085011 7.7398448 -0.36405951 0 12
-0.6974889 7.6938477 -0.40487102 0 11
-1.6766633 11.960352 1.4829062 37 29
-1.085229 11.970924 0.98125559 51 28
-1.465915 7.6991868 -0.31930795 4 13
-0.32886034 7.9123416 -0.27654362 0 14
-1.6821153 11.999245 3.2466261 32 31
-1.0878785 12.00015 2.1969097 46 30
-1.6738083 11.939986 -0.28055346 39 16
-2.2462876 12.026151 -0.21354766 12 17
-1.0322304 11.846079 -0.34606099 31 15
-0.85984272 6.2933445 -1.7781191 0 1
-0.65782422 7.5493193 -1.5155945 1 2
-1.6320169 11.945027 0 39 20
-0.46769521 12.286268 -0.14313877 10 18
-1.0160453 7.4366202 -1.1677136 0 3
-0.65135986 7.4751334 -0.95509285 1 4
-2.2429197 12.00812 0.070998341 7 21
-1.0413307 11.950515 -0.069719717 41 19
-1.0180471 7.4512715 -0.81008214 0 5
-0.2890566 7.5934644 -0.70934922 0 6
-1.6331993 11.953682 0.28073958 37 24
-0.47165099 12.390186 0.14434944 5 22
-1.1197511 8.1956615 -0.5784207 0 8
-0.66170603 7.5938678 -0.62227553 0 7
-2.2442107 12.015032 0.35571906 8 25
-1.0432727 11.972802 0.20977792 40 23
-1.4218824 7.6124587 -0.49631053 0 9
-0.29392344 7.7213154 -0.44999605 0 10
-1.6335808 11.956474 0.70278454 43 27
-1.0429137 11.968682 0.48946437 43 26
-1.0563625 7.7317085 -0.36350113 0 12
-0.67062604 7.6962357 -0.40487102 0 11
-1.6338255 11.958265 1.4819313 37 29
-1.0430868 11.970669 0.98093015 50 28
-0.3026056 7.9493937 -0.27779999 0 14
-1.6402167 12.005044 3.2466261 33 31
-1.046322 12.007795 2.1976273 46 30
-1.6326579 11.949719 -0.28064653 41 16
-2.187799 11.955621 -0.21215145 9 17
-0.9888081 11.849783 -0.34606099 31 15
-0.84184647 6.3346372 -1.7889022 0 1
-0.63015181 7.5516801 -1.5155945 1 2
-1.588228 11.950929 0 39 20
-0.42266336 12.2879 -0.14313877 10 18
-0.99242848 7.4677205 -1.1720181 0 3
-0.62395942 7.4774709 -0.95509285 2 4
-2.1888154 11.961176 0.070672877 4 21
-0.99719292 11.950266 -0.069696471 39 19
-0.99020785 7.4510107 -0.80965376 0 5
-0.26067725 7.5785513 -0.70786208 0 6
-1.5888517 11.955623 0.28064653 37 24
-0.42637578 12.395829 0.14439601 3 22
-1.0197932 7.6736312 -0.54131025 0 8
-0.63552791 7.6161065 -0.6239028 0 7
-2.1893651 11.96418 0.35397363 7 25
-0.99971843 11.980531 0.20984773 43 23
-1.386788 7.5783529 -0.49375224 0 9
-0.26562315 7.7223406 -0.44999605 0 10
-1.5886978 11.954464 0.70231944 42 27
-1.001036 11.996322 0.49044135 46 26
-1.0211761 7.6840372 -0.36108151 0 12
-0.64606893 7.7424288 -0.40717378 0 11
-1.5894649 11.960237 1.4814438 37 29
-0.99887627 11.970439 0.98060471 48 28
-1.4100639 7.7055478 -0.31914511 11 13
-0.27374417 7.9584403 -0.27807918 0 14
-1.5951897 12.003314 3.2445557 32 31
-1.0009979 11.995864 2.1947575 46 30
-1.5872713 11.94373 -0.28036737 40 16
-2.152405 11.998614 -0.21277973 6 17
-0.94679826 11.845191 -0.34582826 34 15
-0.81033963 6.264956 -1.7684145 0 1
-0.60253561 7.5381947 -1.5124567 1 2
-1.5449592 11.944499 0 39 20
-0.38001189 12.297297 -0.1432319 10 18
-0.96635318 7.4711394 -1.1720181 0 3
-0.59911704 7.4954252 -0.95711321 2 4
-2.1505778 11.988428 0.070789114 6 21
-0.95515066 11.949686 -0.069673225 40 19
-0.9641909 7.454422 -0.80965376 0 5
-0.23508069 7.6072807 -0.71046454 0 6
-1.545567 11.949199 0.28036737 37 24
-0.9929989 7.6771445 -0.54131025 0 8
-2.152528 11.999299 0.35478818 8 25
-0.95820791 11.987935 0.20991755 43 23
-1.3603243 7.5831475 -0.49375224 0 9
-0.23952687 7.7511606 -0.45162398 0 10
-1.5474682 11.963898 0.70255196 42 27
-0.95819634 11.98779 0.48995286 45 26
-1.0138223 7.8381362 -0.36815426 0 12
-0.61903679 7.744637 -0.40717378 0 11
-1.547703 11.965713 1.4814438 37 29
-0.95771754 11.9818 0.98125559 50 28
-1.3831559 7.710423 -0.31914511 6 13
-0.24682458 7.9873166 -0.27905637 0 14
-1.553773 12.012642 3.2455909 33 31
-0.95974219 12.00713 2.1961923 45 30
-1.545054 11.945232 -0.2802743 41 16
-0.90782064 11.852251 -0.34594461 32 15
-0.79100543 6.2790732 -1.7716494 0 1
-0.65122598 8.502223 -1.705436 2 2
-1.5048438 11.945587 0 39 20
-0.33912268 12.29449 -0.14318533 10 18
-0.94009221 7.4625378 -1.1701734 0 3
-0.57304728 7.481544 -0.95509285 2 4
-0.91613215 11.960764 -0.069719717 41 19
-0.94244987 7.4812527 -0.81222409 0 5
-0.2090856 7.5801497 -0.70786208 0 6
-1.5054362 11.950289 0.2802743 38 24
-0.96753669 7.6803946 -0.54131025 0 8
-0.58458531 7.6321812 -0.62487918 0 7
-0.91875708 11.995033 0.20998736 43 23
-2.1092944 11.986862 -0.78002626 1 9
-0.21371326 7.7479205 -0.4513914 0 10
-1.5062912 11.957076 0.70185429 41 27
-0.91844052 11.990901 0.48995286 46 26
-0.98133397 7.7899184 -0.36573464 0 12
-0.59365785 7.7506299 -0.40738311 0 11
-1.5075212 11.96684 1.4809563 34 29
-0.91798162 11.984909 0.98125559 51 28
-1.3582737 7.7189035 -0.31930795 8 13
-0.22110954 8.0160637 -0.28003356 0 14
-1.5134487 12.013893 3.2445557 32 31
-0.91992223 12.010246 2.1961923 43 30
-1.505936 11.954257 -0.28036737 41 16
-2.065254 11.981457 -0.21222126 38 17
-0.86673695 11.859336 -0.34606099 33 15
-0.76955187 6.2856193 -1.7727276 0 1
-0.6186865 8.4653263 -1.6975913 2 2
-1.4631393 11.950768 0 39 20
-0.29611105 12.291601 -0.14313877 10 18
-0.9140389 7.4657741 -1.1701734 1 3
-2.0641747 11.975196 0.070626378 33 21
-0.87408662 11.9599 -0.069696471 42 19
-0.91536456 7.4766016 -0.81136727 0 5
-0.18406498 7.6405568 -0.71343875 0 6
-1.4637152 11.955472 0.2802743 37 24
-0.29640004 12.303596 0.14327846 63 22
-0.94072282 7.6837254 -0.54131025 0 8
-0.55648905 7.6142945 -0.62325191 1 7
-2.0599401 11.950629 0.35292637 17 25
-0.87542588 11.978225 0.20963831 41 23
-1.314104 7.6237016 -0.49579889 0 9
-1.4645464 11.962262 0.70185429 42 27
-0.87599874 11.986063 0.48962724 42 26
-0.94199854 7.6941452 -0.36108151 0 12
-0.56747454 7.764607 -0.40801117 0 11
-1.4652599 11.968089 1.4804689 37 29
-0.87556219 11.980089 0.98060471 51 28
-1.3286076 7.7078438 -0.31865662 10 13
-0.19389877 8.0487576 -0.28115037 0 14
-1.4719752 12.02294 3.2455909 33 31
-0.87770873 12.009459 2.1954749 46 30
-1.4642012 11.959442 -0.28036737 40 16
-2.0134311 11.929439 -0.21117412 41 17
-0.82533181 11.862289 -0.34606099 30 15
-0.74896896 6.2997422 -1.7759626 0 1
-0.58940333 8.4713478 -1.6983759 2 2
-1.4204668 11.947858 0 40 20
-0.25328264 12.296557 -0.14318533 10 18
-0.8875044 7.464994 -1.1695584 1 3
-2.0117066 11.919221 0.070254415 42 21
-0.83260798 11.966868 -0.069719717 41 19
-0.88878936 7.4758024 -0.81093895 0 5
-0.15616104 7.5814242 -0.70786208 0 6
-1.4219707 11.960508 0.2802743 36 24
-0.25361213 12.312554 0.1433716 56 22
-0.91389388 7.6869621 -0.54131025 0 8
-2.0128856 11.926207 0.35199547 39 25
-0.83305043 11.973228 0.20949869 40 23
-1.2894752 7.6400504 -0.49656639 0 9
-0.16011074 7.7731776 -0.45278674 2 10
-1.4227784 11.967301 0.70185429 42 27
-0.83331901 11.977087 0.48913875 43 26
-0.9330585 7.8481598 -0.36815426 0 12
-0.54480165 7.8302989 -0.41136068 0 11
-1.4239402 11.977073 1.4809563 35 29
-0.83373547 11.983073 0.98060471 48 28
-1.3036875 7.724257 -0.31914511 8 13
-0.16621162 8.0693684 -0.28184834 0 14
-1.4286268 12.016493 3.2424853 34 31
-0.83550632 12.008525 2.1947575 47 30
-1.4205545 11.948596 -0.27999514 38 16
-1.9691669 11.920611 -0.21089488 46 17
-0.78418005 11.869087 -0.34617737 31 15
-0.72829664 6.313798 -1.7791975 0 1
-0.49647468 7.5144749 -1.5061809 0 2
-1.378749 11.952744 0 40 20
-0.21049158 12.305366 -0.14327846 11 18
-0.86189216 7.4719734 -1.1701734 1 3
-1.9713894 11.934065 0.070300914 46 21
-0.79240972 11.993649 -0.069859207 29 19
-0.86450934 7.4946623 -0.81265247 0 5
-0.13017075 7.6097989 -0.71046454 0 6
-1.3797507 11.961428 0.28018126 38 24
-0.21097045 12.33336 0.14360441 28 22
-0.88705373 7.6901059 -0.54131025 0 8
-0.50462824 7.6378846 -0.62487918 4 7
-1.9718918 11.937106 0.35211185 40 25
-0.79625738 12.051886 0.21082507 33 23
-1.2601943 7.6287518 -0.49554303 0 9
-0.1330425 7.7776823 -0.45301929 1 10
-1.3791623 11.956327 0.7009241 41 27
-0.7920298 11.987898 0.48946437 41 26
-0.8964982 7.7719827 -0.36443177 0 12
-0.51878011 7.8520823 -0.4124074 0 11
-1.3816655 11.978027 1.4804689 37 29
-0.79952037 12.101273 0.99004292 30 28
-1.2754121 7.7208748 -0.31881946 5 13
-0.13838296 8.0898857 -0.28254634 0 14
-1.3866694 12.021407 3.2424853 34 31
-0.79461813 12.027075 2.1976273 45 30
-1.378376 11.94951 -0.2799021 40 16
-1.9275465 11.927411 -0.21089488 48 17
-0.7419979 11.859781 -0.34582826 33 15
-0.703686 6.2933331 -1.7727276 0 1
-0.46901822 7.4965892 -1.5022585 1 2
-1.3370203 11.957483 0 40 20
-0.16748467 12.302027 -0.1432319 11 18
-0.83492804 7.4670806 -1.1689435 1 3
-0.46977082 7.5086184 -0.9576183 65 4
-1.9284457 11.932976 0.070254415 48 21
-0.76927406 12.295752 -0.071602784 40 19
-0.8365767 7.4818254 -0.81093895 0 5
-0.10360838 7.6102071 -0.71046454 0 6
-1.3366585 11.954248 0.2799021 38 24
-0.86020643 7.6931553 -0.54131025 0 8
-1.9283001 11.932075 0.35176274 38 25
-0.76966935 12.30207 0.21515328 48 23
-1.2291009 7.6055188 -0.49375224 0 9
-0.10622029 7.8020563 -0.45441464 0 10
-1.3378648 11.965036 0.70115662 42 27
-0.76939809 12.297734 0.50200224 45 26
-0.86137295 7.7035875 -0.36108151 0 12
-0.48937425 7.8219514 -0.41073263 0 11
-1.3394072 11.978831 1.4799815 37 29
-0.77022159 12.310896 1.0069668 37 28
-1.2471797 7.7173886 -0.31849378 4 13
-0.11134202 8.178256 -0.28561747 0 14
-1.3438421 12.018495 3.2404146 34 31
-0.7523877 12.025847 2.1969097 45 30
-1.3362142 11.950274 -0.27980906 37 16
-1.8846545 11.926167 -0.21075526 48 17
-0.70059758 11.862299 -0.34582826 32 15
-0.68295926 6.30724 -1.7759626 0 1
-0.44238651 7.4903498 -1.5006896 1 2
-1.2935528 11.946171 0 39 20
-0.12462519 12.310535 -0.14332502 11 18
-0.81056148 7.4856672 -1.1714032 0 3
-0.44285774 7.4983282 -0.95610303 73 4
-1.8855342 11.931733 0.070207924 48 21
-0.72847426 12.334298 -0.071812011 75 19
-0.81216919 7.500515 -0.81265247 0 5
-0.077286705 7.6344171 -0.71269518 0 6
-1.2953552 11.962816 0.27999514 37 24
-0.12543496 12.390526 0.14425631 3 22
-0.83334869 7.6961107 -0.54131025 0 8
-0.45176718 7.6491804 -0.62553012 6 7
-1.8853921 11.930834 0.35153002 38 25
-0.73049778 12.36856 0.21627021 15 23
-1.203793 7.6176486 -0.49426389 0 9
-0.078421138 7.7464771 -0.45115882 0 10
-1.2956635 11.965664 0.7009241 43 27
-0.72764713 12.320293 0.50281638 13 26
-0.83447874 7.7065473 -0.36108151 0 12
-0.45806554 7.7558222 -0.40717378 0 11
-1.2971603 11.979486 1.479494 37 29
-0.72724646 12.313509 1.0069668 37 28
-1.2202351 7.7216949 -0.31849378 4 13
-0.083645493 8.2625408 -0.28854904 0 14
-1.3006363 12.011588 3.2373087 36 31
-0.7108717 12.036257 2.1983447 46 30
-1.2944943 11.954865 -0.27980906 37 16
-1.8430153 11.932673 -0.21075526 48 17
-0.65963227 11.872657 -0.34606099 29 15
-0.66214395 6.3210783 -1.7791975 0 1
-0.41602159 7.4879313 -1.4999051 1 2
-1.2522643 11.954592 0 40 20
-0.08162874 12.306895 -0.14327846 12 18
-0.78236938 7.4687963 -1.1683286 0 3
-0.41690269 7.5037904 -0.95660806 31 4
-1.8432648 11.934288 0.07018467 49 21
-0.68275505 12.288841 -0.071533039 51 19
-0.78556991 7.4993496 -0.81222409 0 5
-0.050691601 7.6426053 -0.71343875 0 6
-1.2535919 11.967265 0.27999514 37 24
-0.082238905 12.398888 0.14434944 3 22
-0.80648082 7.6989732 -0.54131025 0 8
-0.42462313 7.6427503 -0.62487918 2 7
-1.8431262 11.933391 0.35141367 38 25
-0.68976212 12.414961 0.21703814 50 23
-1.177806 7.6257496 -0.49451974 0 9
-0.052017719 7.8425393 -0.45674017 0 10
-1.2534744 11.966144 0.70069158 43 27
-0.80757445 7.7094135 -0.36108151 0 12
-0.43254268 7.7852936 -0.40863919 0 11
-1.2549251 11.979993 1.4790065 38 29
-0.68382019 12.308013 1.0063159 36 28
-1.1908352 7.7101078 -0.31784248 6 13
-1.2510546 11.943044 3.2176385 36 31
-0.66885555 12.038665 2.1983447 43 30
-1.2519253 11.951356 -0.27962294 35 16
-1.801945 11.942988 -0.21082507 48 17
-0.63813394 6.3041892 -1.773806 0 1
-1.2097185 11.950931 0 40 20
-0.038678464 12.311105 -0.14332502 12 18
-0.75629163 7.4714813 -1.1683286 0 3
-1.8003988 11.93274 0.070138179 45 21
-0.63985157 12.291149 -0.071533039 54 19
-0.75778341 7.4862185 -0.81051052 0 5
-0.023823908 7.5829954 -0.70786208 0 6
-1.2118074 11.971568 0.27999514 37 24
-0.038967486 12.403099 0.14439601 3 22
-0.77959937 7.7017407 -0.54131025 0 8
-0.39814761 7.6481671 -0.62520468 2 7
-1.8014567 11.939752 0.35141367 37 25
-0.64413118 12.373359 0.21627021 24 23
-1.1476048 7.6061316 -0.49298474 0 9
-0.024501747 7.7987475 -0.45418206 0 10
-1.2112916 11.966472 0.70045894 42 27
-0.66260308 12.728192 0.51926214 2 26
-0.78065658 7.7121854 -0.36108151 0 12
-0.40494689 7.7787771 -0.4082205 0 11
-1.2130963 11.9843 1.4790065 38 29
-0.64126426 12.318287 1.0069668 37 28
-1.1657015 7.7260733 -0.31833094 8 13
-1.2046854 11.90121 3.2052152 37 31
-0.62662089 12.036997 2.1976273 42 30
-1.2029475 11.88404 -0.27794802 38 16
-1.7584933 11.937336 -0.21061565 49 17
-0.61911905 6.3370481 -1.7824324 0 1
-0.36525413 7.5219951 -1.5061809 9 2
-1.1679915 11.955081 0 40 20
0.0042987997 12.311164 -0.14332502 13 18
-0.73135775 7.485877 -1.1701734 0 3
-0.36411771 7.4985914 -0.95559794 4 4
-1.7575656 11.931038 0.070091687 46 21
-0.59655225 12.285316 -0.07148654 50 19
-0.7304849 7.476943 -0.80922532 0 5
0.0026478353 7.5830321 -0.70786208 0 6
-1.1700084 11.975725 0.27999514 37 24
0.0043295254 12.399158 0.14434944 1 22
-0.75270855 7.7044153 -0.54131025 0 8
-0.37260619 7.6734023 -0.62715739 0 7
-1.7585995 11.938057 0.35118094 37 25
-0.60151476 12.387515 0.21647964 12 23
-1.1542056 7.8351955 -0.50756705 0 9
0.0027357209 7.8347244 -0.45627508 0 10
-1.1687338 11.962679 0.69999391 40 27
-0.92153054 18.977877 0.77408969 5 26
-0.75761449 7.7546301 -0.36294276 0 12
-0.37817684 7.7881231 -0.40863919 0 11
-1.1712527 11.988461 1.4790065 38 29
-0.59845155 12.324431 1.0072923 35 28
-1.1393057 7.7340498 -0.31849378 8 13
0.0041917823 12.004682 -0.41921279 50 14
-1.1740272 12.016859 3.2352383 36 31
-0.58440602 12.035179 2.1969097 38 30
-1.1602875 11.876225 -0.27766886 37 16
-1.716247 11.939443 -0.21054582 49 17
-0.37796065 8.3879347 -0.24436049 0 15
-0.59807962 6.3506756 -1.7856673 0 1
-0.3386437 7.515388 -1.504612 2 2
-1.1247555 11.943154 0 36 20
0.047285646 12.315076 -0.1433716 12 18
-0.70633596 7.5001898 -1.1720181 0 3
-0.33794206 7.4998169 -0.95559794 2 4
-1.7164794 11.941059 0.070114933 48 21
-0.55420756 12.299313 -0.071556285 55 19
-0.70475549 7.4834075 -0.80965376 0 5
0.029406566 7.6586475 -0.71492583 0 6
-1.1270757 11.967792 0.27971599 36 24
0.047592793 12.395069 0.14430287 3 22
-0.3442052 7.6388125 -0.6242283 0 7
-1.7169198 11.944122 0.35118094 39 25
-1.1325299 7.8786883 -0.5101254 0 9
0.030143751 7.8506398 -0.4572053 0 10
-1.1262227 11.958734 0.69952875 40 27
-0.85582346 18.992958 0.77457827 5 26
-0.72679633 7.7174473 -0.36108151 0 12
-0.35135013 7.7973771 -0.40905789 0 11
-1.1294005 11.992477 1.4790065 35 29
-0.5552507 12.322463 1.0069668 36 28
-1.1111662 7.7300677 -0.31816813 8 13
0.046108857 12.008593 -0.41935235 48 14
-1.1197587 11.890097 3.2000387 21 31
-0.54186296 12.025354 2.1947575 41 30
-1.1184521 11.876222 -0.27757579 37 16
-1.6787319 11.944775 -0.21054582 46 17
-0.35026956 8.3571215 -0.24342959 0 15
-0.57463551 6.3141613 -1.7748842 0 1
-1.0839691 11.910778 0 35 20
0.085999735 12.318865 -0.14341815 12 18
-0.68312967 7.5063071 -1.1726329 0 3
-1.6778461 11.938471 0.070068441 48 21
-0.51556784 12.300992 -0.071556285 50 19
-0.68124372 7.4855843 -0.80965376 0 5
0.053771023 7.7023258 -0.71901536 0 6
-1.0883875 11.959327 0.27943686 39 24
0.086586095 12.402857 0.14439601 1 22
-0.70159781 7.7092381 -0.54131025 0 8
-0.320207 7.6398559 -0.6242283 0 7
-1.6788336 11.945498 0.35106456 38 25
-0.79686147 19.012409 0.33215421 9 23
-1.1994406 8.5344458 -0.55233735 0 9
0.054638233 7.8265476 -0.45580995 0 10
-1.0886501 11.962213 0.69952875 42 27
-0.79598749 18.991558 0.77441537 7 26
-0.70834351 7.78336 -0.36405951 0 12
-1.0888432 11.964335 1.4751067 41 29
-0.51670521 12.328129 1.0072923 32 28
-1.0868776 7.73352 -0.31816813 8 13
0.083999686 12.032372 -0.42018995 46 14
-1.0813512 11.882012 3.1969328 11 31
-0.50391912 12.023064 2.1940398 46 30
-1.0818636 11.887642 -0.27776191 38 16
-1.6328578 11.951132 -0.21054582 46 17
-0.31757158 8.3424234 -0.24296413 0 15
-0.5507226 6.3201594 -1.7759626 0 1
-0.2879622 7.5646024 -1.5140256 2 2
-1.0382298 11.914853 0 34 20
0.13325398 12.314445 -0.1433716 13 18
-0.65327489 7.4970627 -1.1707882 0 3
-0.2857298 7.5059586 -0.95610303 8 4
-1.6314546 11.940862 0.070045188 48 21
-0.46818244 12.298884 -0.071533039 52 19
-0.65387881 7.503993 -0.81136727 0 5
0.082611024 7.6343608 -0.71269518 0 6
-1.0421146 11.959434 0.27934378 39 24
0.13416281 12.398434 0.14434944 3 22
-0.28890005 7.5892386 -0.61999732 0 7
-1.6318741 11.943932 0.35083184 38 25
-0.72294497 18.99135 0.33173534 8 23
-1.174229 8.5943594 -0.55591899 0 9
0.084990233 7.8542314 -0.45743787 0 10
-1.0423666 11.962327 0.69929624 38 27
-0.72336799 19.002462 0.77474105 8 26
-0.67706674 7.7701006 -0.36331502 0 12
-0.29584575 7.771698 -0.40759248 14 11
-1.0435876 11.976337 1.4760816 39 29
-0.46921614 12.326039 1.0069668 31 28
-1.0555537 7.7257562 -0.31767964 8 13
0.13024049 12.035958 -0.42032954 48 14
-1.1601566 13.314099 3.5810204 26 31
-0.45775303 12.02491 2.1940398 45 30
-1.0355189 11.88374 -0.27757579 38 16
-1.5895448 11.944865 -0.21033642 48 17
-0.52833503 6.3182044 -1.7748842 0 1
-0.99629641 11.914417 0 34 20
0.17641361 12.325903 -0.14351128 12 18
-0.62775809 7.507175 -1.1720181 0 3
-1.5887048 11.938553 0.069998696 45 21
-0.42538333 12.304441 -0.071556285 50 19
-0.62734759 7.5022664 -0.81093895 0 5
0.10931846 7.6380086 -0.71306694 0 6
-1.002025 11.982924 0.27980906 37 24
0.17761566 12.409888 0.14448914 3 22
-0.64506751 7.7141738 -0.54131025 0 8
-0.26474652 7.6579351 -0.62553012 0 7
-1.5896416 11.945592 0.35071549 39 25
-0.65691966 19.001753 0.33187497 4 23
-1.1431665 8.5904913 -0.55540729 0 9
0.11269394 7.8738508 -0.45860064 0 10
-1.0015991 11.977831 0.69999391 42 27
-0.65744174 19.016855 0.77522951 5 26
-0.65126967 7.7883439 -0.36405951 0 12
-0.26871353 7.7726836 -0.40759248 9 11
-1.0017728 11.979908 1.4760816 39 29
-0.42618403 12.327602 1.0069668 28 28
-1.0291046 7.7333555 -0.31784248 13 13
0.17219904 12.031433 -0.42018995 46 14
-1.0154724 12.143737 3.2652612 10 31
-0.41604418 12.034301 2.1954749 42 30
-0.99402738 11.887283 -0.27757579 37 16
-1.5462954 11.938443 -0.21012698 50 17
-0.50658309 6.3238502 -1.7759626 0 1
-0.23611535 7.5977921 -1.5203013 3 2
-0.95501751 11.92181 0 35 20
0.21951246 12.32921 -0.14355785 12 18
-0.59996927 7.4896216 -1.1689435 0 3
-0.23307125 7.4998379 -0.95509285 0 4
-1.5475324 11.947993 0.070021942 48 21
-0.38242695 12.305852 -0.071556285 49 19
-0.59956616 7.4845896 -0.808797 0 5
0.13676134 7.6813827 -0.71715653 0 6
-0.96018749 11.986348 0.27980906 38 24
