# .PCD v0.7 - Point Cloud Data file format
VERSION 0.7
FIELDS x y z intensity ring
SIZE 4 4 4 4 2
TYPE F F F F U
COUNT 1 1 1 1 1
WIDTH 1280
HEIGHT 1
VIEWPOINT 0 0 0 1 0 0 0
POINTS 1280
DATA ascii
-1.0732417 5.8418899 -1.6627408 2 1
-1.0097736 7.557837 -1.5250082 9 2
-1.2469596 14.81862 -0.17312621 35 18
-1.6690203 9.0848436 -1.4370443 1 3
-1.4639814 10.957439 -1.4071331 3 4
-3.4624891 14.750814 0.088062122 1 21
-2.233429 12.157043 -1.3314306 3 5
-1.1681759 13.88237 -1.3004735 2 6
-2.7096295 14.749108 0.34894711 1 24
-1.2462889 14.810649 0.17303306 35 22
-2.7181809 14.795654 -1.0519277 26 8
-1.967712 14.727705 -1.2129817 5 7
-3.4619961 14.748714 0.44089615 1 25
-2.0777659 15.551424 0.27386317 1 23
-3.6032367 15.350425 -1.0105293 45 9
-1.2472786 14.822411 -0.8662715 22 10
-2.7122722 14.763492 0.87417835 1 27
-1.97368 14.772372 0.60718983 1 26
-2.7067051 14.73319 -0.69778073 1 12
-1.9689072 14.73665 -0.77917778 1 11
-2.6105316 14.209696 1.7739303 26 29
-2.0511301 15.352061 1.2644041 40 28
-3.4569373 14.727163 -0.61630827 3 13
-3.2470298 17.674295 4.8150697 2 31
-1.9453659 14.560451 2.6783359 20 30
-0.45304668 3.4835122 -1.6380684 0 0
-3.5500658 15.364806 -0.27525935 6 17
-2.0296202 15.60591 -0.45800138 1 15
-1.0528415 5.8456006 -1.6627408 2 1
-0.98287773 7.5574255 -1.5242237 9 2
-2.7992313 15.54193 0 1 20
-1.1961857 14.834843 -0.17326589 63 18
-1.6365951 9.0867252 -1.4364294 1 3
-1.4246976 10.954614 -1.406123 3 4
-3.4028699 14.727738 0.087852895 1 21
-1.9164388 14.735651 -0.086365044 1 19
-2.1895661 12.156939 -1.3305738 3 5
-1.1193863 13.882394 -1.3001018 2 6
-2.6552896 14.742734 0.34857491 1 24
-1.1945783 14.814909 0.17303306 49 22
-2.7938273 15.511926 -1.1021523 29 8
-1.9168012 14.738438 -1.2133071 5 7
-3.5347025 15.298313 0.45695412 1 25
-2.0043805 15.41184 0.2712802 1 23
-3.5469317 15.351242 -1.0097617 47 9
-1.1936014 14.802793 -0.86487615 17 10
-2.6593018 14.765011 0.87371325 1 27
-1.9205526 14.767282 0.60670137 1 26
-2.6892526 14.931304 -0.70671469 1 12
-1.9200267 14.763239 -0.7802245 3 11
-2.5609105 14.218721 1.7739303 26 29
-1.9975249 15.359127 1.2644041 35 28
-3.3992069 14.711884 -0.61516845 1 13
-3.1901042 17.712139 4.8223166 2 31
-1.8924947 14.551542 2.6754658 20 30
-2.6595426 14.766347 -0.34913322 10 16
-3.4928749 15.361503 -0.27498013 6 17
-1.0324342 5.8492393 -1.6627408 1 1
-0.95600438 7.5569186 -1.5234393 8 2
-2.6066127 14.767721 0 1 20
-1.1431754 14.822976 -0.17307964 45 18
-1.6041858 9.0884886 -1.4358144 1 3
-1.3844657 10.943772 -1.4041028 3 4
-3.3886983 14.903338 0.088829294 2 21
-2.1485083 12.172338 -1.3314306 3 5
-1.070012 13.874304 -1.2989864 2 6
-2.6072977 14.771602 0.34904015 1 24
-1.1425602 14.815001 0.17298651 45 22
-2.7382872 15.513721 -1.1015942 31 8
-1.8638518 14.733171 -1.2123307 5 7
-3.3580668 14.768622 0.44077978 1 25
-3.4924502 15.359634 -1.0095059 28 9
-1.1419331 14.80687 -0.86487615 15 10
-2.6487086 15.006215 0.88743407 1 27
-2.6044841 14.755661 -0.69796687 1 12
-1.9487063 15.403918 -0.81371951 6 11
-2.5119624 14.231483 1.7744178 22 29
-1.9429091 15.358094 1.2637531 36 28
-3.5268435 15.510894 -0.64805996 1 13
-3.1269274 17.715555 4.8202462 2 31
-1.8416989 14.558059 2.6754658 20 30
-2.7386703 15.515892 -0.3666271 21 16
-3.2934165 14.721814 -0.26332191 3 17
-1.0120087 5.852808 -1.6627408 1 1
-0.92913926 7.5563169 -1.5226548 7 2
-1.0931844 14.85081 -0.17335902 39 18
-1.5737957 9.1018229 -1.4370443 2 3
-1.3467377 10.952477 -1.4046078 3 4
-3.4309611 15.33665 0.091340043 2 21
-2.103292 12.164089 -1.329717 3 5
-1.0215713 13.877954 -1.2989864 2 6
-2.6878953 15.54506 0.36709237 1 24
-1.0920097 14.834853 0.17317276 16 22
-2.6820738 15.511391 -1.1007571 33 8
-1.8124081 14.739588 -1.2123307 5 7
-3.3117275 14.803667 0.44147795 1 25
-1.8928392 15.393703 0.27072173 41 23
-3.4370666 15.363942 -1.0089942 38 9
-1.0928749 14.846606 -0.86696917 7 10
-2.5568452 14.787149 0.87394583 1 27
-2.6278439 15.19776 -0.71844053 1 12
-2.4629428 14.244078 1.7749053 22 29
-1.88977 15.368742 1.2640786 36 28
-3.3670981 15.051177 -0.62835765 1 13
-1.0553216 14.336448 -0.50199437 14 14
-3.0736227 17.775858 4.8337045 2 31
-1.7899061 14.556588 2.674031 18 30
-2.6844888 15.525358 -0.3666271 18 16
-3.3821011 15.369892 -0.27470088 6 17
-1.8376429 15.388103 -0.45101964 20 15
-0.99285692 5.8639007 -1.6648974 1 1
-0.90368527 7.5673037 -1.5242237 7 2
-2.6243091 15.499401 0 9 20
-1.0407753 14.846556 -0.17326589 50 18
-1.5380533 9.0838795 -1.4333547 1 3
-1.3066132 10.941352 -1.4025875 3 4
-3.2407236 14.727405 0.087643668 1 21
-2.0621433 12.1792 -1.3305738 3 5
-0.97283983 13.877463 -1.2986146 2 6
-2.6272423 15.516726 -1.1004782 28 8
-1.7599969 14.737908 -1.2116798 5 7
-3.4000883 15.451634 0.46044499 1 25
-3.3799798 15.360253 -1.0079709 42 9
-1.0393645 14.82643 -0.86557382 7 10
-1.8383189 15.393764 0.63161421 11 26
-2.4151912 14.264333 1.7763678 24 29
-1.8342165 15.35941 1.2627767 40 28
-3.0057447 17.752195 4.8243871 2 31
-1.7390794 14.562748 2.674031 20 30
-2.4960904 14.742131 -0.34792352 10 16
-3.3294237 15.373204 -0.27456126 6 17
-0.97214627 5.859561 -1.6627408 1 1
-0.87858772 7.5702581 -1.5242237 7 2
-0.99127299 14.845936 -0.17321934 48 18
-1.5079234 9.0889292 -1.4333547 2 3
-1.2707827 10.949565 -1.4030925 3 4
-3.2155769 14.84753 0.088294595 2 21
-2.0204446 12.178124 -1.329717 3 5
-0.92681777 13.880613 -1.2986146 2 6
-2.5761304 15.527492 0.36625487 20 24
-0.99100643 14.841944 0.17317276 52 22
-2.5764284 15.529288 -1.1007571 19 8
-1.7115771 14.747623 -1.2120053 9 7
-1.7875524 15.402256 0.27065191 84 23
-3.326493 15.359673 -1.0072035 35 9
-0.95534426 14.307844 -0.83510894 2 10
-2.4580934 14.816031 0.8746435 21 27
-1.7890584 15.415234 -0.81330085 4 11
-2.3717768 14.295762 1.7792926 26 29
-1.7828163 15.361447 1.2624513 35 28
-3.3280168 15.366708 -0.64056987 3 13
-2.9481277 17.769688 4.8264575 2 31
-1.6903272 14.564526 2.6733134 20 30
-2.5800574 15.551162 -0.36681321 28 16
-3.1374853 14.735389 -0.26297286 5 17
-1.732417 15.396281 -0.4509033 2 15
-0.95045364 5.8553143 -1.6605843 1 1
-0.85084313 7.5615859 -1.5218703 8 2
-2.3944187 14.75093 0 7 20
-0.94020575 14.86128 -0.17335902 22 18
-1.4774567 9.1019411 -1.4345846 2 3
-1.2321126 10.949992 -1.4025875 3 4
-1.7375938 15.442288 -0.090317145 2 19
-1.9760139 12.173326 -1.3284318 3 5
-0.87811118 13.879788 -1.2982428 2 6
-0.93869048 14.837329 0.17307964 49 22
-2.5190122 15.518494 -1.099362 31 8
-1.6591995 14.745584 -1.2113544 9 7
-3.2695355 15.355571 -1.00618 19 9
-0.91069257 14.394783 -0.83999264 2 10
-2.5170531 15.506424 0.91487575 31 27
-1.735736 15.425777 0.63242841 1 26
-2.5205076 15.527706 -0.73277217 28 12
-1.7365817 15.433293 -0.8139289 4 11
-2.3263171 14.331386 1.7827048 26 29
-1.7282956 15.359653 1.2618003 33 28
-0.93843472 14.833286 -0.51902533 14 14
-2.8867052 17.783684 4.8274927 2 31
-1.6377203 14.554696 2.6704435 19 30
-2.5206356 15.528495 -0.36606878 27 16
-1.669916 15.34688 -0.44927421 2 15
-0.92838162 5.8549542 -1.659506 1 1
-0.82312083 7.5646539 -1.5218703 6 2
-2.3541155 14.846521 0 9 20
-0.88477457 14.848656 -0.17317276 39 18
-1.4428459 9.0994873 -1.4333547 2 3
-1.1915385 10.95049 -1.4020823 3 4
-1.6052595 14.752673 -0.086248808 2 19
-1.9320029 12.184417 -1.3288603 3 5
-0.82651907 13.870987 -1.2971275 2 6
-2.4599423 15.513932 0.36551046 11 24
-0.88477457 14.848656 0.17317276 61 22
-2.3571296 14.86553 -1.0524857 26 8
-1.6051391 14.751567 -1.2113544 9 7
-3.2151849 15.376809 0.45718685 22 25
-1.6742622 15.386822 0.27016324 23 23
-3.2148628 15.375268 -1.0066918 26 9
-1.616926 14.85989 0.60898101 1 26
-1.6756791 15.399843 -0.81183547 4 11
-2.2731488 14.335896 1.7822174 26 29
-1.6728466 15.373813 1.2624513 50 28
-3.0813661 14.736812 -0.61337739 12 13
-0.87953997 14.760806 -0.51637298 4 14
-2.8178704 17.77125 4.8212814 2 31
-1.5839342 14.556689 2.6697261 17 30
-2.347842 14.806958 -0.34885404 13 16
-3.1703994 15.431283 -0.27498013 12 17
-1.6205249 15.392379 -0.45043784 2 15
-0.90911961 5.8657718 -1.6616627 1 1
-0.79547989 7.5557785 -1.5195168 7 2
-1.4086547 9.0888453 -1.4308951 2 3
-1.1524785 10.94669 -1.4010723 4 4
-1.5541753 14.762163 -0.086272053 2 19
-1.888853 12.187155 -1.3284318 3 5
-0.7780984 13.873786 -1.2971275 2 6
-0.83271712 14.847659 0.17312621 97 22
-2.4054554 15.520349 -1.0982459 29 8
-1.55364 14.757079 -1.2113544 9 7
-1.6209641 15.396549 0.27023306 21 23
-0.83114135 14.819562 -0.86441106 7 10
-2.3173456 14.951851 0.88115507 1 27
-1.6131718 15.322536 0.62770635 1 26
-2.4087174 15.541395 -0.73258603 1 12
-1.5545809 14.766017 -0.77813107 5 11
-2.2224884 14.339819 1.7817299 26 29
-1.6183401 15.371627 1.2618003 43 28
-2.7386627 17.67025 4.7912583 2 31
-1.5339395 14.569957 2.6711612 20 30
-2.2918577 14.787399 -0.34820268 13 16
-3.1307518 15.512822 -0.27623668 12 17
-1.5627341 15.358165 -0.44927421 2 15
-0.88748372 5.8612924 -1.659506 1 1
-0.76989263 7.5663142 -1.5210859 7 2
-2.2312472 14.736036 0 1 20
-0.78046 14.842487 -0.17303306 79 18
-1.378101 9.1015224 -1.4321249 2 3
-1.115864 10.966436 -1.4030925 3 4
-1.5714675 15.443995 -0.090224154 2 19
-1.8445109 12.181877 -1.3271466 3 5
-0.7298705 13.880396 -1.2974993 2 6
-2.2324395 14.743911 0.346993 1 24
-0.78024995 14.838493 0.17298651 80 22
-2.3500657 15.520761 -1.0976878 29 8
-1.4956577 14.698954 -1.206147 5 7
-1.5008094 14.749584 0.25878429 4 23
-2.9660895 14.696924 -0.96089816 6 9
-0.78128946 14.858262 -0.86650401 7 10
-2.3051896 15.22438 0.89673632 1 27
-1.5697869 15.427478 0.63177705 1 26
-2.2318215 14.739828 -0.69443053 1 12
-1.5725752 15.454881 -0.81413823 4 11
-2.1741989 14.359266 1.7831924 26 29
-1.5634586 15.365285 1.260824 35 28
-3.1325865 15.521914 -0.64512902 1 13
-0.78066719 14.846427 -0.51916492 17 14
-2.6746469 17.664421 4.787117 2 31
-1.4818727 14.563478 2.6690087 19 30
-2.3521736 15.53468 -0.36560351 27 16
-2.9171979 14.719423 -0.26192573 5 17
-1.5126355 15.399338 -0.45032147 4 15
-0.86814666 5.8719759 -1.6616627 1 1
-0.74309462 7.5650516 -1.5203013 8 2
-0.7292366 14.857106 -0.17317276 100 18
-1.3463243 9.1062765 -1.4321249 2 3
-1.076028 10.954469 -1.4010723 3 4
-2.9152603 14.709647 0.087155461 1 21
-1.5167695 15.441424 -0.090177663 2 19
-1.8031429 12.19611 -1.3280035 3 5
-0.68102682 13.874904 -1.2967558 2 6
-2.2996907 15.554664 0.36588266 1 24
-0.7292366 14.857106 0.17317276 67 22
-2.2947099 15.520974 -1.0971298 33 8
-1.4213485 14.469993 -1.186945 5 7
-2.9218485 14.74289 0.43740526 1 25
-1.5134363 15.407491 0.27023306 5 23
-2.9108927 14.68761 -0.95961899 2 9
-0.7102378 14.470034 -0.84371358 2 10
-2.1825356 14.762249 0.86906219 1 27
-1.5045981 15.317513 0.62705499 1 26
-2.2218511 15.028172 -0.70764536 1 12
-1.441304 14.673149 -0.77268815 1 11
-2.1234846 14.36284 1.7827048 26 29
-1.5102072 15.374616 1.2611494 47 28
-2.9245477 14.756509 -0.61288887 1 13
-0.72844988 14.841078 -0.51888573 17 14
-2.5971515 17.566631 4.7581296 2 31
-1.4302611 14.560729 2.6675737 19 30
-2.295012 15.523017 -0.36513826 23 16
-3.0143838 15.478814 -0.27525935 16 17
-1.4611793 15.400288 -0.45020512 4 15
-0.85197234 5.8976965 -1.6681324 1 1
-0.7176314 7.5635691 -1.5195168 7 2
-0.67977774 14.855448 -0.17312621 82 18
-1.3144217 9.0989571 -1.4302802 2 3
-1.0400674 10.961926 -1.4015774 3 4
-1.7598428 12.182342 -1.3258616 3 5
-0.63519049 13.881064 -1.2971275 2 6
-2.1326005 14.762722 0.34708607 1 24
-0.68014348 14.86344 0.17321934 94 22
-2.1508017 14.888719 -1.0519277 27 8
-3.0242672 15.529565 0.46044499 1 25
-3.0285096 15.55135 -1.0153899 2 9
-2.24033 15.508469 0.91255015 1 27
-1.4662489 15.45372 0.63242841 1 26
-2.2496932 15.573284 -0.73295826 1 12
-2.077543 14.381591 1.7841673 28 29
-1.4588339 15.375569 1.260824 56 28
-0.67977518 14.855392 -0.51930451 25 14
-2.1151803 14.642132 3.9640727 1 31
-1.3815925 14.561473 2.6668563 19 30
-1.4040018 15.397575 -0.44997239 4 15
-0.82820487 5.8855224 -1.6638192 1 1
-0.69061875 7.5739608 -1.5210859 6 2
-2.1927507 15.582477 0 1 20
-0.6254968 14.861835 -0.17317276 100 18
-1.2821671 9.1115408 -1.43151 2 3
-1.0002458 10.969616 -1.4020823 3 4
-2.8162472 14.749285 0.087271705 1 21
-1.4056622 15.415785 -0.089968428 5 19
-1.7162915 12.196586 -1.3267183 3 5
-0.58397776 13.87534 -1.296384 2 6
-2.0790389 14.774399 0.34717911 1 24
-0.6254968 14.861835 0.17317276 110 22
-2.1857412 15.532664 -1.0968508 28 8
-1.3445499 14.74557 -1.2087507 9 7
-2.8188524 14.762929 0.43740526 1 25
-1.3956662 15.30616 0.26827839 2 23
-2.8105288 14.719337 -0.96038651 2 9
-0.62481689 14.84568 -0.86534125 7 10
-2.078866 14.773171 0.86882955 1 27
-2.1018474 14.936484 -0.70261997 1 12
-2.0259278 14.396972 1.7851423 31 29
-1.4017494 15.372873 1.2601731 33 28
-2.9593811 15.498907 -0.64284945 1 13
-0.62515813 14.853788 -0.51916492 19 14
-2.0658104 14.680393 3.9723549 1 31
-1.3285733 14.570358 2.6675737 21 30
-2.0801535 14.782319 -0.34736523 2 16
-0.80817735 5.8921938 -1.6648974 1 1
-0.66314685 7.5646043 -1.5187324 6 2
-0.57391995 14.871922 -0.17326589 89 18
-1.2498145 9.1120453 -1.4308951 2 3
-0.96229225 10.976995 -1.4025875 3 4
-2.9076188 15.521748 0.09178175 2 21
-1.672623 12.194623 -1.3258616 3 5
-0.53553647 13.877295 -1.296384 2 6
-2.1312406 15.538276 0.36495215 1 24
-0.57268602 14.839949 0.17289338 112 22
-2.1293359 15.524387 -1.0957347 36 8
-1.2937623 14.758118 -1.2094016 9 7
-2.7665632 14.76875 0.43728891 1 25
-2.753983 14.701593 -0.95859569 4 9
-0.57329595 14.855754 -0.8658064 5 10
-2.1314673 15.539928 0.91348034 1 27
-2.0643528 15.050615 -0.70764536 1 12
-1.9745777 14.39609 1.7841673 36 29
-1.2972438 14.797833 1.2126561 21 28
-2.9140882 15.556284 -0.6448034 1 13
-0.57206762 14.823925 -0.51804817 14 14
-2.4545269 17.895266 4.8399162 2 31
-1.2773577 14.570989 2.6668563 21 30
-1.2061 14.303163 -0.41774008 16 15
-0.78812408 5.8910232 -1.6638192 1 1
-0.63838917 7.5706697 -1.5195168 6 2
-0.52375674 14.84976 -0.17298651 89 18
-1.2185446 9.108305 -1.4296652 2 3
-0.92488796 10.968264 -1.4010723 3 4
-2.7099993 14.736642 0.087085724 1 21
-1.2506191 14.831115 -0.086504534 33 19
-1.63165 12.19616 -1.3254331 3 5
-0.48965785 13.882975 -1.2967558 2 6
-1.982136 14.815953 0.34783047 1 24
-0.52446169 14.869746 0.17321934 131 22
-2.0778463 15.531363 -1.0957347 31 8
-1.2434785 14.746436 -1.2080997 7 7
-2.8325558 15.403089 0.45579052 1 25
-1.2497774 14.821135 0.25962201 46 23
-2.8561101 15.531174 -1.0120642 2 9
-0.52318776 14.833628 -0.86441106 7 10
-1.9740238 14.755316 0.86696917 1 27
-1.2489318 14.811107 0.60556155 27 26
-2.0139048 15.053415 -0.70745921 1 12
-1.2506043 14.83094 -0.78001517 33 11
-1.9268305 14.402558 1.7841673 32 29
-0.52417767 14.861695 -0.51930451 23 14
-1.2287037 14.571221 2.6661386 21 30
-1.9741821 14.756499 -0.34643471 23 16
-2.7972682 15.515456 -0.27518955 16 17
-1.1561681 14.307285 -0.41774008 22 15
-0.76705962 5.8899188 -1.6627408 1 1
-0.61259216 7.5806713 -1.5210859 6 2
-2.028564 15.576465 0 1 20
-0.47217548 14.859492 -0.17307964 97 18
-1.1882764 9.1242609 -1.43151 2 3
-0.88691771 10.97538 -1.4015774 3 4
-2.6521583 14.710582 0.086876497 1 21
-1.1981997 14.827415 -0.086458035 23 19
-1.5895838 12.205726 -1.3258616 3 5
-0.44107077 13.880618 -1.296384 2 6
-1.9216306 14.755371 0.3462486 1 24
-0.47192141 14.851498 0.17298651 153 22
-1.1858979 14.675185 -1.2019161 3 7
-2.6702347 14.810845 0.43798709 1 25
-1.1977153 14.821422 0.25955218 64 23
-2.7650526 15.336767 -0.99876106 2 9
-1.9606707 15.055142 0.88417834 1 27
-1.1978706 14.823343 0.60588723 32 26
-2.0067582 15.409029 -0.72383815 1 12
-1.1981866 14.827253 -0.77959651 28 11
-1.8801365 14.436755 1.7875797 53 29
-1.1955317 14.794399 1.2116798 50 28
-2.6868794 14.903168 -0.61695963 1 13
-0.47204679 14.855444 -0.51902533 19 14
-1.1778362 14.575422 2.6661386 21 30
-1.922147 14.759336 -0.34634164 22 16
-2.6094825 14.768957 -0.2617861 11 17
-1.1065238 14.315221 -0.41785643 20 15
-0.74697775 5.8963819 -1.6638192 1 1
-0.58521807 7.571032 -1.5187324 6 2
-1.8721234 14.777889 0 1 20
-0.4201861 14.857053 -0.17303306 50 18
-1.1564171 9.1283531 -1.43151 2 3
-0.84859818 10.97841 -1.4015774 3 4
-2.7441552 15.531169 0.091665506 2 21
-1.1464312 14.831509 -0.086458035 34 19
-1.5434659 12.183581 -1.3228629 3 5
-0.39261183 13.882073 -1.296384 2 6
-1.9515274 15.404676 0.36132309 1 24
-0.42029917 14.861051 0.17307964 117 22
-1.1011711 14.245974 -1.1664412 1 7
-2.6059928 14.749207 0.43589258 1 25
-1.1441184 14.801588 0.25913334 19 23
-1.1455003 14.819466 0.60556155 27 26
-1.1448793 14.811432 -0.77854973 11 11
-1.8262347 14.41566 1.7841673 46 29
-1.142035 14.774634 1.209727 26 28
-2.7488809 15.557914 -0.64366359 1 13
-0.41758531 14.765093 -0.51581454 4 14
-1.8403811 14.527328 3.923697 31 31
-1.1266443 14.575522 2.6654212 23 30
-1.9645945 15.507824 -0.36374247 52 16
-2.5510883 14.738569 -0.26108801 7 17
-1.0559554 14.311022 -0.41762373 19 15
-0.72591871 5.8951306 -1.6627408 1 1
-0.55907333 7.5769396 -1.5195168 6 2
-0.36851701 14.866426 -0.17312621 74 18
-1.1235777 9.1244898 -1.4302802 2 3
-0.81056035 10.985262 -1.4020823 3 4
-2.6517172 15.31994 0.090363637 2 21
-1.096709 14.863342 -0.086620763 28 19
-1.5023829 12.200737 -1.3241479 3 5
-0.34355608 13.859471 -1.2941533 2 6
-0.36802143 14.846434 0.17289338 146 22
-1.8975302 15.409698 -1.0856898 38 8
-1.0950891 14.841388 0.25976163 32 23
-1.7749293 14.414066 1.7831924 54 29
-1.0922112 14.802385 1.2116798 50 28
-2.5786726 14.897935 -0.61598265 1 13
-1.791073 14.545167 3.9268029 28 31
-1.0751762 14.571516 2.6639862 21 30
-1.8957841 15.395519 -0.36095089 38 16
-1.0065577 14.322596 -0.41785643 20 15
-0.70488024 5.8938036 -1.6616627 1 1
-0.53179818 7.5671072 -1.5171635 6 2
-1.8401591 15.386352 0 39 20
-0.31645423 14.859623 -0.17303306 63 18
-1.0893755 9.1087322 -1.4272057 2 3
-0.77193379 10.984066 -1.4015774 3 4
-1.0428599 14.839149 -0.086458035 19 19
-1.4607323 12.213804 -1.3250048 3 5
-0.29483926 13.844658 -1.2926662 2 6
-1.8387114 15.374248 0.36029953 26 24
-0.31636906 14.855624 0.17298651 110 22
-1.8413627 15.396417 -1.0842947 31 8
-1.0371839 14.758384 -1.2077743 9 7
-1.0432794 14.845119 0.25976163 23 23
-1.8389432 15.376186 0.90185255 18 27
-1.0428536 14.839061 0.60605007 5 26
-1.8424363 15.405394 -0.7227214 25 12
-1.0218458 14.540135 -0.76389569 3 11
-1.7236642 14.412289 1.7822174 52 29
-1.0405377 14.806108 1.2116798 53 28
-0.31611267 14.843585 -0.51846695 6 14
-1.0240328 14.571255 2.6632688 19 30
-1.7655808 14.762772 -0.34596944 17 16
-2.5739048 15.497316 -0.27421221 36 17
-0.96333271 14.389686 -0.41971824 5 15
-0.68355411 5.8808045 -1.6573493 1 1
-0.50670326 7.5688291 -1.5171635 6 2
-0.26681969 14.840596 -0.17280024 48 18
-1.0591658 9.1122952 -1.4272057 2 3
-0.73524219 10.982607 -1.4010723 3 4
-2.5762196 15.511253 0.091386542 28 21
-0.99471742 14.858491 -0.086551026 9 19
-1.419306 12.210681 -1.3241479 3 5
-0.24885829 13.841578 -1.2922944 2 6
-1.7904918 15.404094 0.36085784 13 24
-0.26717916 14.860592 0.17303306 110 22
-1.7907602 15.406403 -1.0845736 29 8
-0.98797417 14.757765 -1.207449 9 7
-2.5725524 15.489174 0.45695412 20 25
-0.99378127 14.844507 0.2596918 25 23
-2.4460688 14.727625 -0.95680487 17 9
-0.99310875 14.834462 0.60572439 8 26
-0.96322018 14.388005 -0.75573128 5 11
-1.6763231 14.421869 1.7827048 56 29
-0.99010456 14.789587 1.2100525 35 28
-2.5767467 15.514428 -0.64073265 37 13
-0.97597289 14.578497 2.6639862 19 30
-1.7937238 15.4319 -0.3615092 65 16
-0.93204695 14.732298 -0.429609 2 15
-0.6619966 5.8832703 -1.6573493 1 1
-0.47945571 7.578464 -1.5187324 6 2
-1.6593531 14.746939 0 4 20
-1.0262043 9.1200428 -1.4278204 2 3
-0.69448537 10.977306 -1.4000621 3 4
-2.5155084 15.496901 0.091247052 38 21
-0.9387396 14.838085 -0.086411543 27 19
-1.372766 12.199992 -1.3224344 3 5
-1.7326828 15.398631 0.36057869 31 24
-1.7329457 15.400967 -1.0837367 38 8
-0.93362916 14.757307 -1.2071234 11 7
-2.5144863 15.490603 0.4567214 15 25
-0.93734986 14.816118 0.25913334 20 23
-2.3888781 14.716788 -0.9555257 10 9
-0.14218846 9.9341488 -0.57859957 12 10
-1.7337922 15.40849 0.90301532 1 27
-0.93898672 14.841991 0.60588723 11 26
-1.7366359 15.433763 -0.72346592 3 12
-0.94226092 14.893744 -0.7821086 5 11
-1.6230123 14.423971 1.7822174 54 29
-0.93539119 14.785158 1.2094016 32 28
-2.5192292 15.519822 -0.64056987 22 13
-2.0166919 17.922665 4.8326693 2 31
-0.9222883 14.578049 2.6632688 21 30
-1.7353657 15.422475 -0.361137 61 16
-0.64331764 5.8930907 -1.659506 1 1
-0.45361587 7.5682664 -1.516379 5 2
-1.6134759 14.780194 0 1 20
-0.10915592 9.9267263 -0.11557268 17 18
-0.99509525 9.1155386 -1.4265908 2 3
-0.65878868 10.991432 -1.4015774 3 4
-0.89072204 14.86108 -0.08652778 52 19
-1.3322985 12.204477 -1.3224344 3 5
-0.10890976 9.9043407 -0.92460769 17 6
-1.6811714 15.400316 0.36048561 27 24
-0.10906797 9.9187279 0.11547954 18 22
-1.6809944 15.398695 -1.0831785 35 8
-0.88516003 14.768282 -1.2077743 9 7
-0.89084077 14.86306 0.25990126 51 23
-0.10889085 9.9026213 -0.57673913 23 10
-1.6467143 15.084674 0.88371319 1 27
-0.89095527 14.864971 0.60670137 15 26
-1.6633279 15.236861 -0.71397358 3 12
-0.89166725 14.87685 -0.78106189 7 11
-1.5743061 14.42138 1.7812425 54 29
-0.88730675 14.804098 1.2107035 55 28
-1.9601771 17.956139 4.8399162 2 31
-0.87370121 14.5771 2.6625514 21 30
-1.6820394 15.408268 -0.36067173 45 16
-2.406925 15.511984 -0.27400279 32 17
-0.62090468 5.8877487 -1.6573493 1 1
-0.42609209 7.5737948 -1.5171635 3 2
-0.072769381 9.9270601 -0.11557268 36 18
-0.96167606 9.1191244 -1.4265908 2 3
-0.6182729 10.989812 -1.4010723 3 4
-2.2845883 14.723558 0.086597517 1 21
-0.83489549 14.840282 -0.08638829 28 19
-1.288806 12.221144 -1.3237196 3 5
-0.072722048 9.9206028 -0.92609477 25 6
-1.5559314 14.75417 0.34522501 12 24
-1.6245401 15.404754 -1.0831785 33 8
-0.83079785 14.767447 -1.207449 9 7
-2.2873385 14.741282 0.43414715 1 25
-0.83613032 14.862232 0.25983143 85 23
-2.4090958 15.525974 -1.0069475 2 9
-0.072680488 9.9149332 -0.5774368 21 10
-1.6282651 15.440077 0.90417814 1 27
-0.83489108 14.840203 0.60556155 10 26
-1.6267431 15.425644 -0.72253531 3 12
-0.81805938 14.541019 -0.76326764 3 11
-1.520602 14.419158 1.7802675 54 29
-0.83258933 14.79929 1.2100525 48 28
-2.296828 14.80244 -0.61028361 1 13
-0.072759286 9.925683 -0.34662178 17 14
-1.8943466 17.963203 4.8399162 2 31
-0.82048482 14.584132 2.6632688 21 30
-1.624711 15.406376 -0.36048561 30 16
-2.2498541 14.823956 -0.26171628 20 17
-0.78620797 14.85291 -0.43286717 42 15
-0.60137796 5.8897753 -1.6573493 1 1
-0.40014634 7.5594978 -1.5140256 6 2
-1.5711976 15.387995 0 1 20
-0.039931983 9.9472466 -0.11580551 12 18
-0.93143255 9.1222639 -1.4265908 2 3
-0.58203793 10.995763 -1.4015774 3 4
-2.3569949 15.529892 0.091293551 2 21
-0.7873733 14.874926 -0.086574271 34 19
-1.2450428 12.1937 -1.3202926 3 5
-0.039841764 9.9247723 -0.92646652 13 6
-1.5723974 15.399744 0.36020648 28 24
-1.4883331 14.576436 -1.0245831 29 8
-0.78182566 14.770121 -1.207449 11 7
-0.78578687 14.844954 0.25948238 45 23
-0.039867137 9.9310932 -0.57836705 11 10
-1.5515039 15.195119 0.88952708 1 27
-0.78588885 14.846882 0.60572439 16 26
-1.5528553 15.208353 -0.71211231 3 12
-1.4719743 14.416221 1.7792926 48 29
-0.78266859 14.786044 1.2087507 22 28
-2.3610783 15.556796 -0.64105833 1 13
-1.8351642 17.97323 4.8409514 2 31
-0.77170455 14.578914 2.661834 21 30
-1.576053 15.435548 -0.36104393 91 16
-2.18379 14.752977 -0.2603201 5 17
-0.73176026 14.855693 -0.43286717 35 15
-0.5805397 5.8996062 -1.659506 1 1
-0.3732067 7.5765853 -1.5171635 5 2
-0.0050894553 14.58701 -0.16982013 31 18
-0.89760202 9.1216831 -1.4259758 2 3
-0.54133928 10.989898 -1.4005673 3 4
-2.1893573 14.790588 0.086899742 1 21
-0.73264813 14.873717 -0.086551026 44 19
-1.2026758 12.221928 -1.3228629 3 5
-1.5163316 15.409385 0.36029953 28 24
-1.5157826 15.403807 -1.0823414 33 8
-0.7274853 14.768905 -1.2071234 9 7
-2.1773436 14.709429 0.43275079 1 25
-0.0050797979 14.559331 -0.84789956 28 10
-1.4606014 14.84304 0.86859703 1 27
-0.73264307 14.873614 0.60670137 30 26
-1.5170556 15.416742 -0.72160465 3 12
-0.7332285 14.8855 -0.78106189 13 11
-1.4187338 14.41757 1.7788051 52 29
-0.72944671 14.808724 1.2103779 43 28
-2.1869941 14.774624 -0.60849249 1 13
-0.0050797267 14.559126 -0.50841588 36 14
-1.7711641 17.999063 4.846128 2 31
-0.71864843 14.589506 2.6632688 21 30
-1.5175064 15.421324 -0.36057869 71 16
-0.68231243 14.854042 -0.43275079 55 15
-0.5606094 5.8976641 -1.6584277 2 1
-0.34790125 7.5738621 -1.516379 4 2
-1.4663805 15.426462 0 3 20
-0.86697632 9.1206732 -1.4253609 2 3
-0.50434846 10.97974 -1.399052 3 4
-0.68240625 14.856085 -0.086434789 28 19
-1.1613897 12.21793 -1.3220061 3 5
0.040968455 13.807909 -1.2889484 2 6
0.043291751 14.590947 0.1698667 15 22
-1.4008827 14.737419 -1.0351861 29 8
-0.67832583 14.767253 -1.206798 7 7
-2.2453151 15.523822 0.45648867 1 25
-0.68231386 14.854073 0.25955218 112 23
-2.2479525 15.542056 -1.006436 2 9
0.043280691 14.587219 -0.84952742 26 10
-1.4691905 15.456023 0.90417814 1 27
-0.68203551 14.848014 0.60556155 16 26
-0.67726678 14.744198 -0.77352554 5 11
-1.3709185 14.422193 1.7788051 54 29
-0.68015516 14.807078 1.2100525 48 28
0.043019231 14.499098 -0.50632191 26 14
-1.7118362 18.00868 4.8471632 2 31
-0.67008626 14.587877 2.6625514 21 30
-1.4656053 15.418306 -0.36039257 33 16
-2.1866825 15.500134 -0.27323487 6 17
-0.63012207 14.848344 -0.43251806 60 15
-0.54142505 5.9149289 -1.6627408 1 1
-0.32162938 7.5789495 -1.5171635 5 2
-1.4125265 15.431487 0 3 20
0.094246201 14.594707 -0.16991326 46 18
-0.83477563 9.1197081 -1.424746 2 3
-0.46669421 10.997292 -1.4010723 3 4
-2.0802557 14.745737 0.086551026 1 21
-0.63088703 14.866369 -0.086481288 67 19
-1.1194617 12.22983 -1.3228629 3 5
0.089163944 13.807683 -1.2889484 2 6
-1.3509052 14.75829 0.34485281 2 24
-1.348343 14.7303 -1.034349 26 8
-0.62627035 14.757581 -1.2058216 7 7
-2.0833201 14.767459 0.43403077 1 25
-0.63029289 14.852369 0.25948238 103 23
0.094170518 14.582987 -0.8492949 45 10
-1.3864772 15.146906 0.8858062 1 27
-0.63003582 14.846311 0.60539871 18 26
-1.3414301 14.654778 -0.68549651 27 12
-0.63054109 14.858218 -0.77938718 16 11
-1.3205705 14.426891 1.7788051 56 29
-0.62829882 14.80538 1.209727 45 28
-2.1974852 15.576709 -0.64089549 1 13
0.093911223 14.542833 -0.5078575 14 14
-1.649672 18.022242 4.8492336 2 31
-1.4110507 15.415365 -0.36020648 53 16
-2.0274024 14.742986 -0.25976163 5 17
-0.57812828 14.846457 -0.43240169 46 15
-0.52111089 5.92062 -1.6638192 1 1
-0.29516992 7.5800261 -1.5171635 3 2
-1.2997285 14.766912 0 4 20
0.14531381 14.606287 -0.17005296 40 18
-0.80432045 9.1383162 -1.4272057 2 3
-0.42768312 10.982994 -1.399052 3 4
-2.1399322 15.561286 0.091293551 2 21
-0.57945281 14.880472 -0.086551026 89 19
-1.073972 12.20197 -1.3194357 3 5
0.13728555 13.799321 -1.2882049 2 6
0.14523423 14.598288 0.16995981 72 22
-1.3570874 15.418597 -1.0823414 29 8
-0.57521445 14.771629 -1.206798 7 7
-2.0301213 14.762757 0.4336817 1 25
-0.5775069 14.830501 0.25906351 84 23
-2.0241034 14.718996 -0.95219994 4 9
0.14519702 14.594548 -0.84999257 30 10
-0.57944882 14.880369 0.60670137 31 26
-1.3529721 15.371842 -0.71881282 19 12
-0.58006734 14.896253 -0.78127122 11 11
-1.2698511 14.427459 1.7783177 52 29
-0.57614517 14.795531 1.2087507 27 28
-2.1387389 15.552609 -0.63959289 1 13
0.14559306 14.634356 -0.51106822 16 14
-1.5877641 18.039438 4.8523397 2 31
-0.56715554 14.564674 2.6575291 4 30
-1.2667696 14.392449 -0.3361989 19 16
-0.52643871 14.852382 -0.43251806 50 15
-0.50011498 5.9185648 -1.6627408 1 1
-0.26829007 7.5692506 -1.5148101 3 2
-0.7710833 9.1253138 -1.424746 6 3
-0.38976151 10.996316 -1.4005673 3 4
-1.9772534 14.759901 0.086551026 1 21
-0.52693605 14.866414 -0.086458035 100 19
-1.0320392 12.213572 -1.3202926 3 5
0.18540351 13.794777 -1.2878331 2 6
-1.2525216 14.822851 -1.0402086 26 8
-0.52336198 14.765578 -1.206147 7 7
-2.0805016 15.530633 0.45602322 1 25
-0.52743143 14.880389 0.25990126 115 23
-2.0840111 15.556831 -1.0059242 2 9
-1.2504302 14.798101 0.86487615 35 27
-0.52636665 14.850348 0.60539871 38 26
-1.2528745 14.827027 -0.69312763 27 12
-0.52721328 14.874234 -0.78001517 5 11
-1.2184755 14.419935 1.7768552 50 29
-0.52548027 14.825342 1.2110289 66 28
-1.5251056 18.048719 4.853375 2 31
-0.51630807 14.566566 2.6575291 4 30
-1.2107953 14.329044 -0.33461702 20 16
-2.0242507 15.522182 -0.27323487 38 17
-0.4743458 14.846136 -0.43228534 68 15
-0.48070014 5.9356318 -1.6670542 1 1
-0.24199724 7.5740604 -1.5155945 4 2
-1.1998404 14.815495 0 49 20
0.24781621 14.63691 -0.17042546 3 18
-0.73986971 9.135829 -1.4259758 3 3
-0.3512556 10.993643 -1.4000621 3 4
-1.9205571 14.727047 0.086318545 1 21
-0.47453862 14.852171 -0.086365044 48 19
-0.99004996 12.225026 -1.3211492 3 5
0.23354574 13.794045 -1.2878331 2 6
-1.1985474 14.799528 0.34550416 22 24
0.24774849 14.632912 0.17037891 4 22
-1.2004608 14.823155 -1.0399295 30 8
-0.47170007 14.76333 -1.2058216 9 7
-1.9807878 15.188902 0.44578335 1 25
-0.47511297 14.870147 0.2596918 116 23
-2.0137033 15.441303 -0.99799353 2 9
0.24301982 14.35362 -0.83603919 59 10
-1.1987779 14.802375 0.86487615 41 27
-0.47453618 14.852095 0.60539871 40 26
-1.2017661 14.839274 -0.69349986 42 12
-0.46343613 14.504683 -0.76054621 3 11
-1.1684635 14.428056 1.7773427 52 29
-0.47310054 14.807161 1.2094016 50 28
0.24937385 14.728911 -0.5144186 6 14
-1.4617952 18.050083 4.8523397 2 31
-1.1614256 14.341154 -0.33480313 14 16
-1.9690452 15.521217 -0.27309525 32 17
-0.42251635 14.847701 -0.43228534 64 15
-0.45908383 5.9257522 -1.6638192 1 1
-0.21555538 7.5748591 -1.5155945 5 2
-1.1487314 14.82757 0 48 20
0.29866591 14.623959 -0.17028578 3 18
-0.70827812 9.1422968 -1.4265908 3 3
-0.31242415 10.978937 -1.3980418 3 4
-0.42302945 14.865732 -0.086434789 89 19
-0.94644582 12.216513 -1.3198642 3 5
0.28202346 13.809073 -1.2893202 2 6
-1.1484205 14.823557 0.34596944 42 24
0.2987476 14.627958 0.17033234 2 22
-1.1490153 14.831234 -1.0402086 35 8
-0.4199329 14.756916 -1.2051706 11 7
-0.42240331 14.843729 0.25920314 131 23
-1.1467882 14.802488 0.86464357 33 27
-0.42268592 14.853661 0.60539871 31 26
-1.1474872 14.811509 -0.69201088 12 12
-1.1183958 14.436006 1.7778301 46 29
-0.42072675 14.784813 1.207449 29 28
0.29940212 14.660006 -0.51204544 6 14
-1.4011623 18.085892 4.8606219 2 31
-1.1428607 14.751792 -0.34429449 13 16
-1.8967463 15.381132 -0.27051231 26 17
-0.37048912 14.841091 -0.43205261 27 15
-0.43981811 5.9465256 -1.6692107 0 1
-0.18911444 7.5755658 -1.5155945 3 2
-1.0954943 14.811543 0 19 20
-0.67636311 9.1447134 -1.4265908 3 3
-0.2741999 10.983928 -1.3985468 3 4
-0.37123868 14.871117 -0.086458035 102 19
-0.90409237 12.223709 -1.3202926 3 5
0.329555 13.780134 -1.2867178 2 6
-1.0969677 14.831464 0.34606248 18 24
-1.0972407 14.835155 -1.0402086 37 8
-1.8942751 15.361092 0.45043784 41 25
-0.37038994 14.837118 0.25906351 115 23
-1.8975483 15.387635 -0.99364448 42 9
0.35114527 14.682918 -0.85534137 12 10
-1.0945249 14.798437 0.86417842 37 27
-0.37083748 14.855045 0.60539871 30 26
-1.0671225 14.427945 1.7763678 50 29
-0.36981508 14.814091 1.209727 58 28
-1.8979086 15.390556 -0.63177705 43 13
-1.0843853 14.661345 3.9392259 1 31
-0.21281004 8.524766 1.5547693 11 30
-1.0633419 14.376829 -0.33545449 15 16
-1.8454187 15.407513 -0.27086136 56 17
-0.31842035 14.830303 -0.43170354 13 15
-0.41770306 5.9288125 -1.6638192 0 1
-0.16275179 7.580101 -1.516379 5 2
-1.046874 14.859168 0 69 20
0.40327355 14.713476 -0.17135675 11 18
-0.64388001 9.1391335 -1.4253609 4 3
-0.23602456 10.992751 -1.3995571 3 4
-1.8409116 15.369884 0.089968428 18 21
-0.31915084 14.864325 -0.086411543 78 19
-0.86141491 12.226789 -1.3202926 3 5
0.37765825 13.778899 -1.2867178 2 6
-1.0446235 14.827224 0.3458764 22 24
0.40239689 14.681491 0.17098424 9 22
-1.044324 14.822972 -1.0390924 17 8
-1.8411146 15.371579 0.45055419 13 25
-0.31885004 14.850316 0.25927296 110 23
-1.8423957 15.382275 -0.99287695 47 9
0.40480685 14.769419 -0.8604576 10 10
-1.0428581 14.802167 0.86417842 48 27
-0.31872007 14.844262 0.60491025 31 26
-1.0173072 14.439501 1.7773427 46 29
-0.31698549 14.763474 1.2054962 35 28
0.40404096 14.741475 -0.51497698 8 14
-1.0334687 14.668895 3.9402614 1 31
-1.0111798 14.35253 -0.33480313 21 16
-1.7897739 15.397972 -0.27058211 38 17
-0.26607209 14.799343 -0.43077263 17 15
-0.39623165 5.9187055 -1.6605843 0 1
-0.13607781 7.5688586 -1.5140256 6 2
-0.99392682 14.84677 0 51 20
0.45204028 14.628027 -0.17037891 13 18
-0.61250013 9.1492138 -1.4265908 3 3
-0.19771969 10.997477 -1.4000621 3 4
-0.26625216 14.809358 -0.086086072 24 19
-0.81846124 12.225755 -1.3198642 3 5
0.42563397 13.773519 -1.2863461 2 6
-0.99312365 14.834772 0.34596944 18 24
0.45228738 14.636023 0.17047204 15 22
-0.95285833 14.23331 -0.99751759 6 8
-0.26614419 14.803353 0.25843525 38 23
-1.7882252 15.384647 -0.99262106 40 9
0.4517996 14.620238 -0.85185295 10 10
-0.99064517 14.79775 0.86371338 37 27
-0.26632336 14.813318 0.60360765 20 26
-0.26617897 14.805287 -0.77603763 16 11
-0.96609831 14.431082 1.7758802 50 29
-1.791793 15.415342 -0.63226551 3 13
0.45154858 14.612115 -0.51050985 16 14
-0.98302877 14.68398 3.9433672 1 31
-0.15342817 8.5339127 1.5562043 36 30
-0.9637413 14.395874 -0.33573365 6 16
-0.14369576 9.9187603 -0.28869447 3 15
-0.37654582 5.9354281 -1.6648974 0 1
-0.1096015 7.5653653 -1.5132412 6 2
-0.94108588 14.834179 0 46 20
0.50254571 14.610369 -0.17019264 15 18
-0.58006114 9.1434059 -1.4253609 4 3
-1.7367003 15.410186 0.090131164 2 21
-0.14415976 9.9507885 -0.057840172 13 19
-0.77603477 12.232506 -1.3202926 3 5
0.47357002 13.767965 -1.2859741 2 6
-0.94209719 14.85012 0.3462486 40 24
-0.14397296 9.9378948 -0.81136656 16 7
-1.6607697 14.736434 0.43158716 1 25
-0.14385056 9.9294462 0.1733373 15 23
-1.7264683 15.319395 -0.98801619 27 9
0.50296515 14.622561 -0.85208559 10 10
-0.93924123 14.805101 0.8639459 39 27
-0.14398481 9.9387131 0.40495607 11 26
-0.14419606 9.9532948 -0.52168489 8 11
-0.91597295 14.438328 1.7763678 46 29
-1.7379756 15.421502 -0.63226551 3 13
0.5026859 14.614444 -0.51064944 18 14
-0.94326639 14.868549 3.9920251 1 31
-0.12358311 8.5304623 1.5554868 36 30
-0.94133759 14.838146 -0.34596944 6 16
-0.35743666 5.9636221 -1.6724457 0 1
-0.083277024 7.5735459 -1.5148101 6 2
-0.88977402 14.84536 0 52 20
0.55339491 14.604529 -0.17014609 16 18
-0.54813874 9.1453753 -1.4253609 4 3
-0.10889657 9.9034901 -1.260662 15 4
-1.609102 14.740182 0.086179063 1 21
-0.73261368 12.223231 -1.3190074 3 5
0.52147925 13.762249 -1.2856025 2 6
-0.88977247 14.845334 0.34606248 58 24
0.55369776 14.612522 0.17023921 20 22
-0.88975519 14.845045 -1.0399295 43 8
-0.10897288 9.9104309 -0.80908835 30 7
-1.6809086 15.397966 0.45078692 2 25
-0.10918683 9.9298878 0.1733373 47 23
-1.6790438 15.380883 -0.99159777 40 9
0.55400831 14.620717 -0.85208559 10 10
-0.8877911 14.812276 0.86417842 34 27
-0.10918556 9.9297724 -0.52042878 18 11
-0.86532688 14.437473 1.7758802 50 29
-0.10875373 9.8904991 0.80746108 31 28
0.55354935 14.608604 -0.51050985 16 14
-0.89228046 14.887178 3.9961662 1 31
-0.093846492 8.5347757 1.5562043 36 30
-1.6267608 15.39996 -0.27030286 44 17
-0.0738208 9.8355589 -0.28625086 31 15
-0.33770683 5.9840622 -1.6778371 0 1
-0.056845095 7.5737906 -1.5148101 6 2
-0.83795881 14.848375 0 84 20
0.60469151 14.610501 -0.17023921 15 18
-0.51644105 9.1511784 -1.4259758 2 3
-0.074481979 9.9236507 -1.2631874 22 4
-0.074481249 9.9235535 -0.057677437 20 19
-0.68972641 12.221743 -1.318579 3 5
0.56934106 13.756368 -1.2852308 2 6
-0.83705604 14.832379 0.34569028 33 24
0.60469151 14.610501 0.17023921 20 22
-0.83749139 14.840094 -1.0393715 39 8
-0.074445009 9.918725 -0.80973929 20 7
-1.6271601 15.403739 0.45078692 2 25
-0.074411131 9.9142122 0.17305806 24 23
-1.5444225 14.620493 -0.94222254 26 9
0.60470033 14.610715 -0.85162044 10 10
-0.83541632 14.803324 0.86348075 44 27
-0.074480757 9.9234886 0.40430474 27 26
-0.074500352 9.9260988 -0.52021945 16 11
-0.81493533 14.440407 1.7758802 46 29
-0.074445009 9.918725 0.80973929 15 28
0.60452938 14.606585 -0.51050985 16 14
-0.8411901 14.905633 4.0003071 1 31
-0.063971244 8.5232477 1.5540519 36 30
-0.83750671 14.840364 -0.3458764 22 16
-1.5729909 15.405544 -0.27030286 42 17
-0.039645735 9.8757401 -0.28741446 17 15
-0.31376076 5.9275064 -1.6616627 0 1
-0.030421015 7.5778646 -1.5155945 6 2
-0.78654212 14.859199 0 82 20
0.65551263 14.604306 -0.17019264 15 18
-0.48407403 9.145031 -1.424746 2 3
-0.039918516 9.9436893 -1.2657127 11 4
-1.5727975 15.403651 0.089991681 2 21
-0.039934829 9.947753 -0.057816923 10 19
-0.64663666 12.216133 -1.3177222 3 5
0.61682427 13.74236 -1.2841153 2 6
-0.78632927 14.855178 0.34615555 78 24
0.65587127 14.612296 0.17028578 20 22
-0.78589159 14.84691 -1.0396504 42 8
-0.039931126 9.9468307 -0.8120175 8 7
-0.039897311 9.9384069 0.17347692 8 23
-1.4949961 14.64168 -0.94324589 16 9
0.65623873 14.620482 -0.85231811 10 10
-0.78352296 14.802162 0.86324823 35 27
-0.039822176 9.9196911 0.40414193 12 26
-0.78695738 14.867043 -0.69349986 11 12
-0.039960947 9.9542589 -0.52168489 10 11
-0.76452005 14.443163 1.7758802 50 29
-0.058528312 14.579383 1.1901996 11 28
-1.5772041 15.446808 -0.63259119 3 13
0.65605396 14.616366 -0.51092863 18 14
-0.78894639 14.90462 3.9992721 1 31
-0.034216899 8.5234184 1.5540519 35 30
-0.78802025 14.887124 -0.34689996 46 16
-1.5184171 15.402981 -0.27016324 28 17
-0.0076274998 14.569831 -0.42402366 22 15
-0.0039589307 7.5622358 -1.5124567 7 2
-0.73150522 14.797933 0 30 20
0.70668435 14.605924 -0.17023921 15 18
-0.45195141 9.1427183 -1.4241312 2 3
-1.5186228 15.405067 0.089968428 4 21
-0.0076452582 14.603753 -0.084877193 35 19
-0.60379088 12.214344 -1.3172938 3 5
0.66479397 13.740123 -1.2841153 2 6
-0.73407137 14.849845 0.34596944 96 24
0.70687765 14.609918 0.17028578 20 22
-0.73366356 14.841594 -1.0390924 47 8
-0.0076442226 14.601775 0.25487494 10 23
-1.5171056 15.389677 -0.99108607 31 9
0.7076596 14.62608 -0.8527832 10 10
-0.73184508 14.804808 0.86324823 39 27
-0.0076327734 14.579905 0.5940007 32 26
-0.73406661 14.849748 -0.69256926 4 12
-0.0076328176 14.579989 -0.76410502 7 11
-0.71350747 14.433848 1.7744178 52 29
-1.5134687 15.352784 -0.62852049 3 13
0.7072677 14.61798 -0.51106822 16 14
-0.0044662775 8.5313559 1.5554868 25 30
-0.73466372 14.861827 -0.3462486 33 16
-1.4646446 15.408187 -0.27016324 54 17
0.043251414 14.577765 -0.42425635 48 15
0.022436636 7.5622034 -1.5124567 8 2
-0.68241912 14.856336 0 81 20
0.75745392 14.599373 -0.17019264 16 18
-0.41967383 9.136343 -1.4229013 2 3
0.032551616 10.971429 -1.3965266 3 4
0.043352067 14.61169 -0.084923685 35 19
-0.56170124 12.228295 -1.318579 4 5
0.71316171 13.745672 -1.2848588 2 6
-0.68223441 14.852315 0.34596944 100 24
0.75786835 14.607361 0.17028578 20 22
-0.6633625 14.441472 -1.0109109 13 8
0.042653125 14.376114 -1.1736013 65 7
-1.4638695 15.400032 0.45020512 2 25
0.75870675 14.62352 -0.8527832 10 10
-0.68034858 14.81126 0.86348075 44 27
0.043257579 14.579843 0.5940007 26 26
-0.66312265 14.43625 1.7744178 50 29
0.043232717 14.571464 1.1895487 53 28
0.75849372 14.619414 -0.51120782 17 14
-0.66944909 14.573977 3.9092031 31 31
0.025241898 8.5077095 1.551182 10 30
-0.68223441 14.852315 -0.34596944 22 16
-1.4135443 15.412959 -0.27016324 62 17
0.09158989 14.57754 -0.42425635 37 15
0.047561467 7.569932 -1.5140256 7 2
-0.63264203 14.846528 0 97 20
0.80608064 14.600775 -0.17023921 16 18
-0.38937613 9.1376848 -1.4229013 2 3
0.068857044 10.959357 -1.3950114 3 4
-1.4086214 15.359282 0.089642964 4 21
0.091777913 14.607467 -0.084900439 38 19
-0.51962626 12.19433 -1.3147235 3 5
0.7585178 13.739255 -1.2844871 2 6
-0.63213032 14.834519 0.34550416 76 24
0.80630106 14.604767 0.17028578 20 22
-0.61428291 14.415686 -1.0089576 14 8
0.091614716 14.581491 0.2545259 48 23
-1.4115943 15.391697 -0.99057448 40 9
0.80763322 14.628898 -0.8532483 7 10
-0.63123184 14.813435 0.86348075 46 27
0.091803826 14.611591 0.5953033 58 26
-0.63433832 14.886335 -0.69405824 12 12
0.091703869 14.595682 -0.76494241 46 11
-0.61524957 14.43837 1.7744178 50 29
0.091600396 14.579212 1.1901996 37 28
-1.4129528 15.406509 -0.63031161 7 13
0.80674601 14.612826 -0.51106822 16 14
-0.61980331 14.545235 3.9009209 30 31
0.053452652 8.5075788 1.551182 16 30
-0.63332212 14.862488 -0.34615555 38 16
-1.3038656 14.784356 -0.25906351 15 17
0.14255647 14.58513 -0.42448908 27 15
0.07417886 7.5893307 -1.5179479 10 2
-0.58096647 14.852643 0 87 20
0.85751468 14.605859 -0.17033234 16 18
-0.35747483 9.1389885 -1.4229013 2 3
0.10723117 10.970954 -1.3965266 3 4
0.14312264 14.643055 -0.085109673 21 19
-0.47689825 12.192096 -1.3142951 3 5
0.80600893 13.728573 -1.2837435 3 6
-0.58159083 14.868604 0.3462486 99 24
0.8577491 14.609851 0.17037891 20 22
-0.56379926 14.413756 -1.0086787 11 8
-1.3035122 14.78035 0.43181989 20 25
0.8579945 14.614032 -0.85255063 7 10
-0.57920343 14.807569 0.86301571 44 27
0.1428111 14.611181 0.5953033 20 26
-0.58236748 14.888459 -0.69405824 12 12
-0.56484264 14.440431 1.7744178 54 29
0.85798758 14.613914 -0.51120782 17 14
-0.58237231 14.888582 -0.34671384 65 16
0.099193648 7.5772762 -1.5155945 9 2
-0.53113377 14.838497 0 91 20
0.9061963 14.606926 -0.17037891 15 18
-0.32716441 9.1401234 -1.4229013 2 3
0.1434588 10.958634 -1.3950114 3 4
-1.2556738 14.798572 0.086318545 37 21
-0.43631959 12.189635 -1.3138667 3 5
0.85178041 13.729799 -1.2841153 2 6
-0.53156221 14.850467 0.34578332 110 24
0.9061963 14.606926 0.17037891 20 22
-0.51570898 14.40757 -1.0081205 13 8
-1.2544875 14.784592 0.43181989 43 25
-1.2247744 14.434412 -0.92840773 4 9
0.90695006 14.619076 -0.85301578 7 10
-0.53009248 14.809407 0.86301571 41 27
-0.53241658 14.874335 -0.69331372 9 12
0.18818273 14.375039 -0.75342852 108 11
-0.51680738 14.438255 1.7739303 54 29
0.19110389 14.598183 1.1918269 3 28
0.90694326 14.618966 -0.51148707 17 14
-0.51980811 14.522088 3.8936739 3 31
0.1918236 14.65316 2.6718786 4 30
-0.53199136 14.862456 -0.34606248 32 16
-1.2061192 14.828765 -0.2596918 56 17
0.24295816 14.651783 -0.42646724 2 15
0.12557605 7.5729628 -1.5148101 9 2
0.95769864 14.611656 -0.17047204 15 18
-0.29538694 9.1451607 -1.4235162 2 3
0.18177418 10.962035 -1.3955165 3 4
-1.2030399 14.790906 0.086248808 26 21
0.24332218 14.673736 -0.085295655 2 19
-0.3935129 12.183134 -1.3130099 3 5
0.90021926 13.734691 -1.2848588 2 6
-0.47946614 14.84424 0.34559724 100 24
0.95743704 14.607665 0.17042546 20 22
-0.46451536 14.381365 -1.0061674 13 8
0.24337882 14.677151 -1.198336 3 7
-1.2038476 14.800837 0.43216899 47 25
0.24255984 14.627761 0.25536361 2 23
0.95823276 14.619805 -0.8532483 10 10
-0.47826898 14.807178 0.86278313 50 27
0.24252823 14.625855 0.59595466 3 26
-0.47997937 14.86013 -0.69256926 4 12
-0.46640834 14.439972 1.7739303 56 29
0.24172632 14.577497 1.1901996 3 28
0.95822591 14.619701 -0.51162666 17 14
-0.46949065 14.5354 3.8967798 3 31
0.2441428 14.723224 2.684793 4 30
-0.47985339 14.856231 -0.3458764 23 16
-1.151145 14.82511 -0.25955218 46 17
0.29770702 14.702762 -0.42797995 4 15
0.15332983 7.5724516 -1.5148101 10 2
-0.42517436 14.849916 0 108 20
1.0109671 14.604057 -0.17042546 15 18
-0.26164207 9.1382809 -1.4222864 2 3
0.22186807 10.957328 -1.3950114 3 4
-1.1497526 14.807178 0.086318545 39 21
0.29701826 14.668746 -0.085272409 2 19
-0.34897336 12.188471 -1.3134383 3 5
0.95055038 13.731298 -1.2848588 2 6
-0.42563152 14.865883 0.34606248 117 24
1.0109671 14.604057 0.17042546 18 22
0.29676485 14.656232 -1.1967088 5 7
-1.1480473 14.785217 0.43158716 22 25
0.29649225 14.642769 0.25564286 3 23
-1.1486541 14.793032 -0.95092082 10 9
1.0120832 14.620179 -0.85348088 7 10
-0.42411229 14.812821 0.86301571 45 27
0.29564434 14.600894 0.59497768 2 26
-0.41659462 14.550255 -0.67805153 9 12
-0.41336963 14.437616 1.7734429 58 29
0.29611918 14.624344 1.194105 3 28
1.0115241 14.612103 -0.51148707 14 14
-0.41687927 14.560196 3.9029913 4 31
0.29602996 14.619938 2.6661386 6 30
-0.42586043 14.873878 -0.3462486 40 16
-1.0979062 14.809095 -0.25920314 20 17
0.17985679 7.5757909 -1.5155945 9 2
-0.37272882 14.827317 0 100 20
1.0631032 14.616398 -0.17061172 16 18
-0.2299381 9.1470394 -1.4235162 2 3
0.25964695 10.936652 -1.3924861 4 4
-1.0986464 14.819079 0.086365044 30 21
-0.30602252 12.173712 -1.3117247 3 5
0.99847943 13.727898 -1.2848588 2 6
-0.37343186 14.855285 0.34578332 129 24
1.0625229 14.608418 0.17051859 13 22
-0.36109141 14.364376 -1.0047722 39 8
-1.0961307 14.785147 0.43147081 6 25
-1.0978913 14.808894 -0.95168829 14 9
1.0634046 14.620541 -0.85371345 7 10
-0.37239939 14.814212 0.86301571 52 27
-0.36306635 14.44294 1.7739303 58 29
-1.0702735 14.436373 -0.58976716 4 13
1.0631075 14.616457 -0.5117662 14 14
-0.36527151 14.530662 3.8947091 3 31
0.35024068 14.752572 2.6905329 6 30
-0.37393436 14.875275 -0.3462486 40 16
-1.0504892 14.836592 -0.25962201 33 17
0.39767069 14.696398 -0.4278636 8 15
0.20508261 7.5790744 -1.516379 11 2
-0.32417139 14.856464 0 103 20
1.1106541 14.600826 -0.17047204 9 18
-0.19969223 9.1517038 -1.4241312 6 3
0.2963399 10.951597 -1.3945063 4 4
-1.0497839 14.826632 0.08638829 35 21
0.39869788 14.734359 -0.085667618 8 19
-0.2658273 12.182611 -1.3125815 3 5
1.0436926 13.72054 -1.2844871 2 6
-0.32443261 14.868436 0.34606248 129 24
1.1115643 14.612792 0.17061172 9 22
0.39867675 14.733579 -1.203218 3 7
-1.0499222 14.828585 0.43263441 10 25
0.39734572 14.684389 0.25641075 6 23
-1.0448331 14.756708 -0.94810665 6 9
1.1115764 14.612951 -0.85348088 10 10
-0.32336169 14.819358 0.86324823 66 27
0.39967141 14.770338 0.60197932 2 26
0.39956281 14.766324 -0.77415353 9 11
-0.31499949 14.436126 1.7729553 66 29
0.39770618 14.697711 1.2002888 4 28
-1.0288901 14.531537 -0.59351224 3 13
1.1139945 14.64474 -0.51288301 17 14
-0.31717128 14.535656 3.8957446 4 31
-0.32434538 14.864438 -0.34596944 11 16
-0.99842095 14.836179 -0.25955218 33 17
0.44689637 14.626979 -0.42588541 9 15
0.23153928 7.5783119 -1.516379 10 2
-0.27150041 14.813513 0 61 20
-0.16788802 9.1602488 -1.4253609 4 3
0.33456922 10.950496 -1.3945063 4 4
-0.99801898 14.830206 0.08638829 41 21
0.44683376 14.624929 -0.085039929 12 19
-0.22329718 12.183465 -1.3125815 3 5
1.0912675 13.712843 -1.2841153 2 6
-0.2716468 14.8215 0.34494585 101 24
-0.26264957 14.330595 -1.002261 3 8
-0.99761349 14.82418 0.43240169 13 25
0.44701752 14.630943 0.25550324 24 23
-0.95846862 14.242501 -0.91484874 3 9
-0.27126071 14.800434 0.86208546 30 27
0.44696084 14.629088 -0.76703584 13 11
-0.2645295 14.433167 1.7724679 86 29
0.44572502 14.58864 1.1915015 13 28
-0.98030221 14.56694 -0.59481484 4 13
-0.26642656 14.536674 3.8957446 4 31
0.4458434 14.592515 2.661834 14 30
-0.27223301 14.853484 -0.34569028 26 16
-0.94535697 14.819616 -0.25920314 24 17
0.49685994 14.593363 -0.42495453 13 15
0.25772262 7.5696173 -1.5148101 12 2
1.2393879 14.915581 -0.17424373 48 18
-0.13585505 9.156826 -1.424746 4 3
0.37238422 10.937364 -1.3929911 4 4
-0.94650364 14.837591 0.086411543 35 21
0.49774241 14.619282 -0.085016675 13 19
1.1391246 13.70895 -1.2841153 2 6
1.2383943 14.903623 0.17410405 54 22
-0.14763193 9.9506054 -0.69589061 9 8
0.49799973 14.62684 -1.194756 7 7
0.49753895 14.613306 0.25522399 14 23
1.2396901 14.919217 -0.87185282 42 10
-0.14720894 9.9220953 0.5779019 9 27
0.49720228 14.603417 0.5953033 17 26
-0.14777285 9.960103 -0.46400836 8 12
0.49761239 14.615463 -0.76640785 13 11
0.49691442 14.594963 1.1921524 8 28
1.2380549 14.899538 -0.52209651 46 14
-0.21585751 14.549107 3.8988504 4 31
0.49690893 14.594802 2.6625514 17 30
-0.14741847 9.9362173 -0.23123562 13 16
-0.89151728 14.830966 -0.25934276 15 17
0.55064207 14.599435 -0.42518726 12 15
0.28561106 7.5725412 -1.5155945 12 2
1.2936989 14.906955 -0.17419718 50 18
-0.10220641 9.1493578 -1.4235162 3 3
0.41231716 10.93196 -1.3924861 4 4
-0.89259803 14.848946 0.086458035 67 21
0.55161971 14.625354 -0.085063174 13 19
1.1897042 13.708651 -1.2844871 3 6
-0.11046558 9.8887062 0.23011898 15 24
1.2926613 14.895 0.17405748 16 22
-0.11102862 9.9391088 -0.69505352 18 8
0.55115235 14.612965 -1.1937797 7 7
-0.8912757 14.826948 0.43228534 51 25
0.55079132 14.603392 0.2550844 13 23
-0.8922227 14.842702 -0.95296741 14 9
-0.11088844 9.9265594 0.57813448 23 27
0.55087048 14.60549 0.59546614 30 26
0.55132467 14.617532 -0.76661718 15 11
0.55040103 14.593044 1.1921524 8 28
-0.89043432 14.812951 -0.60458457 14 13
-0.16249095 14.545936 3.897815 4 31
0.55024666 14.588951 2.661834 17 30
-0.11037625 9.8807087 -0.22993289 32 16
0.60193348 14.605413 -0.42541996 12 15
0.31204444 7.5714984 -1.5155945 12 2
-0.076087676 9.9077091 0 52 20
1.3464494 14.910315 -0.17429031 52 18
-0.070296481 9.1536121 -1.4241312 3 3
0.45031384 10.92649 -1.3919809 4 4
