# .PCD v0.7 - Point Cloud Data file format
VERSION 0.7
FIELDS x y z intensity ring
SIZE 4 4 4 4 2
TYPE F F F F U
COUNT 1 1 1 1 1
WIDTH 1351
HEIGHT 1
VIEWPOINT 0 0 0 1 0 0 0
POINTS 1351
DATA ascii
30.479931 24.506517 0.68266833 6 23
18.543604 13.47273 -1.334872 4 10
49.122993 39.495937 2.5679784 32 26
9.5704079 8.497015 -0.59615678 10 12
20.278595 16.304424 -1.3636658 4 11
30.336897 24.391514 3.1777713 10 28
11.21363 10.981208 -0.63943005 15 13
28.023438 20.360239 -1.2096165 9 14
9.5577011 8.485733 3.4246936 2 31
30.299917 24.361782 7.0886574 17 30
4.3298259 3.8199434 -1.6163739 1 1
6.3159761 5.0455894 -1.6167911 2 2
9.6014652 8.4707918 0 20 20
7.6793766 6.7750497 -1.5932312 1 3
9.6819143 7.7345076 -1.5773427 5 4
11.305949 11.00224 0.09168876 14 21
9.6088705 8.4773254 -1.3802669 5 5
12.468707 8.9993372 -1.4354284 2 6
9.6018658 8.4711456 0.29795429 18 24
9.6020145 8.4712763 -0.89539409 5 8
13.175809 10.525646 -1.3766869 2 7
18.595556 13.421413 -1.3355697 4 10
30.361233 24.254417 1.5831877 7 26
9.6060467 8.4748335 -0.59671515 4 12
20.323479 16.235643 -1.363247 4 11
9.5894403 8.4601831 1.5701648 8 29
30.357315 24.251287 3.1719129 10 28
28.071062 20.260397 -1.2089187 9 14
9.5959053 8.4658861 3.4288349 3 31
30.317892 24.219795 7.0750251 17 30
9.6078625 8.4764357 -0.29814041 4 16
25.668354 20.359095 -0.95347136 26 15
4.3460307 3.8073452 -1.6174523 2 1
6.3212566 5.0137639 -1.6136533 2 2
9.627965 8.4345903 0 10 20
7.700006 6.7455993 -1.5926164 2 3
9.7399397 7.7253242 -1.5823934 5 4
11.373046 10.990506 0.091921233 6 21
30.285553 24.021269 -0.22466536 15 19
9.6533594 8.4568377 -1.3824089 1 5
12.51623 8.9673576 -1.4372872 2 6
9.6464157 8.4507542 0.29841956 6 24
30.64415 21.955257 0.43886885 26 22
13.234332 10.496934 -1.3789651 4 7
30.209421 29.193306 1.222617 17 25
30.275185 24.013044 0.67450064 11 23
13.253093 12.807316 -1.181168 27 9
18.645536 13.35875 -1.3358023 4 10
20.358116 16.14723 -1.3617817 4 11
9.6338434 8.4397402 1.5726022 3 29
30.285601 24.021307 3.1556399 10 28
13.206048 12.761853 -0.74819988 2 13
28.222849 20.220495 -1.2124085 9 14
9.6050529 8.4145184 3.4215879 2 31
30.226513 23.974442 7.0341296 17 30
13.111633 12.578 -0.31714514 2 17
4.3570499 3.7888618 -1.6163739 1 1
6.339592 4.9905596 -1.6136533 2 2
30.398432 21.611032 -0.43421245 7 18
7.7157311 6.709549 -1.5907717 2 3
9.8024874 7.7165689 -1.5879492 5 4
30.263397 23.823502 -0.2238517 15 19
10.200467 8.8702593 -1.4560916 4 5
12.539277 8.9144964 -1.4361719 2 6
30.483189 21.671288 0.43542311 13 22
14.588428 12.686001 -1.3518804 2 8
13.278985 10.453286 -1.3796161 4 7
30.229664 28.999338 1.2191261 17 25
30.237299 23.802958 0.67170823 11 23
13.328756 12.786286 -1.1837263 13 9
18.694376 13.290317 -1.3358023 4 10
30.267084 23.826405 1.5693473 15 26
20.401474 16.060146 -1.3607351 4 11
9.7336187 8.4642906 1.583814 3 29
30.226215 23.794231 3.1403434 20 28
28.303291 20.121542 -1.2126877 9 14
9.6154213 8.3615074 3.414341 2 31
30.205963 23.778292 7.0090175 17 30
4.3731656 3.7761462 -1.6174523 1 1
6.3631554 4.9732289 -1.6152221 2 2
30.299465 26.163019 0 25 20
30.39526 21.449436 -0.43309489 15 18
7.7331238 6.6774068 -1.5895418 1 3
9.86063 7.7067375 -1.5929999 5 4
13.212272 12.58627 0.10605581 2 21
30.248678 23.641354 -0.22313102 7 19
10.243411 8.8449926 -1.4578052 4 5
12.580083 8.8775578 -1.4372872 2 6
30.294294 26.158554 0.93136311 20 24
30.39526 21.449436 0.43309489 12 22
14.590344 12.598488 -1.3479742 2 8
13.337384 10.424052 -1.3818944 2 7
30.232286 28.79987 1.2151698 16 25
30.250885 23.643078 0.67017239 17 23
18.724346 13.213464 -1.3346394 4 10
30.260303 26.129202 2.3283515 22 27
30.271353 23.659075 1.5652766 15 26
20.383413 17.600695 -1.2544791 8 12
20.441679 15.976531 -1.3596883 4 11
9.7570992 8.4250708 1.5828393 3 29
30.236849 23.632107 3.1328578 20 28
13.262313 12.633941 -0.74624592 7 13
28.311306 19.978823 -1.2100353 9 14
30.249622 26.11998 10.708898 15 31
30.214378 23.614546 6.9917984 17 30
13.09818 12.394997 -0.31477162 12 17
30.229303 23.465158 -1.1137019 8 15
4.3885865 3.7641313 -1.6185305 1 1
6.373415 4.9472919 -1.6136533 2 2
30.328367 26.012922 0 24 20
30.331919 21.254419 -0.43118572 15 18
7.7552233 6.6517267 -1.5895418 2 3
9.9174747 7.6983285 -1.5980506 3 4
30.257393 23.486961 -0.22261955 14 19
10.287778 8.8239231 -1.4599471 4 5
12.599667 8.8289366 -1.4361719 2 6
30.338375 26.021505 0.93006039 19 24
30.348299 21.265898 0.43141857 12 22
14.613866 12.534449 -1.3463 2 8
13.381324 10.387102 -1.3828707 2 7
30.36537 28.735189 1.2166824 16 25
30.243816 23.476423 0.66828758 11 23
18.790951 13.167342 -1.3362674 4 10
30.28616 25.976721 2.3237007 11 27
30.25808 23.487494 1.5605545 14 26
20.450764 17.54081 -1.2550375 8 12
20.494543 15.908659 -1.3596883 4 11
9.7879953 8.3952541 1.5833267 3 29
30.230015 23.46571 3.1240706 20 28
22.108721 20.921803 -1.2401067 7 13
28.383947 19.889421 -1.2103145 9 14
30.268616 25.961672 10.685085 30 31
30.208584 23.449074 6.9724264 17 30
13.144279 12.351942 -0.31484142 25 17
30.336359 23.379028 -1.114633 8 15
4.3841033 3.7338059 -1.6120608 2 1
6.3968573 4.9298038 -1.6152221 1 2
30.492065 25.969152 0 25 20
30.287712 21.066202 -0.4295094 15 18
7.7693663 6.61693 -1.587697 1 3
9.988286 7.697576 -1.6051217 3 4
13.303462 12.50153 0.1061023 7 21
30.329685 23.373884 -0.22254983 14 19
10.333652 8.8008537 -1.4620889 4 5
12.630406 8.7849054 -1.4361719 1 6
30.505125 25.980276 0.9323867 20 24
30.297562 21.073051 0.42964911 12 22
14.599811 12.434209 -1.3409984 2 8
13.423815 10.345201 -1.3835217 4 7
30.544155 28.702955 1.2198243 17 25
30.322405 23.368275 0.66821772 11 23
13.314264 12.511682 -1.1709347 3 9
18.843351 13.106234 -1.3367324 4 10
30.252001 25.764696 2.3141656 11 27
30.295557 23.347582 1.5582749 14 26
20.551411 17.503002 -1.2574571 8 12
20.55311 15.839466 -1.3598976 4 11
9.8655996 8.4022274 1.5911263 1 29
30.283314 23.338148 3.1211414 20 28
28.449917 19.787949 -1.210175 9 14
30.382582 25.875908 10.693368 15 31
30.287128 23.341087 6.9717088 17 30
26.054178 22.189541 -0.79634386 12 16
13.262578 12.371882 -0.31658667 15 17
26.652069 20.384415 -0.97651106 6 15
4.4124684 3.7301447 -1.6174523 2 1
6.4024229 4.8967919 -1.6120843 0 2
30.657309 25.916605 0 12 20
30.295595 20.907335 -0.42853156 15 18
7.7905498 6.585855 -1.5870821 1 3
10.003828 7.6512699 -1.6031015 3 4
13.349196 12.452682 0.1061023 7 21
30.539066 23.357323 -0.22345647 15 19
10.368881 8.7654848 -1.4625175 4 5
12.672356 8.7453375 -1.4372872 2 6
30.658175 25.917336 0.93415469 10 24
30.292305 20.905064 0.42848504 25 22
14.605675 12.34712 -1.3373711 2 8
13.47431 10.305614 -1.3848234 4 7
30.73687 28.672625 1.2233151 8 25
30.5254 23.34687 0.67080069 11 23
18.887978 13.034808 -1.3364999 4 10
30.266949 25.586607 2.3081193 11 27
30.485697 23.316505 1.5636482 15 26
20.627634 17.437872 -1.2582016 4 12
20.607859 15.761596 -1.3596883 4 11
30.349657 23.212456 3.1191888 10 28
13.341278 12.445297 -0.74331498 23 13
28.509094 19.67445 -1.2096165 9 14
30.568697 25.841696 10.725462 15 31
30.506889 23.332712 7.0025601 17 30
13.371005 12.390351 -0.31819227 15 17
26.776834 20.339449 -0.97860563 6 15
4.4189143 3.7105365 -1.6152955 1 1
6.4342442 4.8873954 -1.6160066 0 2
30.620556 25.711901 0 12 20
30.295477 20.759268 -0.42755371 15 18
7.8002405 6.5498161 -1.5846225 1 3
10.025986 7.6156507 -1.6025963 5 4
13.416826 12.432812 0.10631154 5 21
30.664137 23.292208 -0.2238052 7 19
10.413121 8.7438364 -1.4646593 4 5
12.698004 8.7010107 -1.4369154 2 6
30.63677 25.725515 0.93089783 10 24
30.298775 20.761528 0.42760029 25 22
14.631262 12.285785 -1.335976 2 8
13.514761 10.265694 -1.3854743 2 7
30.64724 23.279375 0.67177802 5 23
13.316384 12.339736 -1.1635157 22 9
18.917925 12.963067 -1.3355697 4 10
30.284359 25.429598 2.3030031 11 27
30.655151 23.285383 1.5683703 7 26
20.654751 17.343672 -1.2563404 4 12
20.6791 15.707663 -1.3609444 4 11
9.9696274 8.371438 1.5984384 3 29
30.270906 22.993515 3.1032414 9 28
13.394205 12.41185 -0.74396634 10 13
30.775541 25.842041 10.767907 15 31
30.612301 23.252834 7.0090175 17 30
25.984905 21.819372 -0.78955102 88 16
13.442817 12.365632 -0.31882057 10 17
26.998068 20.351889 -0.98395824 6 15
4.4384022 3.6992493 -1.6174523 1 1
6.455245 4.8661418 -1.6167911 0 2
30.325047 20.616613 -0.42690182 15 18
7.8302655 6.5262465 -1.5858524 1 3
10.050663 7.576467 -1.6020913 3 4
13.477019 12.397095 0.10642777 5 21
10.454262 8.713253 -1.4659445 4 5
12.703458 8.6365004 -1.4339411 2 6
30.641766 25.538816 0.92819929 9 24
30.325047 20.616613 0.42690182 12 22
14.66393 12.221862 -1.33486 2 8
13.565029 10.225693 -1.3867762 2 7
26.925432 24.767876 1.0647136 25 25
30.892038 23.28727 0.67526853 5 23
18.9554 12.886911 -1.334872 4 10
30.260792 25.221287 2.2941661 10 27
30.874327 23.27392 1.5752091 7 26
20.712036 17.262743 -1.2559681 4 12
20.816275 15.691882 -1.366178 4 11
12.391273 10.327683 1.9806207 2 29
30.253103 22.805624 3.0928266 9 28
12.068875 11.101787 -0.66808796 4 13
20.040457 13.624591 -0.84624302 4 14
48.922775 36.879337 11.170376 34 30
30.622204 22.916702 -1.1131202 8 15
4.4483175 3.6812806 -1.6163739 1 1
6.4784694 4.8482847 -1.61836 0 2
30.539379 20.606855 -0.42890409 15 18
7.8529944 6.4988785 -1.5858524 0 3
10.080218 7.5437212 -1.6025963 3 4
12.078992 11.033516 0.095082916 4 21
10.484607 8.6767139 -1.4659445 4 5
12.733521 8.5921144 -1.4339411 2 6
30.502911 20.582249 0.4283919 12 22
14.691123 12.157887 -1.3334647 2 8
13.600633 10.178289 -1.3867762 2 7
12.054466 11.011112 -1.0463455 5 9
18.970469 12.800578 -1.332779 4 10
30.244028 25.028957 2.2862589 10 27
20.78755 17.203089 -1.2568988 4 12
20.925278 15.659825 -1.3697368 4 11
30.236752 22.628242 3.0830629 19 28
12.060332 11.016472 -0.6654827 6 13
20.064688 13.538918 -0.84526581 4 14
49.003922 36.673008 11.159614 33 30
30.621784 22.750051 -1.1102111 8 15
4.4432845 3.6510568 -1.6099041 1 1
6.4922061 4.8232989 -1.6175755 1 2
30.664305 20.53573 -0.42964911 7 18
7.8847942 6.4789529 -1.587697 0 3
10.109678 7.5108519 -1.6031015 1 4
12.096699 10.972471 0.094920181 6 21
10.533269 8.6552105 -1.4685149 4 5
12.75351 8.5409622 -1.4328258 2 6
30.660982 20.533506 0.42960256 12 22
14.724226 12.098929 -1.3326277 2 8
13.655283 10.145013 -1.388729 2 7
12.091782 10.968012 0.4751066 6 25
12.054395 10.9341 -1.0430197 7 9
19.024992 12.740942 -1.3334767 4 10
30.260258 24.86492 2.2809103 10 27
20.847475 17.130417 -1.2568988 4 12
20.995852 15.598591 -1.3707834 4 11
30.634665 25.172571 4.8684368 17 29
30.241959 22.467865 3.0755775 19 28
12.086876 10.963562 -0.6648314 10 13
20.13508 13.484362 -0.84624302 4 14
30.607096 25.149918 10.614687 14 31
30.60054 22.57716 -1.1067203 8 15
4.4702897 3.648479 -1.6152955 1 1
6.4986973 4.7947559 -1.6152221 2 2
31.996094 26.113985 0 13 20
30.902107 20.546869 -0.43202391 7 18
7.9276729 6.4702625 -1.5920016 0 3
10.105794 7.4560819 -1.5985558 1 4
12.118162 10.918905 0.094803944 8 21
30.596888 22.574465 -0.22099222 7 19
10.568077 8.6252594 -1.4693716 2 5
12.751917 8.4787731 -1.42948 2 6
30.808846 20.484858 0.43072009 12 22
14.745723 12.034894 -1.3309536 2 8
13.692061 10.102039 -1.3890544 2 7
12.125119 10.925175 0.47499025 3 25
30.583086 22.564281 0.66340089 5 23
9.5283451 8.5853863 -0.82198232 3 9
19.093742 12.695465 -1.335337 4 10
30.262117 24.69878 2.2748637 10 27
20.950605 17.099081 -1.2596905 4 12
21.047466 15.528876 -1.3707834 4 11
49.120468 40.090244 7.7850146 36 29
30.226477 22.301176 3.0664647 19 28
9.5370102 8.593194 -0.52300721 2 13
20.119766 13.37767 -0.84373021 4 14
30.639446 25.006742 10.597087 14 31
30.544489 22.535805 6.9207683 17 30
25.410263 20.738882 -0.76321715 33 16
30.637234 22.439486 -1.1052076 8 15
4.4710283 3.6231506 -1.6109824 1 1
6.5027385 4.7627702 -1.6120843 1 2
32.115028 26.024794 0 13 20
7.9379277 6.4325938 -1.5895418 0 3
10.125359 7.416069 -1.5975456 1 4
9.5419359 8.537468 0.074415751 3 21
34.041225 24.932655 -0.24523954 9 19
10.598123 8.5883141 -1.4693716 4 5
12.768142 8.4254313 -1.4279927 2 6
14.775246 11.973295 -1.3298374 2 8
13.736893 10.061248 -1.3900309 2 7
9.546998 8.541997 0.37282431 3 25
30.639086 22.440842 0.66291219 5 23
9.5285101 8.5254555 -0.81942403 7 9
13.011937 8.5863066 -0.90789902 2 10
30.255081 24.517563 2.2678871 10 27
21.013273 17.028355 -1.2598767 4 12
21.053207 15.419903 -1.3676434 4 11
30.233385 22.143698 3.0593045 19 28
13.006025 8.582406 -0.54415298 2 14
49.02977 35.910645 11.080691 33 30
30.617704 22.269569 -1.1018331 8 15
4.4860187 3.6107206 -1.6120608 1 1
6.5216675 4.7434888 -1.6128687 1 2
32.232311 25.943241 0 13 20
7.9592142 6.4062366 -1.5895418 0 3
10.137058 7.373117 -1.5955254 1 4
10.629642 8.5556183 -1.4698 4 5
12.786016 8.3764982 -1.4268775 2 6
14.827301 11.934243 -1.3309536 2 8
13.789524 10.029713 -1.3919836 2 7
9.5626945 8.4991169 -0.81993574 7 9
19.20978 12.584897 -1.3374301 4 10
30.267776 24.36202 2.2627709 10 27
33.93763 24.684294 1.7097061 8 26
21.082073 16.968605 -1.2606212 4 12
21.172062 15.399349 -1.3720396 4 11
30.235714 21.991732 3.0521443 19 28
9.5683956 8.5041838 -0.52154171 7 13
20.093327 13.163735 -0.8388443 4 14
49.078564 35.696945 11.064906 33 30
9.6000023 8.4695015 -0.22346061 7 17
30.634277 22.110407 -1.0995058 8 15
4.5082498 3.6014676 -1.6152955 1 1
6.5485501 4.7264414 -1.6152221 1 2
30.430172 24.309494 0 11 20
30.642702 19.914824 -0.42545831 7 18
7.9826393 6.3770237 -1.5895418 0 3
10.189753 7.3544927 -1.5995659 1 4
9.6013031 8.4706497 0.074415751 6 21
30.61754 22.098328 -0.21945788 21 19
10.660926 8.5166044 -1.4698 4 5
12.81329 8.3274126 -1.4265057 2 6
30.45318 24.327875 0.90698338 9 24
30.719839 19.964954 0.42652932 12 22
14.861588 11.872351 -1.3301164 2 8
13.822958 9.9767733 -1.3916579 2 7
9.5944023 8.4645615 0.37235883 4 25
30.603664 22.088312 0.65879345 16 23
9.6087465 8.4772167 -0.82121485 3 9
19.235685 12.501354 -1.3360348 4 10
30.278862 24.188618 2.2569571 10 27
34.228798 24.704765 1.7198013 8 26
21.153488 16.898708 -1.2611797 4 12
49.515873 39.556328 7.7816019 36 29
30.235296 21.822441 3.044008 19 28
9.623476 8.4902115 -0.52284437 2 13
20.074398 13.046438 -0.83605236 4 14
49.135681 35.463867 11.048405 32 30
26.567244 19.034327 -0.95114416 6 15
4.4996681 3.5689547 -1.6077474 1 1
6.5586309 4.6989865 -1.6136533 1 2
30.395748 24.108677 0 23 20
30.658245 19.77306 -0.42471328 7 18
8.0048494 6.3491225 -1.5895418 0 3
10.202458 7.3096375 -1.5975456 1 4
30.635958 21.94939 -0.21903943 7 19
10.699935 8.4867554 -1.4710852 4 5
12.815503 8.2653694 -1.4235315 1 6
30.668331 19.779566 0.424853 12 22
13.883623 9.9470396 -1.3942617 2 7
30.641562 21.953405 0.65795571 11 23
16.054789 14.064818 -1.367924 4 9
19.306049 12.451452 -1.3378953 4 10
30.278631 24.015785 2.2506778 10 27
34.425282 24.664286 1.7253376 8 26
21.246777 16.852083 -1.263227 4 12
21.327169 15.280031 -1.3749704 4 11
30.408691 24.118944 4.7655792 17 29
30.239983 21.665691 3.0368478 18 28
25.002937 21.903856 -1.35425 9 13
20.099657 12.96329 -0.83521479 4 14
30.389259 24.103531 10.393138 13 31
49.153603 35.216515 11.024728 32 30
30.350765 21.593098 -1.0840297 8 15
4.5145054 3.5563955 -1.6088258 2 1
6.5741792 4.6772099 -1.6136533 1 2
30.31843 23.883972 0 23 20
30.716915 19.666965 -0.42462018 7 18
8.0258617 6.3225393 -1.5895418 0 3
10.233111 7.2803631 -1.5985558 1 4
30.240511 26.315495 0.23298801 26 21
30.376141 21.611153 -0.21666816 14 19
10.734271 8.4561453 -1.4719419 4 5
12.849551 8.2271175 -1.4242749 2 6
30.319651 23.884933 0.89814335 18 24
30.652912 19.625986 0.42373544 12 22
13.929529 9.9101849 -1.3955635 2 7
30.228222 26.3048 1.1661813 15 25
30.365511 21.60359 0.65048611 11 23
16.209751 14.105833 -1.3771338 4 9
19.353962 12.391665 -1.3383603 4 10
30.254601 23.833689 2.2430036 10 27
30.371016 21.607506 1.5185446 7 26
21.387297 16.848286 -1.2682523 4 12
21.390747 15.21848 -1.3758078 4 11
30.313869 23.880381 4.7382803 17 29
30.243454 21.516752 3.0300131 18 28
24.988008 21.744732 -1.3495278 9 13
20.092039 12.864228 -0.83312082 4 14
30.34573 21.589516 6.7901878 16 30
25.628471 22.145329 -0.59121776 17 17
4.5450974 3.5548525 -1.6152955 1 1
6.5904665 4.6542315 -1.6136533 1 2
30.285044 23.686811 0 22 20
34.218739 21.741007 -0.4719761 9 18
8.0416584 6.2896142 -1.588312 0 3
10.268188 7.2514625 -1.6000711 1 4
30.247444 26.136541 0.23233707 26 21
30.327238 21.417299 -0.21578474 14 19
10.78252 8.433322 -1.4745122 6 5
12.868109 8.1758022 -1.4231596 2 6
30.295748 23.695183 0.89497954 18 24
13.964039 9.8614979 -1.3955635 2 7
30.223055 26.115465 1.1624578 14 25
30.31333 21.407476 0.64776349 11 23
16.243792 14.036113 -1.3758547 4 9
19.380253 12.313318 -1.3371977 4 10
21.477455 16.79814 -1.2701136 4 12
21.365433 15.088411 -1.3707834 4 11
30.284464 23.686357 4.7207313 33 29
30.25325 21.365047 3.0235043 18 28
24.976067 21.581593 -1.344806 9 13
20.09296 12.76614 -0.83130604 4 14
30.281775 23.684254 10.300999 12 31
30.273045 21.379026 6.7571836 16 30
30.333544 23.724745 -0.89609617 7 16
25.617588 21.980213 -0.58919328 17 17
30.287962 21.231506 -1.0764661 16 15
4.551393 3.5342419 -1.613139 2 1
6.6130948 4.6357021 -1.6152221 1 2
30.29171 23.522081 0 22 20
8.0666838 6.2639313 -1.5889269 0 3
10.257694 7.1905231 -1.5945152 1 4
30.326347 26.020388 0.23224409 13 21
30.267521 21.217178 -0.21483159 14 19
10.808749 8.3931961 -1.4740839 4 5
12.910044 8.1393337 -1.4246469 2 6
30.292992 23.523075 0.89246714 18 24
30.653845 19.326183 0.42187288 24 22
16.136396 12.530213 -1.4286126 2 8
14.004907 9.817275 -1.3962145 2 7
30.338299 26.030642 1.1633886 14 25
30.250322 21.205122 0.64483154 11 23
16.310863 13.994925 -1.3773897 4 9
19.436623 12.254115 -1.3381277 4 10
30.259398 23.496988 2.2311432 20 27
30.29858 21.238949 1.5074722 14 26
21.576982 16.754932 -1.2725332 4 12
21.417969 15.013744 -1.3707834 4 11
30.288563 23.519636 4.7085443 33 29
30.249292 21.204399 3.0156932 18 28
24.996647 21.447437 -1.3418748 9 13
20.093437 12.668214 -0.82949126 4 14
30.263552 23.500216 10.266834 12 31
30.225037 21.187397 6.7299194 16 30
26.300671 20.422962 -0.7748487 5 16
30.256861 21.052586 -1.0727426 16 15
4.5728531 3.5253894 -1.6163739 1 1
6.6227961 4.6081114 -1.6136533 1 2
30.294432 23.35515 0 22 20
35.685322 22.324671 -0.49004304 9 18
8.1010189 6.2453885 -1.5913866 0 3
10.279472 7.15241 -1.5940101 1 4
30.514418 25.997385 0.23298801 13 21
30.279007 21.067995 -0.21438988 20 19
10.828529 8.3481321 -1.4727987 4 5
12.941751 8.0963354 -1.4250185 2 6
30.308405 23.365921 0.89051306 27 24
30.673643 19.189375 0.42122099 24 22
16.138952 12.442142 -1.4249853 2 8
14.052176 9.7774401 -1.3975163 2 7
30.526367 26.007565 1.1671122 15 25
30.242081 21.042301 0.64308631 16 23
16.383921 13.958617 -1.3794364 4 9
19.472506 12.181964 -1.3376627 4 10
30.268486 23.335148 2.2257943 20 27
30.270826 21.062304 1.5024245 13 26
21.635334 16.679516 -1.2725332 4 12
21.421057 14.904675 -1.3676434 4 11
30.282433 23.345898 4.6948948 33 29
30.25112 21.048592 3.008533 18 28
24.992254 21.292664 -1.3376414 9 13
20.076529 12.55984 -0.8269785 4 14
30.268892 23.335459 10.240952 25 31
30.21805 21.025581 6.7119827 32 30
26.485809 20.418934 -0.7781986 5 16
30.264368 20.901386 -1.0704153 16 15
4.5790148 3.5047219 -1.6142174 1 1
6.6452966 4.5894203 -1.6152221 1 2
30.391663 23.261406 0 22 20
30.461792 18.909201 -0.41740271 7 18
8.0976629 6.1978526 -1.5864673 0 3
10.310909 7.1209908 -1.5950203 1 4
30.620255 25.90362 0.23310426 13 21
30.263506 20.900791 -0.21376221 13 19
10.87024 8.3199482 -1.4745122 4 5
12.966553 8.0490055 -1.4246469 2 6
30.41202 23.276987 0.89116442 18 24
30.451595 18.902872 0.417263 11 22
16.137928 12.351772 -1.4210789 2 8
14.096065 9.7351217 -1.3984927 2 7
30.604759 25.890511 1.1666467 7 25
30.246241 20.888868 0.64162022 11 23
16.4935 13.9529 -1.384553 4 9
19.525093 12.120229 -1.3383603 4 10
30.299028 23.190506 2.2220736 10 27
30.26853 20.904261 1.4986794 13 26
21.44009 14.807102 -1.3655499 4 11
30.351137 23.230389 4.6929455 16 29
30.252247 20.893015 3.0013728 18 28
25.014561 21.161407 -1.3348732 9 13
20.10327 12.479134 -0.82628047 4 14
30.28574 23.180334 10.219212 25 31
30.229746 20.877476 6.6983509 32 30
26.639492 20.389542 -0.78061789 5 16
30.513397 25.631029 -0.69558311 12 17
30.26129 20.743628 -1.067739 15 15
4.5942864 3.4910481 -1.6152955 1 1
6.658041 4.5639801 -1.6144377 1 2
30.596878 23.249567 0 22 20
26.328529 16.216436 -0.35998887 5 18
8.1223936 6.1719418 -1.5870821 0 3
10.342247 7.0894437 -1.5960304 1 4
30.545095 25.657656 0.23184888 12 21
30.266994 20.747538 -0.213274 13 19
10.905547 8.2867689 -1.4753691 6 5
13.035261 8.0287619 -1.429108 2 6
30.601334 23.252953 0.89432812 18 24
26.33534 16.220633 0.360082 8 22
16.180943 12.295369 -1.4210789 2 8
14.12996 9.6858597 -1.3984927 2 7
30.495945 25.616369 1.1590832 7 25
30.262896 20.744728 0.64043355 16 23
19.59108 12.066664 -1.3399882 4 10
30.268507 23.00005 2.2139342 10 27
30.268789 20.748768 1.4950972 13 26
21.501528 14.738952 -1.366178 4 11
30.55216 23.215588 4.7114697 16 29
30.252647 20.737703 2.9942129 18 28
25.020947 21.017412 -1.3312911 9 13
20.122879 12.394214 -0.82530332 4 14
30.271099 23.002018 10.187118 25 31
30.231028 20.722883 6.6825662 32 30
26.946114 20.475471 -0.78750384 5 16
30.593472 25.516668 -0.69537371 12 17
30.300465 20.615376 -1.0665753 7 15
4.5941458 3.4657097 -1.6109824 2 1
6.6706901 4.5385041 -1.6136533 1 2
30.71298 23.169113 0 11 20
30.306377 18.52088 -0.41349128 14 18
8.1375809 6.1387897 -1.5858524 0 3
10.376775 7.0599942 -1.5975456 1 4
30.622192 25.540623 0.2317559 12 21
30.355774 20.653006 -0.21339025 13 19
10.943934 8.2558336 -1.4766543 6 5
13.076804 7.9915161 -1.4305953 4 6
30.771713 23.213419 0.89693367 9 24
30.330267 18.535479 0.41381723 11 22
16.211025 12.229196 -1.4199628 2 8
14.163686 9.6364765 -1.3984927 2 7
30.585184 25.509756 1.1590832 7 25
30.361582 20.656956 0.64099199 11 23
16.550657 13.804175 -1.3812271 9 9
19.65012 12.008611 -1.341151 4 10
30.288048 22.848553 2.2095156 10 27
30.324512 20.631737 1.494283 13 26
21.536337 14.65257 -1.3651313 4 11
30.702745 23.16139 4.7221937 16 29
30.249043 20.580389 2.9867272 18 28
25.075747 20.914577 -1.330314 9 13
20.118271 12.294707 -0.82334894 4 14
30.267937 22.833382 10.159165 25 31
30.329216 20.634935 6.6883063 16 30
27.049355 20.405363 -0.78843439 5 16
25.306738 20.965338 -0.57362568 8 17
20.183924 13.634746 -0.70887816 3 15
4.6179428 3.4596949 -1.6152955 1 1
6.6889529 4.5185552 -1.6144377 1 2
42.061245 31.511665 0 24 20
30.306068 18.382944 -0.41265315 14 18
8.164217 6.1165109 -1.5870821 0 3
10.370535 7.0055561 -1.5929999 1 4
30.563299 20.646273 -0.21436664 13 19
10.964883 8.2147284 -1.4757974 6 5
13.19517 8.0038786 -1.4406332 2 6
30.982931 23.211956 0.90084189 9 24
16.241905 12.168197 -1.4191258 2 8
14.17574 9.576067 -1.3965399 2 7
30.601866 25.352079 1.1565232 7 25
30.555845 20.641239 0.64364475 11 23
16.587118 13.741579 -1.3804597 4 9
19.71373 11.957883 -1.3427789 4 10
30.277355 22.683348 2.2032363 10 27
30.52523 20.620558 1.5007961 13 26
21.545084 14.554243 -1.362619 4 11
30.950954 23.188 4.7485175 17 29
30.237833 20.426413 2.9789164 18 28
25.129574 20.818565 -1.3294998 9 13
20.107658 12.196831 -0.82125497 4 14
30.259989 22.670338 10.131213 24 31
30.527903 20.622362 6.7170053 16 30
27.190474 20.370701 -0.79057455 5 16
4.6324821 3.4466608 -1.6163739 1 1
6.7071581 4.4985309 -1.6152221 1 2
42.149475 31.360064 0 24 20
8.1844568 6.0894022 -1.5870821 0 3
10.397007 6.9733348 -1.593505 1 4
30.691397 20.584904 -0.2147851 7 19
10.995256 8.1806946 -1.4762259 6 5
13.992763 8.4243269 -1.5246546 1 6
30.301762 18.243141 0.41176841 23 22
16.291775 12.121411 -1.4199628 2 8
14.214042 9.5334425 -1.3971908 2 7
30.583889 25.166611 1.1526833 7 25
30.66399 20.566521 0.64448249 5 23
16.626432 13.681418 -1.3799479 4 9
19.790911 11.915095 -1.345337 4 10
30.265917 22.518456 2.1969576 9 27
30.696344 20.588223 1.5058439 7 26
30.242502 20.283827 2.9727328 18 28
25.179962 20.719873 -1.3285229 9 13
20.113749 12.109459 -0.81985897 4 14
30.266813 22.519123 10.108438 24 31
30.543837 20.485933 6.7055259 16 30
25.436472 20.782475 -0.57334644 81 17
20.066578 13.357463 -0.70154732 3 15
4.632091 3.4213161 -1.6120608 1 1
6.7195544 4.4729199 -1.6144377 1 2
8.1897669 6.0490565 -1.5840077 0 3
10.404768 6.9260087 -1.5909797 1 4
32.009754 26.153072 0.24024129 14 21
31.009457 20.641668 -0.21650544 7 19
11.023745 8.1422653 -1.4762259 6 5
14.076787 8.4081097 -1.5306031 1 6
30.293142 18.094191 0.41079056 22 22
16.327566 12.05973 -1.4194047 2 8
12.936338 8.6111679 -1.268635 2 7
30.594141 24.996468 1.1497743 7 25
16.705 13.648561 -1.3825063 4 9
19.832378 11.845943 -1.345337 4 10
30.260817 22.350992 2.1909111 9 27
30.941025 20.596117 1.514311 7 26
30.243423 20.131754 2.965898 17 28
25.286173 20.659676 -1.330314 9 13
20.135302 12.02688 -0.8190214 4 14
30.258209 22.349066 10.079449 24 31
30.444818 20.265814 6.6682172 16 30
26.987995 21.885656 -0.60650605 75 17
20.055349 13.244161 -0.69945282 3 15
4.6477065 3.4065917 -1.613139 1 1
6.7260857 4.4417753 -1.6120843 1 2
30.61656 22.440771 0 11 20
8.2118835 6.0189977 -1.5840077 0 3
10.426775 6.8856382 -1.5904746 1 4
11.063138 8.1088581 -1.4775109 6 5
14.093808 8.3483391 -1.529116 1 6
30.640524 22.458336 0.88399929 9 24
30.297319 17.946342 0.40995243 22 22
16.358786 11.990365 -1.4182886 2 8
12.957836 8.5571012 -1.2676586 2 7
30.583075 24.801052 1.1459343 7 25
16.739412 13.574666 -1.3812271 4 9
19.947817 11.815908 -1.3502207 4 10
30.284567 22.197433 2.1867251 9 27
12.966457 8.5627947 -0.81434757 2 11
30.625303 22.44718 4.6622338 16 29
30.247149 19.974627 2.9590633 17 28
25.414499 20.609646 -1.3330821 9 13
20.093266 11.902063 -0.81553149 4 14
30.280716 22.194609 10.059778 24 31
30.325157 20.02614 6.625886 16 30
30.666328 22.477249 -0.88474375 7 16
27.05176 21.781286 -0.60622674 46 17
20.004477 13.110519 -0.6960783 3 15
4.6408811 3.3767502 -1.6066693 1 1
6.7513905 4.4247212 -1.6144377 1 2
30.607372 22.270222 0 11 20
8.2488222 6.0019236 -1.5870821 0 3
10.447426 6.8470263 -1.5899696 1 4
11.09459 8.0725327 -1.4779394 4 5
14.091956 8.2809324 -1.5257699 1 6
30.660526 22.308897 0.8823244 8 24
30.301155 17.806032 0.40916082 22 22
16.397314 11.930845 -1.4180096 2 8
14.264714 9.3487978 -1.3923091 2 7
30.576031 24.618925 1.1424435 7 25
16.780474 13.511147 -1.3807155 4 9
20.016481 11.762394 -1.3520812 4 10
30.294052 22.042248 2.1818411 9 27
20.102451 13.174729 -1.2596219 4 11
30.661737 22.30978 4.6558967 16 29
30.263332 19.833961 2.953856 17 28
25.430252 20.475695 -1.3301513 9 13
20.158813 11.846033 -0.81650865 4 14
30.273647 22.027401 10.031827 24 31
30.243471 19.820944 6.5928817 15 30
19.977461 12.998322 -0.69363475 3 15
4.6520524 3.3613431 -1.6066693 1 1
6.7660246 4.4023099 -1.6144377 1 2
8.2622719 5.9699092 -1.5858524 0 3
10.466745 6.8101816 -1.5894644 1 4
30.366943 24.285044 0.22599047 12 21
30.580185 19.896978 -0.21204187 6 19
11.127745 8.0403585 -1.4787961 4 5
14.105577 8.2261343 -1.5242829 1 6
34.189594 24.703711 0.98151845 10 24
30.290926 17.665155 0.40822953 22 22
16.430315 11.871734 -1.4174516 2 8
14.295634 9.301446 -1.3923091 2 7
30.602861 19.911734 0.63729209 5 23
16.812712 13.445457 -1.3796921 4 9
20.076071 11.708025 -1.3534765 4 10
30.276348 21.876192 2.1753297 9 27
48.678856 31.672869 2.3660703 26 26
20.122589 13.092751 -1.2581565 4 11
50.420326 36.431236 7.6377964 34 29
26.288864 17.104834 2.5603776 5 28
25.460554 20.361305 -1.3281974 9 13
20.139277 11.744885 -0.81413549 4 14
30.274492 21.874853 10.008016 24 31
30.213379 19.658318 6.5720754 15 30
30.350317 24.098518 -0.67645526 11 17
20.032791 12.93501 -0.69398379 3 15
4.6668882 3.3473275 -1.6077474 1 1
6.7747612 4.3744082 -1.6128687 1 2
30.647739 21.982103 0 21 20
8.273427 5.9341187 -1.5840077 0 3
10.510457 6.7865162 -1.5924948 1 4
30.599054 19.757559 -0.21169317 6 19
11.152514 7.9991446 -1.4783678 4 5
14.147996 8.1848192 -1.5257699 1 6
30.658941 21.990139 0.87795091 8 24
30.293552 17.525255 0.40743792 22 22
16.468416 11.811978 -1.4171726 2 8
14.32467 9.2493219 -1.3919836 2 7
30.295122 24.054693 1.1258037 14 25
30.631868 19.778748 0.6364544 5 23
16.859547 13.386683 -1.3796921 4 9
20.185949 11.677863 -1.3581276 4 10
30.274654 21.714508 2.1697485 9 27
20.080921 12.966086 -1.2527136 4 11
50.540745 36.25037 7.6368208 34 29
26.257986 16.954567 2.55159 5 28
25.481396 20.232534 -1.325592 9 13
20.097107 11.626466 -0.81078511 4 14
30.272179 21.712732 9.9821329 24 31
30.228924 19.51857 6.560595 15 30
30.325344 23.898005 -0.67394215 11 17
20.036293 12.833467 -0.69247109 3 15
4.6665716 3.3212674 -1.6034343 1 1
6.7907476 4.3495493 -1.6128687 1 2
30.594481 21.77454 0 10 20
8.3144398 5.9175086 -1.587697 0 3
10.531918 6.74581 -1.5919899 1 4
30.276045 23.859156 0.22403766 12 21
11.178514 7.9559121 -1.4779394 4 5
14.191717 8.1408405 -1.5272571 1 6
30.491716 21.701403 0.87087893 8 24
30.302065 17.382271 0.40669289 22 22
16.508343 11.749229 -1.4168935 2 8
14.3484 9.1903095 -1.3910071 2 7
30.251181 23.83956 1.1209165 14 25
16.936714 13.347043 -1.3819947 4 9
20.266714 11.625661 -1.3606857 4 10
30.269447 21.543209 2.163702 9 27
20.118217 12.885941 -1.2520856 4 11
50.699135 36.083317 7.6407208 34 29
26.272947 16.828114 2.5470335 5 28
25.555374 20.139011 -1.325592 9 13
20.153452 11.56069 -0.81134349 4 14
30.282299 21.552357 9.9593573 24 31
30.224043 19.358833 6.5440936 15 30
30.384205 21.624884 -0.86780816 14 16
25.983061 20.329418 -0.57585961 8 17
20.05735 12.748431 -0.69165653 3 15
4.6875758 3.3116241 -1.6066693 1 1
6.8058901 4.3258166 -1.6128687 1 2
30.405684 21.480656 0 21 20
21.866329 12.442003 -0.29288968 3 18
8.3511868 5.8998499 -1.5907717 0 3
10.515216 6.6834607 -1.5859289 1 4
30.252045 23.669516 0.22324724 24 21
30.631626 19.469431 -0.21094923 20 19
11.215963 7.9237242 -1.4792246 6 5
14.192358 8.0754919 -1.5242829 1 6
30.293037 17.236824 0.40576163 22 22
16.539482 11.684622 -1.4160564 2 8
14.397217 9.150857 -1.3926344 4 7
30.242899 23.662359 1.1175419 14 25
30.620726 19.462502 0.63331294 16 23
16.964342 13.273078 -1.3804597 4 9
20.310648 11.556815 -1.3609183 4 10
30.302071 21.407455 2.1606786 9 27
20.227129 12.856342 -1.2560631 4 11
30.425482 21.494642 4.5740004 15 29
26.324802 16.732018 2.5463827 5 28
25.634968 20.057066 -1.3260804 9 13
20.169367 11.476426 -0.81036633 4 14
30.281618 21.393007 9.9345112 23 31
30.225016 19.210989 6.5297441 15 30
20.082611 12.671175 -0.69107473 3 15
4.6985326 3.2960601 -1.6066693 2 1
6.820199 4.3032217 -1.6128687 1 2
30.335949 21.280922 0 20 20
21.733328 12.271091 -0.29056144 3 18
8.3286438 5.8426132 -1.5827779 0 3
10.544036 6.6527863 -1.5869391 1 4
30.251413 23.507698 0.22266604 23 21
30.618221 19.318645 -0.21041454 19 19
11.238925 7.8842006 -1.4787961 6 5
14.219063 8.0283804 -1.5242829 1 6
30.350655 21.291239 0.86269033 17 24
30.301275 17.108734 0.40510973 22 22
16.587942 11.63658 -1.4168935 2 8
14.420744 9.0988045 -1.3919836 2 7
30.22965 23.490786 1.1141675 13 25
30.603926 19.309626 0.63163751 16 23
17.02718 13.231441 -1.3819947 4 9
20.331476 11.479577 -1.3597555 4 10
30.281363 21.24263 2.1541672 9 27
26.2533 16.564587 1.2646939 4 26
25.062853 17.5818 -1.4260858 5 12
26.302601 16.595692 2.5388973 5 28
25.688719 19.96213 -1.3254292 9 13
20.162064 11.383924 -0.80855155 4 14
30.270161 21.234772 9.9075937 23 31
30.231985 19.074947 6.5175471 31 30
30.281904 21.24301 -0.86073619 14 16
20.092823 12.579796 -0.68991113 3 15
4.7131681 3.2818434 -1.6077474 2 1
6.8351755 4.2793941 -1.6128687 1 2
30.285294 21.088064 0 20 20
8.3716879 5.8293209 -1.5870821 0 3
10.553737 6.6075258 -1.5849189 1 4
30.279434 23.360445 0.22227085 23 21
30.587137 19.150116 -0.20974036 13 19
11.285954 7.8585644 -1.4813665 4 5
14.260892 7.9864907 -1.5257699 1 6
30.30335 21.100637 0.85924733 17 24
30.301474 16.969656 0.40431812 22 22
16.618628 11.571778 -1.4160564 2 8
14.41186 9.023035 -1.3880781 2 7
30.286125 23.365606 1.1132365 13 25
26.115208 16.350315 0.53781337 8 23
17.047968 13.152428 -1.3799479 4 9
20.388838 11.418308 -1.3609183 4 10
26.277075 16.451656 1.2630657 4 26
25.055199 17.446278 -1.4221773 5 12
20.209209 12.652662 -1.2495735 3 11
30.307167 21.103294 4.5345149 15 29
26.323187 16.480526 2.5353172 5 28
25.717096 19.840622 -1.3233125 9 13
20.135401 11.276377 -0.8058992 4 14
30.274328 21.080429 9.8848171 23 31
30.228329 18.925474 6.50248 31 30
30.263969 21.073215 -0.85813069 14 16
30.421078 23.292347 -0.66877627 11 17
20.091246 12.476531 -0.68828207 2 15
4.731504 3.2689245 -1.6099041 1 1
6.8508158 4.2543116 -1.6128687 1 2
30.299858 20.933714 0 20 20
8.3929987 5.7985959 -1.5870821 0 3
10.567773 6.5625176 -1.5834036 1 4
30.447428 23.312523 0.2228753 23 21
30.432858 18.898603 -0.20820601 6 19
11.324499 7.8239255 -1.4826517 4 5
14.276145 7.9264326 -1.5242829 1 6
30.298239 20.932594 0.85692108 16 24
30.300524 16.823524 0.40347993 22 22
16.677347 11.522127 -1.4174516 2 8
15.403312 9.5653553 -1.4801826 2 7
30.466801 23.327356 1.1167274 13 25
17.099232 13.09228 -1.3802038 4 9
20.423571 11.339621 -1.3604532 4 10
30.258459 20.905111 2.1418417 18 27
30.377586 18.864281 1.4568323 6 26
25.086105 17.331612 -1.4203161 5 12
20.214729 12.553214 -1.2470613 3 11
30.292856 20.928877 4.5208654 31 29
26.332617 16.352381 2.5304353 5 28
25.84042 19.785099 -1.3259177 9 13
20.187084 11.208318 -0.80631799 4 14
30.281458 20.921001 9.8620405 23 31
30.230635 18.773026 6.4881301 31 30
30.262049 20.907593 -0.85589755 14 16
26.776978 20.354326 -0.58709896 8 17
20.107441 12.389548 -0.68735111 2 15
4.7397084 3.250211 -1.6088258 1 1
6.8689632 4.2324309 -1.6136533 1 2
30.296867 20.775795 0 30 20
8.4066696 5.7647953 -1.5858524 0 3
10.60075 6.5318356 -1.5849189 1 4
30.598669 23.259357 0.22338672 12 21
30.301126 18.670565 -0.20685765 6 19
11.368139 7.7955956 -1.4847935 4 5
14.279303 7.8631053 -1.5216805 1 6
30.301863 20.779221 0.854967 16 24
30.303003 16.686789 0.40273494 21 22
16.687845 11.443535 -1.4149402 2 8
15.528248 9.5679989 -1.48897 2 7
30.595787 23.257166 1.1184728 7 25
17.157537 13.042177 -1.3812271 4 9
20.438541 11.25478 -1.3588253 4 10
30.271965 20.758718 2.1376557 18 27
25.083838 17.201008 -1.4167796 5 12
20.238018 12.470006 -1.2458053 3 11
30.296965 20.775862 4.5106282 31 29
26.328442 16.222725 2.5245771 5 28
25.899773 19.687525 -1.3254292 9 13
20.177059 11.110789 -0.80436361 4 14
30.277824 20.762735 9.8371954 23 31
30.222275 18.621979 6.4723463 30 30
30.265583 20.754341 -0.85394335 13 16
26.933348 20.339989 -0.58912343 8 17
20.115572 12.307531 -0.68630385 2 15
4.7498965 3.2353034 -1.6088258 1 1
6.8788805 4.2087808 -1.6128687 1 2
30.302485 20.639973 0 20 20
8.4443388 5.7517037 -1.5895418 0 3
10.648295 6.5150638 -1.5889593 1 4
30.754589 23.225779 0.22399117 12 21
11.412297 7.773273 -1.4873639 4 5
14.307431 7.8201127 -1.5220522 1 6
30.300896 20.638889 0.8531059 16 24
30.295618 16.558887 0.40194333 21 22
16.73361 11.397786 -1.4157774 2 8
15.463013 9.4609041 -1.4798572 2 7
30.812286 23.269354 1.1237092 7 25
26.398182 16.151489 0.54018688 124 23
17.2048 12.993016 -1.3817388 4 9
20.480808 11.194339 -1.3592904 4 10
30.27433 20.620794 2.1332371 18 27
26.400774 16.153074 1.2609489 9 26
25.058498 17.068129 -1.4123126 5 12
20.20895 12.364664 -1.2416184 3 11
30.276773 20.622459 4.4979539 30 29
30.239079 18.501507 2.8939717 16 28
25.929607 19.581966 -1.3238008 9 13
20.17679 11.028169 -0.80296767 4 14
30.27585 20.62183 9.8154545 23 31
30.220213 18.489964 6.4594312 30 30
30.300896 20.638889 -0.8531059 6 16
27.138578 20.346619 -0.59205538 8 17
20.110559 12.208197 -0.6846748 2 15
4.7675428 3.2230191 -1.6109824 1 1
6.9002352 4.1888161 -1.6144377 1 2
30.427362 20.56992 0 20 20
8.4348946 5.7022724 -1.5840077 0 3
10.654012 6.4675612 -1.586434 1 4
30.266998 18.373705 -0.20578825 12 19
11.462423 7.7489829 -1.4903626 6 5
14.271615 7.7359638 -1.5153602 1 6
30.445633 20.582272 0.85515308 16 24
30.289936 16.418734 0.4011052 21 22
16.773293 11.339309 -1.4157774 2 8
15.499349 9.4089432 -1.4801826 2 7
26.495424 16.084154 0.54102463 30 23
17.230885 12.91852 -1.3802038 4 9
20.498692 11.111366 -1.357895 4 10
30.286575 20.474743 2.1290512 9 27
30.269756 18.37538 1.4426662 12 26
20.162527 13.630546 -1.1336843 3 12
20.17345 12.246376 -1.2368035 3 11
30.361731 20.525551 4.4999042 15 29
30.231907 18.352402 2.8871372 16 28
25.985008 19.481752 -1.3231496 9 13
20.197586 10.948152 -0.80226964 4 14
30.283625 20.472748 9.7947483 23 31
30.230747 18.351698 6.4479518 30 30
20.068216 12.077279 -0.68164939 2 15
4.7862821 3.2089782 -1.613139 1 1
6.9129081 4.1602659 -1.6136533 1 2
30.622408 20.530891 0 10 20
8.4468794 5.6632376 -1.582163 0 3
10.678767 6.4266028 -1.586434 1 4
30.279066 18.222282 -0.20539303 12 19
11.535037 7.7337022 -1.4959316 6 5
14.36437 7.7150245 -1.5220522 1 6
30.634052 20.538698 0.8582238 16 24
30.292856 16.270126 0.40031359 21 22
16.823338 11.279261 -1.4163355 2 8
15.518282 9.339077 -1.4785553 2 7
17.296377 12.864168 -1.381483 4 9
20.516582 11.019343 -1.3562672 4 10
30.321854 20.329384 2.1260278 9 27
30.278448 18.22191 1.4397352 12 26
20.128429 13.49517 -1.128845 3 12
20.210056 12.16264 -1.2361754 3 11
30.585417 20.50609 4.5213532 15 29
30.261166 18.21151 2.8832316 16 28
26.075661 19.393755 -1.3239638 9 13
20.200737 10.849705 -0.80073404 4 14
30.27216 20.296066 9.7657604 23 31
30.236929 18.196924 6.43432 30 30
20.11025 12.007159 -0.68164939 2 15
4.7878337 3.1858509 -1.6099041 1 1
6.9273877 4.1361117 -1.6136533 1 2
30.727188 20.446039 0 10 20
8.4567242 5.6271505 -1.5803182 0 3
10.690915 6.3831882 -1.5849189 1 4
30.605093 22.597029 0.22110847 11 21
30.273802 18.075476 -0.2049281 12 19
11.605004 7.722033 -1.5015007 6 5
14.352546 7.6442451 -1.5179626 1 6
30.778803 20.480383 0.86027098 8 24
30.307102 16.141731 0.39975479 21 22
16.826063 11.196155 -1.4132661 2 8
15.502866 9.2562428 -1.4739989 2 7
30.592655 22.587845 1.1067203 6 25
30.249096 18.060724 0.61495298 10 23
17.373287 12.82743 -1.3840413 4 9
20.551397 10.945788 -1.3560346 4 10
30.282919 20.150419 2.1183534 9 27
30.286964 18.083334 1.43713 12 26
20.068966 13.353999 -1.1228892 3 12
20.214661 12.069499 -1.2338725 3 11
30.703083 20.43 4.5281777 15 29
30.256088 18.064899 2.8767226 16 28
25.921343 19.138819 -1.3127285 9 13
20.199677 10.758459 -0.79919851 4 14
30.288134 20.153891 9.7481604 23 31
30.225929 18.046892 6.4185352 30 30
30.639534 22.474056 -0.66326123 11 17
20.120363 11.927605 -0.68071854 2 15
4.7849655 3.1622977 -1.6055909 1 1
6.9403486 4.114326 -1.6136533 1 2
8.480957 5.6049118 -1.581548 0 3
10.741637 6.3677778 -1.5894644 1 4
30.624332 22.462906 0.2207365 11 21
30.268511 17.943554 -0.20450965 12 19
11.669024 7.7118478 -1.5066414 4 5
14.43635 7.630754 -1.5242829 1 6
30.301088 16.016523 0.39900979 21 22
12.949636 8.5581818 -1.0854107 1 8
15.562736 9.2257853 -1.476928 2 7
30.61511 22.456142 1.1049749 6 25
30.264412 17.941124 0.6141153 10 23
17.403847 12.765697 -1.3832737 4 9
20.596275 10.886763 -1.3567322 4 10
30.296112 20.022156 2.1148653 9 27
30.281752 17.951403 1.4341991 19 26
12.980532 8.5785999 -0.72476882 1 12
20.197506 11.973336 -1.2305231 3 11
30.254396 17.935188 2.8711898 16 28
26.184374 19.206203 -1.3229867 9 13
20.222775 10.689337 -0.79877967 4 14
30.273945 20.007505 9.7233143 23 31
30.238478 17.925751 6.4092083 30 30
34.055454 24.788179 -0.73523498 13 17
20.115686 11.825416 -0.67908943 2 15
4.8126292 3.1552992 -1.6109824 1 1
6.9486175 4.0848861 -1.6120843 1 2
8.4882202 5.5651231 -1.5790883 0 3
10.744377 6.3163009 -1.586434 1 4
30.313379 17.820335 -0.20437014 6 19
11.73712 7.6951952 -1.5117821 2 5
14.421885 7.5556149 -1.5198215 1 6
30.292265 15.870095 0.39812505 21 22
13.00761 8.5281658 -1.0876429 1 8
15.599878 9.1707058 -1.4772534 2 7
34.01067 24.755581 1.2242461 8 25
30.271347 17.795628 0.61292851 10 23
17.450516 12.701828 -1.3832737 4 9
20.646648 10.816764 -1.35743 4 10
30.295816 19.862814 2.1097491 9 27
30.274981 17.797764 1.4307797 18 26
20.122641 13.192986 -1.1208417 3 12
20.217146 11.88506 -1.2290577 3 11
49.291843 32.317158 7.2370896 60 29
30.258062 17.787817 2.8653316 16 28
26.212584 19.079535 -1.32087 9 13
20.237026 10.602163 -0.79780251 4 14
30.285675 19.856165 9.7036438 22 31
30.232731 17.772926 6.3941412 30 30
20.129213 11.739007 -0.67815852 2 15
4.8268442 3.1405807 -1.6120608 1 1
6.9662237 4.0625806 -1.6128687 1 2
8.5009708 5.5311465 -1.5778586 0 3
10.742369 6.2647624 -1.5828985 1 4
30.612453 22.11903 0.21950437 34 21
20.365444 11.876772 -0.13702168 2 19
11.767245 7.6563444 -1.5122105 4 5
14.45524 7.508894 -1.520565 1 6
30.297792 15.738439 0.39747316 21 22
16.937122 11.020119 -1.4129871 2 8
15.645574 9.1242266 -1.4785553 2 7
34.17466 24.692904 1.2270387 8 25
30.267647 17.651564 0.61160213 10 23
17.488279 12.636158 -1.3827621 4 9
20.684284 10.744622 -1.35743 4 10
30.30138 19.715557 2.1053305 9 27
30.285141 17.661766 1.4283372 18 26
20.101591 13.079077 -1.1171192 3 12
20.217106 11.790265 -1.2265456 3 11
49.397705 32.140556 7.236115 30 29
30.240763 17.635887 2.8578458 16 28
26.298462 19.001955 -1.3218468 9 13
20.256176 10.522239 -0.79710448 4 14
30.280321 19.701855 9.6798325 22 31
30.233402 17.631594 6.3812265 30 30
20.123035 11.646169 -0.67664582 2 15
4.8339944 3.1224699 -1.6109824 1 1
6.9830499 4.0414271 -1.6136533 1 2
30.643152 19.793636 0 10 20
8.5325422 5.5115099 -1.5803182 0 3
10.76308 6.2291121 -1.5828985 1 4
30.630371 21.977772 0.21910916 23 21
11.805926 7.6259198 -1.513924 4 5
14.497759 7.4700489 -1.522424 1 6
30.628139 19.783939 0.84845322 8 24
30.303585 15.614086 0.39686784 21 22
16.973566 10.963904 -1.4129871 2 8
15.634333 9.0483408 -1.4746498 2 7
30.256769 17.511049 0.61020595 10 23
17.530079 12.578107 -1.3827621 4 9
20.687845 10.659524 -1.3553369 4 10
30.296139 19.569485 2.1004467 8 27
30.274347 17.521223 1.4250807 18 26
20.091143 12.977672 -1.1141412 3 12
20.204227 11.693158 -1.2234055 3 11
30.631514 19.786118 4.4774799 15 29
30.247311 17.505575 2.8529642 16 28
26.354826 18.910002 -1.3215213 9 13
20.436649 10.530094 -0.80282807 4 14
30.27083 19.553139 9.6560211 22 31
30.244009 17.503664 6.371182 30 30
20.090691 12.97738 -0.5565474 2 16
30.387295 21.635056 -0.6511144 10 17
20.127449 11.550431 -0.67536587 2 15
4.8421655 3.1026499 -1.6099041 1 1
6.9978185 4.0158005 -1.6136533 1 2
30.661619 19.646639 0 10 20
8.5327225 5.4673991 -1.5766287 0 3
10.775518 6.1836891 -1.5813832 1 4
30.437027 21.670464 0.21715637 11 21
14.482482 7.3951168 -1.5179626 1 6
30.676891 19.656424 0.84780186 8 24
30.296503 15.470151 0.39602965 21 22
17.003567 10.895149 -1.4121501 2 8
15.65011 8.9810448 -1.4730225 2 7
30.261793 17.366173 0.60901916 10 23
17.579323 12.516074 -1.3830179 4 9
20.342691 10.387486 -1.3302209 4 10
30.293705 19.410894 2.0953305 8 27
30.27598 17.374315 1.4221497 12 26
20.10494 12.882376 -1.11228 3 12
20.233099 11.611059 -1.222568 3 11
30.657042 19.643705 4.4706554 15 29
30.252499 17.36084 2.8474314 16 28
26.41095 18.803989 -1.32087 9 13
20.265059 10.347845 -0.79459178 4 14
30.280499 19.402431 9.6363516 22 31
30.232889 17.349586 6.3553977 30 30
20.090992 12.873438 -0.55524468 2 16
20.139839 11.464293 -0.67443496 2 15
4.8464627 3.0815985 -1.6077474 1 1
7.0151997 3.9932945 -1.6144377 1 2
8.5684271 5.4481902 -1.5797032 0 3
10.800482 6.1480083 -1.5818884 1 4
30.355677 21.453297 0.21604046 22 21
14.497542 7.3391318 -1.5168474 1 6
30.620445 19.469852 0.84435892 8 24
30.303919 15.340838 0.39542434 21 22
17.058321 10.846445 -1.4135453 2 8
15.709076 8.9421492 -1.4756262 2 7
30.340078 21.442274 1.0812371 13 25
30.259653 17.224842 0.60776258 10 23
17.639194 12.466166 -1.3842971 4 9
20.254124 10.253303 -1.3220814 4 10
30.293871 19.262201 2.0906794 8 27
30.280859 17.236912 1.4195445 18 26
20.176748 12.829282 -1.1137689 3 12
20.263084 11.534449 -1.22194 3 11
49.282608 31.336092 7.1707931 30 29
30.254002 17.221624 2.8418984 16 28
26.476414 18.7117 -1.32087 9 13
20.290348 10.27164 -0.79417294 4 14
30.289337 19.259319 9.6177168 22 31
30.241955 17.214767 6.3446355 29 30
20.07168 12.762475 -0.55347663 2 16
30.318216 21.268509 -0.64643711 21 17
20.155365 11.380157 -0.67362046 2 15
4.8669639 3.0708272 -1.6109824 1 1
7.0188503 3.9629951 -1.6120843 1 2
30.655937 19.342468 0 29 20
8.5706806 5.4077001 -1.5766287 0 3
10.825335 6.1122184 -1.5823934 1 4
30.2994 21.25531 0.21511056 22 21
11.835995 7.4679613 -1.5074981 31 5
14.519513 7.2866902 -1.5164754 1 6
30.644262 19.335102 0.8431493 8 24
30.314386 15.213427 0.39486557 20 22
17.05896 10.763409 -1.410476 2 8
15.733253 8.8833351 -1.4749752 2 7
30.270723 21.235193 1.076117 13 25
30.267359 17.089607 0.60671544 10 23
17.662998 12.390758 -1.3827621 4 9
20.250534 10.162831 -1.3195233 4 10
26.217115 16.541779 1.805333 5 27
30.274719 17.093763 1.4164506 18 26
20.116655 12.692672 -1.1079991 3 12
20.202353 11.406686 -1.2158691 3 11
30.251451 17.080626 2.8360403 16 28
26.541573 18.61916 -1.32087 9 13
20.258198 10.166678 -0.7915206 4 14
30.287762 19.110167 9.5959749 22 31
30.233334 17.070396 6.3302855 29 30
20.112728 12.690194 -0.55338359 2 16
30.28397 21.087124 -0.64413339 21 17
20.139153 11.278466 -0.67175859 2 15
4.8613305 3.0435979 -1.6055909 1 1
7.0292211 3.9365523 -1.6112999 1 2
30.65547 19.192879 0 19 20
20.376179 10.136995 -0.26495105 3 18
8.6062565 5.3882341 -1.5797032 0 3
10.85353 6.0782681 -1.5834036 1 4
30.265093 21.07398 0.21434338 22 21
11.878849 7.437149 -1.5096401 18 5
14.52347 7.2253165 -1.5142449 1 6
30.664124 19.198296 0.84184659 8 24
30.43177 15.139576 0.3957037 10 22
17.140396 10.731317 -1.4141033 2 8
15.757212 8.824461 -1.4743243 2 7
30.249516 21.063133 1.0727426 19 25
30.264025 16.948666 0.60545886 10 23
17.725801 12.342708 -1.3842971 4 9
20.271585 10.084961 -1.318593 4 10
26.166395 16.382343 1.7978913 5 27
30.278418 16.956726 1.4138454 18 26
20.120203 12.596925 -1.1057657 3 12
20.26296 11.347802 -1.2171251 3 11
49.483364 30.980709 7.1683555 90 29
30.255236 16.943743 2.8308327 15 28
26.57033 18.501268 -1.3190789 9 13
20.254196 10.07631 -0.78998506 4 14
30.278971 18.957159 9.5721636 22 31
30.234377 16.932062 6.318089 29 30
20.1264 12.600804 -0.55254608 2 16
30.285009 20.931265 -0.64259762 21 17
20.174902 11.206161 -0.67164224 2 15
4.8686519 3.0245788 -1.6045126 1 1
7.0532045 3.9177067 -1.6136533 1 2
30.474239 18.931675 0 9 20
20.411438 10.065811 -0.26495105 3 18
8.60151 5.3435621 -1.5753988 0 3
10.853867 6.0287871 -1.5803732 1 4
30.252913 20.909082 0.21373895 21 21
11.897978 7.3914447 -1.5087833 13 5
14.545028 7.1728168 -1.513873 1 6
30.645857 15.112869 0.3977991 10 22
17.157413 10.658792 -1.4124291 2 8
15.808827 8.781023 -1.4762771 2 7
30.247198 20.905132 1.0700662 13 25
30.256569 16.80603 0.60413247 10 23
17.739223 12.260335 -1.3819947 4 9
20.306664 10.014142 -1.318593 4 10
26.287865 16.330952 1.8023098 5 27
30.285007 16.821827 1.4114029 18 26
20.157261 12.522403 -1.1053934 3 12
20.246574 11.245973 -1.2137756 3 11
30.251461 16.803192 2.8249748 15 28
26.621595 18.399323 -1.3184274 9 13
20.282072 10.002015 -0.78970581 4 14
30.282597 18.81262 9.5524931 22 31
30.24169 16.797766 6.3073268 29 30
20.098927 12.486164 -0.55059201 2 16
30.271809 20.774153 -0.64085233 21 17
20.162926 11.112185 -0.67001319 2 15
4.8852115 3.0124614 -1.6066693 1 1
7.0592852 3.8905108 -1.6120843 1 2
30.482368 18.796926 0 9 20
20.444702 9.9980736 -0.26495105 3 18
8.6292734 5.3212337 -1.5772436 0 3
10.877273 5.9946785 -1.5808783 1 4
30.262718 20.767916 0.21332049 21 21
11.919037 7.3498631 -1.5083549 13 5
14.593775 7.1367946 -1.5164754 1 6
39.588707 19.360067 0.51304585 16 22
17.185869 10.597651 -1.4118711 2 8
15.792466 8.7035379 -1.4720461 2 7
30.243828 20.754951 1.0675063 19 25
30.26309 16.678583 0.6031552 10 23
17.789652 12.208222 -1.3827621 4 9
20.540646 10.044993 -1.3316163 4 10
26.318079 16.229019 1.8006819 5 27
30.270618 16.682732 1.4081464 18 26
20.181667 12.445007 -1.1044629 3 12
20.269758 11.171062 -1.2129382 3 11
30.413988 18.754759 4.3872967 29 29
30.251146 16.672001 2.8197675 15 28
20.272034 9.9136343 -0.78803068 4 14
30.272461 18.667486 9.5297184 22 31
30.231739 16.661304 6.2936945 29 30
20.133411 12.41525 -0.55040592 2 16
30.311388 20.638294 -0.64008451 21 17
20.196503 11.034369 -0.66978043 2 15
4.8896489 2.9905152 -1.6045126 1 1
7.076941 3.8664899 -1.6128687 1 2
30.332674 18.5515 0 9 20
20.513609 9.9387636 -0.26537016 3 18
8.6520929 5.2916307 -1.5778586 0 3
10.906137 5.9585733 -1.5818884 1 4
30.312185 20.638838 0.21313451 21 21
11.935719 7.2999001 -1.5070698 11 5
14.609086 7.0780454 -1.5153602 1 6
26.333055 16.10533 0.71827275 113 24
39.767391 19.267145 0.51444274 16 22
17.214384 10.528338 -1.411034 2 8
15.841757 8.6551514 -1.4736735 2 7
30.326309 20.648453 1.067739 12 25
30.260849 16.53303 0.60189861 10 23
