# .PCD v0.7 - Point Cloud Data file format
VERSION 0.7
FIELDS x y z intensity ring
SIZE 4 4 4 4 2
TYPE F F F F U
COUNT 1 1 1 1 1
WIDTH 1290
HEIGHT 1
VIEWPOINT 0 0 0 1 0 0 0
POINTS 1290
DATA ascii
-0.071204878 4.9749393 -0.40617147 1 7
-1.0667189 9.4801359 0.27764007 2 25
-0.071030222 4.9627361 0.086633749 6 23
-0.56596887 5.0298743 -0.32439265 0 9
-0.31263939 4.9417305 0.28836957 8 27
-0.070982158 4.9593778 0.20207097 11 26
-0.33276021 5.2597704 -0.2454982 3 12
-0.31208813 4.9330177 0.60690933 5 29
-0.070862554 4.9510217 0.40421873 7 28
-0.86384356 7.6771441 -0.31474873 0 13
0.18784076 5.4334402 -0.18985325 0 14
-0.3046937 4.8161373 1.2930601 2 31
-0.10778995 7.5310631 1.373248 2 30
-0.48603824 7.6825576 -0.17912619 6 16
-0.83587521 7.6694098 -0.13466278 3 17
-0.083157226 7.6842971 -0.22364803 3 15
-0.25919905 4.3372245 -1.2163241 0 1
-0.053394228 4.9339919 -0.98686224 1 2
-0.29398021 4.9192238 0 0 20
0.35967004 9.4485159 -0.11007809 0 18
-0.84118891 7.7181644 0.0451237 2 21
-0.083407447 7.7074189 -0.044798233 4 19
-0.32170814 5.3832002 -0.58089441 0 5
0.34647223 9.1018095 -0.85025245 0 6
-0.29676333 4.9657941 0.11575739 11 24
0.18972443 4.9840522 0.058065727 7 22
-0.30897468 5.1701288 -0.36217561 1 8
-1.0370882 9.5155993 0.27857095 1 25
-0.053707644 4.962954 0.086633749 6 23
-0.54840893 5.0318189 -0.32439265 0 9
-0.053498309 4.9436097 0.20141965 19 26
-0.31487599 5.2688766 -0.24587047 3 12
-0.062460106 5.7717409 -0.30250186 2 11
-0.29439417 4.9261503 0.60593444 5 29
-0.053580869 4.9512386 0.40421873 7 28
-0.56813174 5.2127819 -0.21363182 1 13
-0.28765088 4.813314 1.2920247 2 31
-0.081502549 7.5313931 1.373248 2 30
-0.45945832 7.6881986 -0.17921925 6 16
-0.80909687 7.6722808 -0.13466278 3 17
-0.056390092 7.6925368 -0.22388075 4 15
-0.24448928 4.3457947 -1.2184806 0 1
-0.036255997 4.9459147 -0.98921567 1 2
0.39049259 9.3952513 -0.10947275 1 18
-0.81465989 7.7250323 0.04514695 5 21
-0.056559619 7.715663 -0.044844732 4 19
-0.30336061 5.3922319 -0.58175123 0 5
0.37873992 9.1124821 -0.85136777 0 6
-0.2789771 4.9588151 0.11557129 14 24
0.20712219 4.9833598 0.058065727 7 22
-0.29070014 5.167192 -0.36189657 1 8
-0.056840625 7.7539968 -0.63301563 4 7
-1.0097343 9.5748301 0.28020003 0 25
-0.036352735 4.9591112 0.08656393 6 23
-0.53335184 5.0575218 -0.32592764 0 9
0.20579089 4.9513288 -0.28860211 0 10
-0.27768335 4.9358187 0.28790444 13 27
-0.036357433 4.9597521 0.20207097 12 26
-0.29558307 5.2539864 -0.24512596 2 12
-0.042223204 5.7599401 -0.3018738 2 11
-0.27697256 4.9231849 0.60544699 6 29
-0.036266949 4.9474087 0.40389326 7 28
0.39260522 9.4460812 -0.33014923 1 14
-0.27106327 4.8181467 1.2930601 2 31
-0.055297118 7.543437 1.3754004 2 30
-0.43329048 7.7017341 -0.1794984 6 16
-0.78190303 7.6710792 -0.13459297 3 17
-0.029489692 7.6806917 -0.22353166 4 15
-0.23012875 4.3620081 -1.2227939 0 1
-0.019020122 4.953856 -0.99078459 1 2
-0.26047096 4.9371343 0 1 20
0.42238805 9.3738527 -0.10923994 1 18
-0.26778641 5.0757957 -0.79077399 0 3
-0.028626183 7.4557877 -0.94903201 0 4
-0.02962454 7.7158132 -0.044844732 4 19
-0.28348729 5.3734002 -0.57960927 1 5
0.41018999 9.1031475 -0.8506242 0 6
-0.26166457 4.9597588 0.11557129 16 24
0.22469747 4.9866018 0.05811229 7 22
-0.27308056 5.1761446 -0.36245462 1 8
-0.029802339 7.7621217 -0.63366657 4 7
-0.50031477 4.9084787 0.14359088 0 25
-0.01904067 4.959208 0.08656393 6 23
-0.5128597 5.0315537 -0.32413685 1 9
0.42601621 9.4543705 -0.55115795 2 10
-0.26129267 4.9527092 0.28883469 18 27
-0.019089166 4.971839 0.20255946 10 26
-0.27871361 5.282917 -0.24642885 2 12
-0.022084806 5.7520638 -0.30145514 2 11
-0.25957528 4.9201565 0.60495949 6 29
-0.018949818 4.935545 0.40291688 8 28
-0.53253388 5.2245731 -0.21395747 1 13
-0.2540383 4.8152051 1.2920247 2 31
-0.028948165 7.539649 1.374683 2 30
-0.40576971 7.6912193 -0.17921925 6 16
-0.75434315 7.665802 -0.13445334 3 17
-0.0026897476 7.6967416 -0.22399712 3 15
-0.0017284743 4.9460478 -0.98921567 1 2
-0.24284539 4.9300232 0 1 20
0.45509991 9.3723221 -0.10923994 1 18
-0.0026922389 7.7038703 -0.044774987 4 19
0.44215029 9.1056376 -0.8509959 0 6
-0.24415685 4.9566474 0.11547823 15 24
0.2419052 4.9817924 0.058065727 6 22
-0.25540698 5.1850376 -0.3630127 1 8
-0.0027140088 7.7661653 -0.63399202 4 7
-0.0017358816 4.9672437 0.086703561 6 23
-0.49607846 5.0412588 -0.3246485 1 9
0.45842806 9.4408617 -0.55046028 3 10
-0.0017375003 4.9718757 0.20255946 9 26
-0.38058302 7.7262454 -0.36033702 1 12
-0.0020073722 5.7441173 -0.30103645 2 11
-0.24240252 4.9210329 0.60495949 6 29
-0.0017276031 4.9435549 0.40356779 7 28
-0.51781964 5.2621975 -0.21542296 1 13
0.45776176 9.4271402 -0.32959086 1 14
-0.23723187 4.8160629 1.2920247 2 31
-0.0026334934 7.5357695 1.3739655 2 30
-0.37892514 7.6925893 -0.17921925 6 16
-0.72891617 7.6682611 -0.13445334 3 17
0.022800114 7.6847129 -0.22364803 3 15
0.01468622 4.9499483 -0.99000019 1 2
-0.22631058 4.926805 0 2 20
0.48638698 9.3747549 -0.10928649 1 18
-0.22978684 5.0024838 -0.7790907 0 3
0.022085655 7.4439063 -0.94751674 0 4
-0.73355705 7.717083 0.045053959 56 21
0.022880588 7.7118363 -0.044821482 5 19
-0.24526528 5.3394508 -0.57575381 1 5
0.47213948 9.1001444 -0.8506242 0 6
-0.22735031 4.94944 0.11529212 19 24
0.25821823 4.9769683 0.058019161 6 22
-0.23930854 5.2097716 -0.36468685 1 8
0.023029851 7.7621446 -0.63366657 2 7
-1.0026503 10.547967 0.30835965 2 25
0.014725604 4.9632225 0.086633749 6 23
-0.48086786 5.0587711 -0.32567179 1 9
0.27414411 5.2839279 -0.30813682 0 10
-0.22519484 4.9025154 0.28581145 124 27
0.014739354 4.9678569 0.20239662 9 26
-0.22644545 4.9297414 0.60593444 6 29
0.014690844 4.9515066 0.40421873 7 28
-0.50149989 5.2758217 -0.21591145 1 13
0.48985183 9.4415379 -0.33014923 1 14
-0.22108132 4.8129635 1.2909895 2 31
0.022346433 7.5318007 1.373248 2 30
-0.35341138 7.6938028 -0.17921925 6 16
-0.70250702 7.6747413 -0.13452315 3 17
0.049626671 7.6845865 -0.22364803 4 15
0.031965993 4.9498668 -0.99000019 1 2
-0.20961891 4.9395547 0 1 20
0.5217647 9.4209223 -0.10984527 1 18
-0.21316007 5.0229998 -0.78216529 0 3
0.048148453 7.4556875 -0.94903201 0 4
-0.70661288 7.7195969 0.045053959 56 21
0.049827661 7.7157092 -0.044844732 4 19
-0.2257811 5.3204074 -0.57361186 1 5
0.50478536 9.1143465 -0.85211128 0 6
-0.21024038 4.9541988 0.11538517 19 24
-0.21925919 5.1667223 -0.36161754 1 8
-0.44974509 4.9133706 0.14359088 3 25
0.032103367 4.9711394 0.086773366 6 23
-0.46502459 5.0802956 -0.326951 1 9
-0.20858712 4.9152412 0.28650913 216 27
0.032107454 4.9717717 0.20255946 9 26
-0.32797951 7.7286572 -0.36033702 6 12
-0.20872976 4.918602 0.60447198 6 29
0.031976055 4.9514251 0.40421873 7 28
-0.48635823 5.3133612 -0.2173769 1 13
0.52501911 9.4796848 -0.3315452 0 14
-0.20476973 4.8252864 1.2940953 2 31
0.048715428 7.5434823 1.3754004 2 30
-0.32638124 7.6909947 -0.17912619 5 16
-0.67501324 7.669179 -0.13438353 3 17
0.076528534 7.6923637 -0.22388075 4 15
0.049204003 4.9458032 -0.98921567 1 2
-0.19159819 4.9202714 0 0 20
0.55864173 9.4869232 -0.11063686 1 18
-0.19331938 4.9644718 -0.77294165 0 3
-0.67966384 7.7220168 0.045053959 19 21
0.076718807 7.7114892 -0.044821482 4 19
-0.20628063 5.2973189 -0.57104152 1 5
0.53800011 9.136385 -0.85434192 0 6
-0.19310237 4.958899 0.11547823 13 24
0.54523993 9.2593317 0.10798269 3 22
-0.92828614 10.546745 0.30812696 2 25
0.04937508 4.9629993 0.086633749 6 23
-0.4455393 5.0620055 -0.32567179 1 9
0.31384304 5.3297215 -0.31092748 0 10
-0.19003105 4.8800268 0.28441611 116 27
0.04942118 4.9676332 0.20239662 9 26
0.056626718 5.6919069 -0.29831499 2 11
-0.19171488 4.9232678 0.60495949 6 29
0.049218867 4.9472971 0.40389326 8 28
-0.4674589 5.3110456 -0.21721408 1 13
-0.18762544 4.8182502 1.2920247 2 31
0.075045228 7.5432668 1.3754004 2 30
-0.30000108 7.7040749 -0.17940535 6 16
-0.64891374 7.6794581 -0.13452315 3 17
0.1033778 7.692049 -0.22388075 4 15
0.066466734 4.945601 -0.98921567 1 2
-0.2910358 8.210844 0 0 20
0.59100467 9.4729385 -0.11049717 1 18
0.10368858 7.7151737 -0.044844732 4 19
-0.18722591 5.2821088 -0.56932795 1 5
0.56790292 9.1026516 -0.85136777 0 6
-0.17579246 4.9595428 0.11547823 15 24
0.57780486 9.2613659 0.10802926 3 22
-0.27520275 7.764154 -0.54326344 3 8
-0.89146769 10.549921 0.30812696 2 25
0.06675157 4.966795 0.086703561 6 23
-0.42820406 5.0675077 -0.32592764 1 9
0.33269286 5.3325791 -0.31116006 1 10
-0.17554261 4.9524937 0.28860211 111 27
0.06686753 4.9754233 0.20272227 9 26
-0.3200191 9.0285349 -0.42082751 51 12
-0.17452934 4.9239068 0.60495949 6 29
0.066540383 4.9510813 0.40421873 7 28
-0.45161027 5.3445039 -0.21851669 1 13
-0.17080648 4.8188758 1.2920247 2 31
0.10142697 7.5468936 1.3761179 2 30
-0.27296701 7.7010784 -0.17931229 6 16
-0.62145579 7.6737046 -0.13438353 3 17
0.13022949 7.6916413 -0.22388075 3 15
0.083731018 4.9453392 -0.98921567 1 2
-0.15903187 4.9774604 0 0 20
0.62380731 9.4668274 -0.11045061 1 18
-0.16004451 5.0091548 -0.77970558 0 3
0.12655489 7.4746118 -0.95155734 0 4
-0.62702888 7.7425213 0.04514695 2 21
0.13048556 7.7067657 -0.044798233 2 19
-0.16815037 5.262856 -0.56718606 1 5
0.59915227 9.0926657 -0.8506242 0 6
-0.15835032 4.9561291 0.11538517 18 24
0.61065787 9.2672729 0.10812239 2 22
-0.2479696 7.7610788 -0.54298437 2 8
-0.39826944 4.9178109 0.14359088 1 25
0.084089845 4.9665318 0.086703561 6 23
-0.41180012 5.084887 -0.326951 1 9
0.35156897 5.3353696 -0.31139264 1 10
-0.15710512 4.9171557 0.28650913 28 27
0.084235922 4.9751596 0.20272227 9 26
-0.15746613 4.9284549 0.60544699 6 29
0.0838238 4.950819 0.40421873 7 28
-0.42972416 5.3062119 -0.2168884 1 13
0.62793791 9.5295124 -0.33349961 1 14
-0.15422989 4.8271661 1.2940953 2 31
0.12777194 7.5464935 1.3761179 2 30
-0.2458261 7.6939907 -0.17912619 7 16
-0.59404957 7.6678514 -0.13424391 3 17
0.15699427 7.6871424 -0.22376439 3 15
0.10091184 4.9410958 -0.98843127 1 2
-0.14131603 4.9659901 0 0 20
0.65629303 9.4566116 -0.11035748 1 18
-0.14222209 4.9978304 -0.77786094 0 3
0.10395011 5.0898633 -0.64800858 0 4
-0.62008274 8.0038815 0.04665805 1 21
-0.14921398 5.2435327 -0.56504405 1 5
0.63254052 9.1143579 -0.85285485 0 6
-0.14105026 4.9566512 0.11538517 13 24
0.64549327 9.3009958 0.10854147 2 22
-0.22065148 7.7539196 -0.54242635 2 8
0.19569534 9.5821199 -0.78240079 0 7
-0.3801752 4.9072118 0.14324179 2 25
0.10158804 4.9742055 0.086843178 6 23
-0.39466578 5.0942526 -0.32746264 1 9
0.36936024 5.3221593 -0.31069496 1 10
-0.14016826 4.9256568 0.28697422 14 27
0.10151929 4.9708395 0.20255946 9 26
-0.22026876 7.7404704 -0.36070928 4 12
0.11492214 5.6271029 -0.29496548 1 11
-0.14037558 4.9329424 0.60593444 6 29
0.10118522 4.9544821 0.40454417 7 28
-0.40873086 5.2758012 -0.21558578 1 13
0.66091955 9.5232754 -0.33335999 1 14
-0.13716021 4.8199506 1.2920247 2 31
0.1540314 7.5420671 1.3754004 2 30
-0.25991926 9.1338301 -0.2126251 13 16
-0.56757313 7.6738677 -0.13431372 3 17
0.18392408 7.6905451 -0.22388075 3 15
0.11806639 4.9367919 -0.98764676 1 2
-0.12377965 4.9584551 0 0 20
0.69366401 9.5141001 -0.11105595 1 18
0.12465872 5.2124414 -0.66366577 0 4
-0.36466497 4.9304495 0.028734103 1 21
0.1187768 4.9664965 -0.028873591 0 19
-0.13011438 5.2122164 -0.56161702 0 5
0.66725016 9.1518154 -0.85657263 0 6
-0.12364636 4.9531159 0.11529212 13 24
0.67912173 9.3146429 0.10872772 2 22
-0.19348228 7.7506537 -0.54214734 2 8
-0.77209139 10.439054 0.30463606 2 25
0.11895196 4.9738207 0.086843178 6 23
-0.37746862 5.1035614 -0.32797429 1 9
0.38793722 5.3208375 -0.31069496 1 10
-0.12347063 4.9460764 0.28813702 11 27
0.1187759 4.9664588 0.20239662 9 26
-0.19294694 7.7292089 -0.3601509 4 12
0.13322814 5.5707603 -0.29203469 1 11
-0.12315425 4.9334025 0.60593444 6 29
0.11838499 4.9501133 0.40421873 8 28
-0.38795263 5.2453103 -0.21428315 1 13
0.6947419 9.5288839 -0.3336392 1 14
-0.12023692 4.8165379 1.2909895 2 31
0.18045327 7.5454178 1.3761179 2 30
-0.19220573 7.6995173 -0.17921925 11 16
-0.54106551 7.6797915 -0.13438353 3 17
0.13561966 4.948112 -0.99000019 1 2
-0.10655756 4.9628563 0 0 20
1.2154089 15.904546 -0.18569857 1 18
0.13633053 4.9740486 -0.028920086 0 19
-0.11192064 5.2126384 -0.56161702 1 5
0.69645882 9.1136904 -0.8532266 0 6
-0.10644288 4.9575152 0.11538517 13 24
0.71498233 9.3560848 0.10923994 2 22
-0.16642788 7.7512817 -0.54214734 2 8
0.13620248 4.9693766 0.086773366 6 23
-0.36049426 5.1167936 -0.32874179 1 9
0.40681121 5.323432 -0.31092748 1 10
-0.10612015 4.9424844 0.28790444 10 27
0.13611031 4.9660139 0.20239662 9 26
-0.16605319 7.7338305 -0.36033702 4 12
0.15190564 5.5423098 -0.29056925 1 11
-0.10567807 4.9218946 0.60447198 6 29
0.13555312 4.9456844 0.40389326 7 28
-0.36908001 5.2386584 -0.21395747 1 13
0.96985132 12.691238 -0.44448 1 14
-0.10359021 4.8246536 1.2930601 2 31
0.20711246 7.5565429 1.3782704 2 30
-0.16532984 7.700141 -0.17921925 4 16
-0.51425272 7.6816335 -0.13438353 3 17
0.15239625 4.9315572 -0.14359088 0 15
0.15289226 4.9476085 -0.99000019 1 2
-0.089734383 4.9911413 -0.77663106 0 3
0.22992477 7.4403872 -0.94751674 0 4
-0.33050224 4.9368663 0.028757352 8 21
0.2940442 9.5152979 -0.055329423 0 19
0.7282697 9.1112041 -0.8532266 0 6
-0.08913596 4.9578567 0.11538517 11 24
0.9968524 12.471376 0.14565325 3 22
-0.13958298 7.7637844 -0.54298437 2 8
-0.33063498 4.9388494 0.14405632 10 25
0.15354933 4.9688711 0.086773366 6 23
-0.34422958 5.1419182 -0.33027676 1 9
0.42475602 5.3140187 -0.31046239 1 10
-0.08900927 4.95081 0.28836957 8 27
0.15356888 4.9695034 0.20255946 9 26
-0.13905402 7.7343631 -0.36033702 1 12
0.16989526 5.4978271 -0.28826648 1 11
-0.0887096 4.9341421 0.60593444 6 29
0.15269411 4.941196 0.40356779 8 28
-0.35159093 5.2518778 -0.21444596 1 13
-0.086608209 4.8172598 1.2909895 2 31
0.2333689 7.5518403 1.3775529 2 30
-0.13844828 7.7006712 -0.17921925 5 16
-0.48718044 7.6793904 -0.13431372 3 17
0.17029823 4.9509754 -0.1441727 0 15
0.17029788 4.9509649 -0.99078459 1 2
-0.11912761 8.2231369 0 0 20
1.3274195 15.907632 -0.18583827 1 18
-0.074772045 5.1613626 -0.80307221 0 3
0.25576076 7.4355741 -0.94701171 0 4
-0.31301278 4.9339976 0.028734103 8 21
0.32643446 9.4902277 -0.055189937 0 19
-0.076100431 5.2530584 -0.56590086 1 5
0.75974059 9.1046371 -0.85285485 0 6
-0.071885876 4.9621363 0.11547823 12 24
1.0380546 12.439919 0.14532728 3 22
-0.1310333 9.0449629 -0.63255173 0 8
0.32796162 9.5346251 -0.77882081 0 7
-0.31339186 4.9399734 0.14405632 13 25
0.17089431 4.9683046 0.086773366 6 23
-0.32627746 5.1430883 -0.33027676 1 9
0.44197604 5.2965865 -0.30953217 1 10
-0.071668021 4.9470983 0.28813702 8 27
0.17077866 4.9649425 0.20239662 9 26
-0.071484379 4.9344215 0.60593444 6 29
0.17007954 4.9446177 0.40389326 8 28
-0.3332549 5.2530732 -0.21444596 1 13
1.2179984 14.596342 -0.51148707 2 14
-0.069902956 4.8252592 1.2930601 2 31
0.25973034 7.5509796 1.3775529 2 30
-0.1115071 7.6971087 -0.17912619 5 16
-0.46037665 7.6810436 -0.13431372 3 17
0.18681896 4.9303732 -0.14359088 0 15
0.18757553 4.9503403 -0.99078459 1 2
-0.090912253 8.2674999 0 0 20
1.3818887 15.890946 -0.18569857 3 18
0.28155884 7.4306707 -0.94650662 0 4
-0.29626998 4.9430456 0.028780598 8 21
0.35576674 9.3891048 -0.054608747 1 19
-0.058116827 5.2851057 -0.56932795 1 5
0.7908206 9.0939941 -0.85211128 0 6
-0.054479823 4.9543591 0.11529212 11 24
1.0776515 12.392388 0.14481509 3 22
-0.05554647 5.0513592 -0.35324678 1 8
0.36017847 9.5055351 -0.7765426 0 7
-0.29543197 4.9290638 0.14370723 15 25
0.18838394 4.9716749 0.086843178 6 23
-0.30904275 5.1561494 -0.33104426 1 9
0.46011224 5.2910328 -0.30929962 1 10
-0.054490212 4.9553037 0.28860211 6 27
0.18825646 4.9683104 0.20255946 9 26
-0.06353011 5.7773862 -0.26913604 4 12
-0.054219343 4.9306712 0.60544699 6 29
0.18748602 4.947978 0.40421873 7 28
-0.31731099 5.2940993 -0.21607426 1 13
-0.053062554 4.8254738 1.2930601 2 31
0.28593245 7.5460949 1.3768355 2 30
-0.084731735 7.7054482 -0.17931229 4 16
-0.43378529 7.6865969 -0.13438353 3 17
0.20469341 4.9457364 -0.99000019 1 2
-0.037224308 4.9598603 0 0 20
1.4402376 15.917894 -0.18607108 1 18
0.30864555 7.4573951 -0.95004213 0 4
-0.27901244 4.9440498 0.028780598 8 21
-0.039875526 5.3131156 -0.57232666 1 5
0.82650989 9.1348095 -0.85620087 0 6
-0.037214234 4.958518 0.11538517 13 24
1.1216265 12.396518 0.14490822 5 22
-0.058126118 7.7448702 -0.54158926 2 8
0.39352411 9.5082035 -0.77686805 1 7
0.20606923 4.9789786 0.086982794 6 23
-0.29171592 5.1691537 -0.33181176 1 9
0.47822016 5.2854176 -0.30906707 1 10
-0.037161343 4.9514709 0.28836957 7 27
0.20576452 4.9716167 0.20272227 9 26
-0.038173564 5.0863419 -0.23693648 4 12
-0.036976639 4.9268603 0.60495949 6 29
0.20492269 4.9512763 0.40454417 8 28
-0.43484291 7.705338 -0.31442308 2 13
-0.036274884 4.8333569 1.2951305 2 31
0.31227347 7.5450511 1.3768355 2 30
-0.057832126 7.7056975 -0.17931229 5 16
-0.40674165 7.6840706 -0.13431372 3 17
0.42131445 9.3865719 -0.27345103 2 15
0.22195497 4.9449916 -0.99000019 1 2
-0.033159859 8.2599335 0 1 20
1.1746215 12.496064 -0.14611889 1 18
0.33324993 7.4245601 -0.94600159 0 4
-0.26154241 4.9409995 0.028757352 11 21
0.41951284 9.3464336 -0.054376271 1 19
-0.02139402 5.3291297 -0.57404023 1 5
0.85503495 9.0961828 -0.85285485 0 6
-0.019906584 4.9586177 0.11538517 11 24
1.1675093 12.420403 0.14523417 3 22
-0.031108757 7.7490158 -0.54186833 2 8
-0.26016805 4.9150352 0.14324179 19 25
0.22398482 4.9902148 0.087192222 5 23
-0.27472657 5.1900711 -0.3330909 1 9
0.49778682 5.2956433 -0.30976471 1 10
-0.019894324 4.9555635 0.28860211 7 27
0.22311643 4.9708676 0.20272227 8 26
-0.023114577 5.7577109 -0.2682054 4 12
0.42467651 9.4614763 -0.49635425 1 11
-0.019811368 4.9348998 0.60593444 6 29
0.22202484 4.946548 0.40421873 7 28
-0.019373087 4.825727 1.2930601 2 31
0.33896002 7.5517769 1.3782704 1 30
-0.030935476 7.7058525 -0.17931229 5 16
-0.38145778 7.6893716 -0.13438353 3 17
0.45359239 9.4090853 -0.27414921 2 15
0.23891757 4.9559817 -0.99235362 1 2
-0.0034734206 4.9719992 0 0 20
1.2179886 12.512006 -0.14635171 1 18
0.35691199 7.4035969 -0.9434762 0 4
-0.24515699 4.9418397 0.028757352 8 21
0.45108026 9.3569746 -0.054446008 2 19
-0.0037284964 5.3371248 -0.57489699 1 5
0.88403475 9.0814056 -0.85173953 0 6
-0.0034696874 4.9666553 0.11557129 10 24
1.2203137 12.535892 0.14663109 1 22
-0.0054134768 7.7490764 -0.54186833 2 8
0.45727113 9.4853945 -0.77524078 0 7
-0.24446306 4.9278512 0.14359088 32 25
0.24014559 4.9814553 0.087052606 5 23
-0.2569218 5.1789927 -0.3323234 1 9
0.51379645 5.2780657 -0.30883449 1 10
-0.0034619661 4.9556026 0.28860211 6 27
0.23979065 4.9740925 0.20288511 6 26
-0.0040167645 5.749764 -0.26783314 4 12
0.45450896 9.4280977 -0.49467951 1 11
-0.003450304 4.9389091 0.60642189 6 29
0.23861793 4.9497662 0.40454417 6 28
-0.38139769 7.6881604 -0.31360891 3 13
1.2126813 12.457485 -0.43708128 1 14
-0.0033685626 4.8219008 1.2920247 2 31
0.36380976 7.5466805 1.3775529 1 30
-0.0053833229 7.7059126 -0.17931229 5 16
-0.35424411 7.6826663 -0.13424391 3 17
0.48684889 9.415431 -0.27438191 1 15
0.25662211 4.9629521 -0.99392253 1 2
0.022751834 8.1479692 0 0 20
1.602464 15.886301 -0.18588482 3 18
0.38808259 7.5053363 -0.95660806 0 4
-0.22771974 4.9386697 0.028734103 8 21
0.48436162 9.3673277 -0.054515753 2 19
0.014858551 5.321198 -0.57318348 1 5
0.91533208 9.0743017 -0.85136777 0 6
0.0138685 4.9666371 0.11557129 11 24
1.5185676 15.05458 0.17615288 4 22
0.021660199 7.7570286 -0.54242635 2 8
0.4879106 9.4359636 -0.77133524 0 7
-0.22707471 4.9246807 0.14347452 18 25
0.25732744 4.976593 0.086982794 4 23
-0.23957632 5.1958094 -0.33334672 1 9
0.53141707 5.2682943 -0.3083694 1 10
0.013826486 4.951591 0.28836957 5 27
0.25777248 4.9851995 0.2033736 6 26
0.016032876 5.7417517 -0.26746088 4 12
0.48700631 9.4184752 -0.49426082 1 11
0.013791023 4.9388909 0.60642189 6 29
0.25610161 4.9528856 0.40486965 4 28
-0.35455671 7.6894455 -0.31360891 4 13
0.013485875 4.8296103 1.2940953 2 31
0.39055878 7.553225 1.3789878 2 30
0.021517389 7.7058845 -0.17931229 5 16
-0.32893431 7.6877947 -0.13431372 3 17
0.51741242 9.4017868 -0.27403283 0 15
0.27286428 4.9581571 -0.99313802 1 2
0.030176938 4.939908 0 0 20
0.41079071 7.4643874 -0.95155734 0 4
-0.21133985 4.9393978 0.028734103 8 21
0.51718318 9.3976221 -0.054701738 1 19
0.032189857 5.2694192 -0.56761438 0 5
0.94748533 9.0910225 -0.8532266 0 6
0.030290913 4.9585652 0.11538517 11 24
1.5680715 15.045482 0.1761063 4 22
0.047434229 7.764894 -0.54298437 1 8
0.51920134 9.4342937 -0.77133524 0 7
-0.21091214 4.9294014 0.14359088 19 25
0.50964099 9.2605743 0.16188851 3 23
-0.22353806 5.2244916 -0.33513755 1 9
0.54764408 5.2545872 -0.30767173 1 10
0.030321039 4.9634972 0.28906724 6 27
0.51324928 9.3261395 0.3805317 2 26
0.034928281 5.7176938 -0.26634416 4 12
0.51867807 9.4247856 -0.49467951 1 11
0.030146025 4.9348474 0.60593444 6 29
0.51438171 9.3467169 0.76417518 2 28
-0.32922429 7.6945715 -0.31377175 3 13
1.2924821 12.40123 -0.43540615 3 14
0.029479116 4.8256755 1.2930601 2 31
0.41560614 7.551888 1.3789878 2 30
0.047048632 7.7017722 -0.17921925 5 16
-0.30091298 7.692945 -0.13438353 3 17
0.55842757 9.5115881 -0.27729097 0 15
0.29057413 4.9492931 -0.9915691 1 2
0.048359487 4.9477644 0 0 20
0.43605161 7.4271827 -0.94701171 0 4
-0.19370478 4.9521298 0.028803848 8 21
0.55185598 9.3996563 -0.054724984 1 19
0.051152028 5.2334752 -0.56375891 0 5
0.048541818 4.9664192 0.11557129 11 24
1.6240604 15.047586 0.17619945 4 22
-0.19300096 4.9341364 0.14370723 13 25
0.54451483 9.2746153 0.16216777 3 23
-0.30143481 7.706285 -0.49426389 2 9
0.56732672 5.2565155 -0.3079043 1 10
0.048511848 4.9633527 0.28906724 6 27
0.54695719 9.3162165 0.38020602 2 26
0.055687901 5.6975503 -0.26541355 4 12
0.048193038 4.9307342 0.60544699 6 29
0.54956818 9.3606892 0.765477 2 28
-0.30117801 7.6997204 -0.31393456 3 13
1.3404973 12.420257 -0.43624371 3 14
0.04716482 4.8255353 1.2930601 2 31
0.44351134 7.5542431 1.3797053 2 30
0.075314075 7.7055464 -0.17931229 5 16
-0.27554521 7.6978974 -0.13445334 3 17
0.30746973 4.9561315 -0.99313802 1 2
0.064713247 4.9435773 0 0 20
1.7690587 15.896786 -0.18621077 1 18
0.46018577 7.4177747 -0.94600159 0 4
-0.17742594 4.9567423 0.028827094 7 21
0.069390476 5.3008795 -0.57104152 0 5
0.065009803 4.9662309 0.11557129 10 24
1.6774871 15.073922 0.17657197 4 22
0.13966158 10.669032 -0.74611521 1 8
0.58652908 9.4543133 -0.77328801 1 7
-0.17649567 4.9307532 0.14359088 19 25
0.57551342 9.2767506 0.16223757 3 23
-0.27687931 7.7351675 -0.49605474 2 9
0.58475381 5.2546058 -0.3079043 1 10
0.064969659 4.9631648 0.28906724 6 27
0.57982594 9.3462648 0.38150868 2 26
0.074318714 5.6773582 -0.26448292 3 12
0.33440021 5.3902264 -0.28303289 0 11
0.064594649 4.9345169 0.60593444 6 29
0.58208561 9.3826895 0.76742977 1 28
1.3834429 12.431636 -0.43680212 1 14
0.063266791 4.8330789 1.2951305 2 31
0.46855819 7.5527306 1.3797053 2 30
0.10096932 7.7132521 -0.1794984 5 16
-0.24828343 7.68682 -0.13424391 3 17
0.62341958 9.5115557 -0.27740732 1 15
0.32476929 4.9550276 -0.99313802 1 2
0.082036816 4.9473205 0 0 20
1.8240863 15.886539 -0.18616422 1 18
0.48685634 7.4280009 -0.94751674 0 4
-0.15973386 4.9453378 0.028757352 7 21
0.61268544 9.347784 -0.054446008 1 19
0.086971879 5.2449346 -0.56504405 0 5
0.082478724 4.9739699 0.11575739 11 24
1.7328362 15.091813 0.17685135 2 22
0.17703779 10.676458 -0.74667329 1 8
0.59293377 9.0464315 -0.74009132 0 7
-0.15953988 4.939332 0.14382361 16 25
0.60972518 9.3026199 0.16272624 2 23
-0.24987474 7.7360868 -0.49605474 2 9
0.60309368 5.2525315 -0.3079043 1 10
0.082361497 4.9669003 0.28929979 6 27
0.61323357 9.3561468 0.38199717 2 26
0.093673728 5.649097 -0.26318005 2 12
0.35530502 5.4209132 -0.28470761 0 11
0.081886098 4.938231 0.60642189 6 29
1.0051713 15.335968 1.2546403 3 28
0.080138303 4.8328285 1.2951305 2 31
0.49517867 7.554975 1.3804228 2 30
0.12776245 7.7048554 -0.17931229 5 16
-0.22145152 7.6876397 -0.13424391 3 17
0.65716624 9.5173006 -0.27764007 1 15
0.34233275 4.957777 -0.99392253 1 2
0.099384926 4.9510026 0 0 20
0.5141471 7.4460492 -0.95004213 0 4
-0.14281699 4.95786 0.028827094 7 21
0.64365649 9.3216476 -0.054306529 2 19
0.10519867 5.240623 -0.56461567 0 5
0.099839576 4.9736519 0.11575739 11 24
0.21478277 10.699713 -0.74834746 1 8
0.64757496 9.378397 -0.76742977 0 7
-0.14229845 4.9398584 0.14382361 13 25
0.64412028 9.3283644 0.16321491 2 23
-0.22275591 7.7329211 -0.49579889 2 9
0.61954623 5.2345328 -0.30697405 1 10
0.099617526 4.9625902 0.28906724 6 27
0.64616227 9.3579378 0.38215998 2 26
0.11282967 5.6207719 -0.26187718 2 12
0.36789542 5.3279843 -0.27989271 0 11
0.099122211 4.9379153 0.60642189 6 29
1.1207607 16.23123 1.3281938 3 28
-0.22164692 7.6944232 -0.31360891 3 13
0.096851446 4.8247938 1.2930601 2 31
0.52208799 7.5610523 1.3818578 2 30
0.15473528 7.7083607 -0.17940535 4 16
-0.1947145 7.6923642 -0.13431372 3 17
0.69241172 9.5428629 -0.2784546 1 15
0.35963789 4.956552 -0.99392253 1 2
0.11647939 4.9426279 0 0 20
1.9412425 15.925032 -0.18676955 3 18
0.53784031 7.412549 -0.94600159 0 4
-0.12540746 4.9543295 0.028803848 6 21
0.67793041 9.3432798 -0.054446008 1 19
0.11701316 4.9652777 0.11557129 10 24
1.9823807 16.26251 0.19072752 5 22
-0.12515415 4.9443226 0.14393997 13 25
0.67928576 9.3619595 0.1638432 1 23
-0.19586062 7.7376428 -0.49605474 2 9
0.63684934 5.2244101 -0.30650896 1 10
0.11684684 4.9582205 0.28883469 6 27
0.67940462 9.3635979 0.38248566 2 26
0.13150927 5.5803986 -0.26001593 2 12
0.38793814 5.3465881 -0.28093943 0 11
0.11635946 4.9375391 0.60642189 6 29
1.1788583 16.247099 1.329821 3 28
-0.19478501 7.6951499 -0.31360891 4 13
0.11378483 4.8282886 1.2940953 2 31
0.54933417 7.5709586 1.3840102 2 30
0.18136096 7.6957798 -0.17912619 3 16
-0.16786356 7.692997 -0.13431372 3 17
0.72692937 9.5563345 -0.27892002 0 15
0.37693623 4.9552665 -0.99392253 1 2
0.13383882 4.9461899 0 0 20
1.9973139 15.922127 -0.18681611 3 18
0.56641877 7.4462352 -0.95054722 0 4
-0.10820115 4.9587359 0.028827094 6 21
0.71539265 9.4046717 -0.054817971 1 19
0.13434345 4.964839 0.11557129 10 24
2.0396299 16.25946 0.19077408 5 22
-0.10798272 4.9487262 0.14405632 11 25
0.71590251 9.4113741 0.16475073 1 23
-0.16885163 7.7382793 -0.49605474 2 9
0.6565721 5.2340422 -0.30720663 1 10
0.13426049 4.9617734 0.28906724 6 27
0.717237 9.4289169 0.38525376 2 26
0.15012188 5.5479517 -0.25852692 1 12
0.40417391 5.3133378 -0.27926469 0 11
0.13348553 4.9331336 0.60593444 6 29
1.2382821 16.278664 1.3327502 3 28
-0.16783714 7.6917868 -0.31344607 3 13
0.76973373 6.1361403 -0.21595809 4 14
0.13063698 4.8278618 1.2940953 2 31
0.57515979 7.5611467 1.3825752 2 30
0.36582083 13.519391 -0.31470376 1 16
-0.1410802 7.6975346 -0.13438353 4 17
1.2642876 15.887028 -0.4638195 1 15
0.39485464 4.9617405 -0.99549145 1 2
0.28755099 9.4116087 0 0 20
2.0554428 15.934892 -0.18704894 1 18
0.59020603 7.4165244 -0.94701171 0 4
-0.090816647 4.9550843 0.028803848 6 21
1.2616284 15.853612 -0.092432678 1 19
0.25152636 8.2325144 -0.88719201 0 5
0.75763494 5.8735914 -0.55283135 0 6
0.15179658 4.9683361 0.11566433 10 24
2.0984247 16.268108 0.19096035 2 22
0.16694361 5.4641018 -0.38226551 0 8
0.75555521 9.4943008 -0.77751899 0 7
-0.090633206 4.945076 0.14393997 12 25
0.99114519 12.454722 0.21808527 3 23
-0.14198318 7.7468033 -0.49656639 1 9
0.6743288 5.2277575 -0.30697405 1 10
0.15158083 4.9612746 0.28906724 6 27
0.75141633 9.4422922 0.38590506 2 26
0.16814616 5.5034614 -0.25647956 2 12
0.42113543 5.2919846 -0.27821797 0 11
0.15094838 4.9405742 0.60690933 6 29
1.2938368 16.258345 1.3314483 3 28
-0.1058301 5.7742395 -0.2352881 1 13
0.79114974 6.1334157 -0.21595809 6 14
0.14772587 4.8351007 1.2961658 2 31
0.60248816 7.5708613 1.3847276 2 30
0.41655526 13.633947 -0.3174023 1 16
-0.11280943 7.6940012 -0.13431372 3 17
0.41303661 4.9602599 -0.99549145 1 2
1.88545 14.206459 -0.16684002 1 18
0.17749162 5.1865354 -0.80737656 0 3
0.61738342 7.4143119 -0.94701171 0 4
-0.072597191 4.9513841 0.028780598 6 21
1.315408 15.797063 -0.092130467 1 19
0.78858799 5.9418402 -0.55952334 0 6
0.17000432 4.9677467 0.11566433 9 24
1.8891336 14.234214 0.16716596 2 22
0.36451977 10.65174 -0.74527818 1 8
0.77645171 9.3246021 -0.76384974 0 7
-0.072391838 4.9373789 0.14370723 12 25
1.0334659 12.411151 0.21738717 2 23
-0.07432247 5.0690546 -0.32490435 2 9
0.69400924 5.2292099 -0.30720663 1 10
0.16989927 4.9646769 0.28929979 6 27
0.78867018 9.4713373 0.38720769 1 26
0.1687828 4.9320521 0.60593444 6 29
1.3537453 16.257465 1.3317738 5 28
-0.073651507 5.0232925 -0.20467623 3 13
0.81362319 6.130475 -0.21595809 6 14
0.16518101 4.8268037 1.2940953 2 31
0.62990457 7.5646811 1.3840102 4 30
0.5436582 15.886398 -0.36988392 1 16
-0.087386876 7.7023311 -0.13445334 3 17
1.3713666 15.833996 -0.46253949 1 15
0.4298206 4.9627705 -0.99627596 1 2
0.34949335 9.3094425 0 2 20
1.9379408 14.23976 -0.16730566 1 18
0.64162284 7.4082699 -0.94650662 0 4
-0.056223784 4.9555974 0.028803848 7 21
0.79864961 9.221324 -0.053795077 0 19
0.3055585 8.1391516 -0.87733907 0 5
0.80989748 5.9510307 -0.56063867 0 6
0.18677607 4.9751477 0.11585043 9 24
1.9379408 14.23976 0.16730566 2 22
0.39923924 10.634522 -0.74416202 1 8
0.80495912 9.2941742 -0.76157153 0 7
-0.056064855 4.9415894 0.14382361 10 25
1.0746146 12.407655 0.21738717 2 23
-0.065166853 5.7438455 -0.36813962 1 9
0.71080655 5.2229223 -0.30697405 1 10
0.18621099 4.9600959 0.28906724 6 27
1.4108136 16.289457 0.666134 2 26
0.18647438 4.9671116 -0.23153888 0 12
0.46289307 5.3446298 -0.28114879 0 11
0.18558301 4.943368 0.60739684 6 29
1.4083344 16.260832 1.3324248 3 28
0.83502507 6.1356654 -0.21623728 6 14
0.18147533 4.833952 1.2961658 2 31
0.65566403 7.5703917 1.3854451 2 30
0.18647602 4.9671555 -0.11566433 0 16
-0.060466763 7.6985903 -0.13438353 3 17
1.4330937 15.900792 -0.46463403 1 15
0.44749466 4.9651461 -0.99706036 1 2
0.38067761 9.2761927 0 2 20
1.9953837 14.288366 -0.16795756 1 18
0.66961771 7.429697 -0.9495371 0 4
-0.038955294 4.9597635 0.028827094 6 21
0.33364359 8.1300879 -0.87648225 0 5
0.83287054 5.9639454 -0.56212574 0 6
0.20430675 4.9784613 0.11594349 9 24
1.9898517 14.248754 0.16749191 2 22
0.43488857 10.597182 -0.74165088 1 8
0.84026229 9.3230724 -0.76417518 0 7
-0.03887666 4.9497514 0.14405632 13 25
1.1265382 12.499427 0.21906261 2 23
-0.044958439 5.7240796 -0.36686048 1 9
0.72737807 5.2085443 -0.30627638 1 10
0.20352514 4.9594154 0.28906724 6 27
1.4683877 16.292395 0.66645968 2 26
0.48298219 5.3588953 -0.28198618 0 11
0.20283876 4.9426904 0.60739684 6 29
1.4654489 16.259787 1.3327502 3 28
0.85643911 6.1327133 -0.21623728 6 14
0.19834915 4.8332891 1.2961658 2 31
0.68208766 7.5680566 1.3854451 2 30
-0.032284811 7.7067585 -0.13452315 3 17
1.4909863 15.891452 -0.46451765 1 15
0.46568874 4.9634728 -0.99706036 1 2
0.41359997 9.2507591 0 2 20
2.2521129 15.706283 -0.18472072 1 18
0.69350678 7.3916368 -0.94499141 0 4
-0.020811193 4.9678731 0.028873591 6 21
0.36539176 8.172513 -0.88119459 0 5
0.22255124 4.9776793 0.11594349 9 24
2.0607939 14.37202 0.16902854 2 22
0.47621903 10.651325 -0.74555719 1 8
0.8654874 9.2246666 -0.75636423 0 7
-0.020735737 4.949861 0.14405632 10 25
1.4095732 15.023723 0.26339173 1 23
-0.038109824 9.0972567 -0.58303696 0 9
0.74702913 5.2097969 -0.30650896 1 10
0.2218782 4.9626255 0.28929979 6 27
1.5284623 16.290884 0.66662252 2 26
0.50560415 5.388905 -0.28366089 0 11
0.22112949 4.9458799 0.60788435 6 29
1.5257754 16.262247 1.3334011 3 28
-0.024075842 5.7471824 -0.23414831 1 13
0.87834215 6.1255765 -0.21609768 5 14
0.21640676 4.8402491 1.2982364 2 31
0.71092248 7.5772595 1.3875976 2 30
0.42116839 9.4200382 -0.21941793 1 16
-0.0053753895 7.6988258 -0.13438353 3 17
1.209038 12.420008 -0.36316621 1 15
0.48339301 4.9657207 -0.99784487 1 2
0.44569853 9.2452631 0 2 20
0.71930617 7.3891706 -0.94499141 0 4
-0.0034658501 4.9639153 0.028850341 6 21
1.4746106 15.148139 -0.088457331 1 19
0.39660019 8.2268019 -0.88719201 0 5
0.87726331 5.9696541 -0.56324112 0 6
0.24050425 4.9888544 0.11622265 8 24
2.2336555 15.199713 0.1788536 2 22
0.45671767 9.4738369 -0.66324455 0 8
0.90116113 9.2573013 -0.75929332 0 7
-0.0034588589 4.9539022 0.1441727 10 25
0.76579207 5.2111077 -0.30674148 1 10
0.23939326 4.9658089 0.28953233 5 27
1.5860974 16.293402 0.66694814 2 26
0.45425859 9.4228277 -0.43943992 1 12
0.50003105 5.1366372 -0.27047226 0 11
0.23782031 4.9331808 0.60642189 6 29
1.5809911 16.240948 1.3320993 3 28
-0.0039876536 5.7112608 -0.23268282 1 13
0.89913934 6.1185174 -0.21595809 4 14
0.23348843 4.8433232 1.2992717 2 31
0.73736978 7.5747318 1.3875976 2 30
0.4538579 9.4145155 -0.21932489 1 16
0.018819505 7.7028041 -0.13445334 3 17
0.22482835 4.3777122 -1.227107 0 1
0.49938211 4.96808 -0.99862927 1 2
0.47514966 9.2518072 0 2 20
2.3942447 15.944143 -0.18770084 3 18
0.74727714 7.4342523 -0.95105231 0 4
0.012108268 4.9559016 0.028803848 5 21
1.5205894 15.127512 -0.08836434 1 19
0.4185662 8.1500511 -0.87905264 0 5
0.8942377 5.9550529 -0.56212574 0 6
0.25658521 4.9960613 0.11640876 8 24
0.93701589 9.3218594 -0.76482612 0 7
0.012103348 4.9538879 0.1441727 10 25
1.5091835 15.014043 0.26339173 2 23
0.013868438 5.6763377 -0.36379051 1 9
0.78037953 5.1968303 -0.30604383 1 10
0.25478682 4.9610448 0.28929979 3 27
1.6384726 16.300268 0.6674366 2 26
0.48365226 9.4173641 -0.43925381 1 12
0.2535198 4.9363737 0.60690933 5 29
1.6339961 16.255735 1.3337265 3 28
0.91657466 6.1038027 -0.21553929 4 14
0.24850386 4.838707 1.2982364 2 31
0.76155484 7.576293 1.388315 2 30
0.48384058 9.421031 -0.219511 1 16
0.052898139 0.50841308 -0.23835671 10 0
0.045685533 7.6986914 -0.13438353 3 17
1.290143 12.399786 -0.36281714 2 15
0.23947626 4.3653626 -1.2238722 0 1
0.51712823 4.9702082 -0.99941379 1 2
0.5078823 9.2580805 0 2 20
2.4498901 15.935688 -0.18770084 3 18
0.029385116 4.951829 0.028780598 6 21
1.5783564 15.169854 -0.088643312 1 19
0.44962904 8.1961937 -0.8841933 0 5
0.91562617 5.955832 -0.56249756 0 6
2.332592 15.172706 0.17871392 2 22
0.51975936 9.4745836 -0.66352355 1 8
0.95016104 9.1321602 -0.7495296 0 7
0.029420627 4.9578133 0.14428905 10 25
1.5628289 15.020617 0.26360115 2 23
0.033660311 5.6722627 -0.36353469 1 9
0.79851651 5.1940742 -0.30604383 1 10
0.51183534 9.3301392 0.54418129 1 27
1.6953657 16.294451 0.6674366 2 26
0.51761889 9.4355669 -0.44018441 1 12
1.6919715 16.261829 1.334703 3 28
0.937877 6.1005659 -0.21553929 4 14
0.26539391 4.83781 1.2982364 2 31
0.78840572 7.5775027 1.3890325 2 30
0.87289184 15.911762 -0.37081447 1 16
0.075283296 7.7024593 -0.13445334 3 17
1.3394585 12.410642 -0.36328259 1 15
0.25600946 4.3605657 -1.2227939 1 1
0.53662837 4.972086 -1.0001982 1 2
0.54412812 9.2680416 0 2 20
2.5135489 15.94197 -0.1878871 3 18
0.048553746 4.967679 0.028873591 6 21
1.6507531 15.294917 -0.089410484 1 19
0.48109487 8.1944065 -0.8841933 0 5
0.93600553 5.9365354 -0.56101042 0 6
0.5439809 9.2655334 0.215975 2 24
2.3920758 15.171537 0.17880705 4 22
0.55660075 9.4804859 -0.66408163 1 8
0.98179442 9.096735 -0.74692589 0 7
0.04841679 4.9536662 0.1441727 10 25
1.6234928 15.042339 0.26408982 2 23
0.055243559 5.6521335 -0.36225551 1 9
0.81907499 5.1949139 -0.30627638 1 10
0.54835659 9.340065 0.54487896 2 27
1.7604884 16.311661 0.66841358 2 26
0.740955 12.62056 -0.58889788 2 12
0.59022623 5.4686923 -0.28826648 0 11
0.86071831 14.660468 1.8031789 4 29
1.7552515 16.26314 1.3353539 3 28
0.055662569 5.6950035 -0.23203152 1 13
0.96129304 6.0969195 -0.21553929 3 14
0.2841931 4.8406129 1.2992717 2 31
0.81749356 7.5744195 1.3890325 2 30
0.56273073 9.5848961 -0.22341919 0 16
0.057737526 0.51883054 -0.24342814 10 0
0.10082358 7.702167 -0.13445334 3 17
0.99277884 8.9211302 -0.261233 0 15
0.55267864 4.9663811 -0.99941379 1 2
0.57436186 9.2582016 0 2 20
2.5670331 15.937495 -0.18793365 3 18
0.065130591 4.9754901 0.028920086 6 21
0.50629419 8.1610107 -0.88076615 0 5
0.9569521 5.9412637 -0.56175399 0 6
0.57519686 9.2716618 0.21616112 2 24
2.4423704 15.163524 0.17880705 4 22
0.58581054 9.4427443 -0.66157037 0 8
0.064894788 4.9574761 0.14428905 10 25
1.6760173 15.060723 0.26450869 2 23
0.073671751 5.6279707 -0.36072055 1 9
0.83439147 5.1803427 -0.30557871 1 10
0.57957178 9.3421803 0.54511148 2 27
1.8163354 16.321625 0.66906494 2 26
0.78230494 12.610059 -0.58852565 2 12
0.59421921 5.3396649 -0.28156745 0 11
0.90932655 14.657534 1.8031789 4 29
1.8104922 16.269117 1.3363303 3 28
0.065600835 5.0114131 -0.20418774 1 13
0.98023331 6.0858059 -0.2152601 3 14
0.30096033 4.8512125 1.3023775 2 31
0.84391099 7.5834007 1.3911849 2 30
0.051691297 0.450196 -0.21130913 10 0
0.12790957 7.7137647 -0.13466278 3 17
0.28669274 4.3740964 -1.227107 3 1
0.57001251 4.9644213 -0.99941379 1 2
0.60693961 9.2601309 0 2 20
2.622654 15.928436 -0.18793365 1 18
0.33062428 5.044364 -0.78646964 0 3
0.082432926 4.9712324 0.028896837 6 21
1.822809 15.875426 -0.092874385 1 19
0.53452039 8.1552248 -0.88033777 0 5
0.9725104 5.9064484 -0.55877978 0 6
0.6088677 9.2895479 0.21662636 2 24
2.4985394 15.174639 0.17903988 2 22
0.62059766 9.4685125 -0.66352355 0 8
1.0682489 9.3037205 -0.76450068 0 7
0.082067981 4.949224 0.14405632 10 25
1.73132 15.078619 0.26492754 1 23
0.092590109 5.5837755 -0.35790643 1 9
0.85311937 5.1813383 -0.30581129 1 10
0.61296451 9.3520536 0.54580915 3 27
1.8742136 16.323124 0.66939056 4 26
0.62170058 9.4853411 -0.44279018 0 12
0.61422294 5.3494635 -0.28219551 0 11
0.96048921 14.654269 1.8031789 4 29
1.8677301 16.266659 1.3366557 3 28
1.0021219 6.0862913 -0.2153997 3 14
0.31789368 4.850132 1.3023775 2 31
0.87082779 7.5843172 1.3919023 2 30
0.62482166 9.532959 -0.22230259 1 16
0.057181448 0.48240384 -0.2265234 10 0
0.15609838 7.7092452 -0.13459297 3 17
0.30272171 4.3730164 -1.227107 5 1
0.59004992 4.9778795 -1.0025517 1 2
0.64253104 9.2817879 0 2 20
2.6849992 15.942385 -0.18821305 3 18
0.10057078 4.966898 0.028873591 7 21
1.8819213 15.876584 -0.092920884 1 19
0.56275749 8.129406 -0.87776744 0 5
0.99415076 5.9028449 -0.55877978 0 6
0.64511883 9.31917 0.21737079 2 24
2.5607796 15.204822 0.17950551 2 22
0.10028709 4.9528875 0.1441727 10 25
0.11256893 5.5594525 -0.35637143 1 9
0.64723539 9.3497448 0.54580915 2 27
1.9354361 16.328054 0.66987908 4 26
0.38465953 5.5566626 -0.25945756 0 12
0.63664556 5.3709774 -0.28345159 0 11
1.0152868 14.666493 1.8051288 4 29
1.9282727 16.267622 1.3373066 3 28
1.0211017 6.0628676 -0.21470171 2 14
0.33513343 4.8412256 1.3003069 2 31
0.89861816 7.5810752 1.3919023 3 30
0.66058397 9.5425749 -0.22258174 1 16
0.061500881 0.50379235 -0.23666623 10 0
0.18291487 7.7046547 -0.13452315 3 17
0.74467647 6.1001134 -0.17884861 7 15
0.31742683 4.3642497 -1.2249504 5 1
0.60742366 4.9757891 -1.0025517 1 2
0.67696017 9.307415 0 1 20
2.6985979 15.688519 -0.18532605 1 18
0.11800414 4.9705153 0.028896837 7 21
1.9392724 15.885799 -0.093013883 1 19
0.59344107 8.1591244 -0.88119459 0 5
1.0127256 5.8875637 -0.55766445 0 6
0.6796779 9.34478 0.21802217 1 24
2.7121584 15.767355 0.18625733 2 22
0.68978417 9.4837294 -0.66491872 1 8
1.1207875 9.1810751 -0.7550624 0 7
0.11748171 4.9485097 0.14405632 10 25
1.9850498 16.260792 0.28594023 2 23
0.13121793 5.5271001 -0.35432482 1 9
0.9111594 5.2970996 -0.31302053 0 10
0.68189824 9.375308 0.54743707 2 27
1.9924241 16.321198 0.66987908 4 26
0.40434486 5.5592713 -0.25964367 0 12
0.6616838 5.4202681 -0.28617305 0 11
1.06648 14.662861 1.8051288 4 29
1.9874654 16.280579 1.3389339 3 28
0.132137 5.5658126 -0.22682098 1 13
1.040905 6.0513864 -0.21442251 2 14
0.35203168 4.8400264 1.3003069 2 31
0.92555445 7.5817981 1.3926198 2 30
0.69592279 9.5681295 -0.2232331 1 16
0.7689541 6.1212792 -0.17954679 7 15
0.33236521 4.3592744 -1.2238722 5 1
0.62478763 4.9736385 -1.0025517 1 2
0.71096337 9.3249369 0 1 20
2.72982 15.545062 -0.18374287 1 18
0.13535266 4.9700732 0.028896837 7 21
1.996703 15.894808 -0.093106866 1 19
0.62614918 8.2125206 -0.88719201 0 5
1.0318918 5.8761468 -0.55692089 0 6
0.71533114 9.3822241 0.21895269 1 24
2.7381217 15.592337 0.18430164 2 22
0.72379231 9.4932003 -0.66575581 1 8
0.13518882 4.9640574 0.14452177 10 25
2.0412965 16.249794 0.28587043 2 23
1.0560358 6.0136352 -0.35557827 0 10
0.71583235 9.3887978 0.54836726 2 27
2.0508745 16.32604 0.67036754 2 26
0.42830309 5.617588 -0.26243556 0 12
0.6796031 5.4099984 -0.28575432 0 11
1.1185589 14.670926 1.8065913 4 29
2.0447764 16.277496 1.3392594 3 28
0.15058404 5.5293612 -0.22535552 1 13
1.0613292 6.0437794 -0.21428291 2 14
0.3692171 4.8426204 1.3013422 2 31
0.95250309 7.5824256 1.3933374 2 30
0.96674585 12.679758 -0.29590714 1 16
0.41566652 13.527554 -0.23623577 1 17
0.79031837 6.1185579 -0.17954679 7 15
0.34788734 4.361927 -1.2249504 5 1
0.64214647 4.971427 -1.0025517 1 2
0.95359242 7.3826075 -0.94751674 0 4
0.15282483 4.9735689 0.028920086 7 21
3.2424934 25.103027 -0.14711116 3 19
0.65196902 8.1746044 -0.88333648 0 5
0.99320018 12.453074 0.2906962 2 24
0.75692797 9.4906149 -0.66575581 0 8
1.2446097 9.6356316 -0.79314089 1 7
0.15239432 4.9595585 0.14440541 10 25
2.0990357 16.250504 0.28601003 1 23
1.0791357 6.0217042 -0.35627595 0 10
0.75019091 9.4061441 0.54953009 2 27
2.1099031 16.334637 0.6710189 1 26
0.44282836 5.5523295 -0.25945756 0 12
0.69541466 5.3838234 -0.2844983 0 11
1.1688203 14.655058 1.8051288 4 29
2.1036303 16.286076 1.340561 3 28
0.16890371 5.4968438 -0.22405289 1 13
1.0803056 6.0282326 -0.21386412 2 14
0.38673443 4.8490052 1.3034128 2 31
0.97997516 7.5868597 1.3947723 2 30
1.2694778 15.917135 -0.3715589 1 16
0.062791854 0.47439292 -0.22314245 10 0
0.53655082 15.840502 -0.27665555 4 17
0.81005991 6.1200089 -0.17966314 6 15
0.36222476 4.3684902 -1.227107 5 1
0.65827513 4.9732738 -1.0033361 1 2
0.76320785 9.2044125 0 12 20
2.8307054 15.514811 -0.18360317 3 18
0.41773051 5.0378985 -0.78646964 0 3
0.97834134 7.3913765 -0.94903201 0 4
0.16844805 4.9730639 0.028920086 8 21
1.8821604 14.219736 -0.083366096 1 19
0.67534506 8.1447725 -0.88033777 0 5
1.6756023 9.1838074 -0.87144363 2 6
1.0316546 12.441924 0.29051012 3 24
2.8285518 15.503007 0.18346348 5 22
0.88532758 10.677197 -0.74918455 1 8
1.2753961 9.6356268 -0.79346645 1 7
0.16756746 4.9470673 0.14405632 9 25
3.3035681 24.958483 0.43945158 2 23
1.1138152 6.1047082 -0.36139217 0 10
1.3502659 16.284428 0.95161951 3 27
3.2934661 24.882162 1.022567 3 26
0.46555114 5.6146235 -0.26243556 0 12
1.2161642 14.66714 1.8070788 4 29
2.1547811 16.279387 1.340561 3 28
1.0963674 6.0090785 -0.21330573 2 14
0.40196517 4.8477664 1.3034128 2 31
1.0048363 7.5915465 1.3962072 2 30
0.59214407 15.846525 -0.27679518 2 17
0.83088094 6.1131816 -0.17954679 6 15
0.37680921 4.3595243 -1.2249504 5 1
0.67668885 4.9787183 -1.004905 1 2
0.79671293 9.2176332 0 5 20
2.8863125 15.5127 -0.1836963 3 18
0.54627079 6.3201237 -0.98693019 0 3
1.0020006 7.372189 -0.94701171 0 4
0.1856582 4.9684486 0.028896837 8 21
1.9377146 14.256678 -0.083621822 1 19
0.69212973 8.0076504 -0.8657726 0 5
1.7069235 9.1739874 -0.87107188 0 6
1.0757706 12.446214 0.2906962 2 24
2.8819225 15.489106 0.18341692 5 22
0.91263074 10.558754 -0.7410928 1 8
1.305267 9.6034622 -0.79118824 1 7
0.18543348 4.9624348 0.14452177 8 25
3.3917532 24.954723 0.43959123 2 23
2.1438708 11.522393 -0.68255216 1 10
3.3829989 24.890314 1.0233811 3 26
0.48136362 5.5691748 -0.26038817 0 12
0.73809999 5.4305491 -0.28721976 0 11
1.2677004 14.666761 1.8075663 4 29
2.2142825 16.291517 1.3421884 3 28
0.41888589 4.8463335 1.3034128 2 31
1.0323915 7.5957904 1.3976421 2 30
0.85327989 6.1100955 -0.17954679 6 15
0.39278415 4.3581138 -1.2249504 5 1
0.69547361 4.9800892 -1.0056895 1 2
2.946877 15.521665 -0.18392913 3 18
1.0339518 7.4038353 -0.95155734 0 4
0.20386617 4.9677348 0.028896837 8 21
1.9965905 14.297018 -0.083900794 1 19
0.73253942 8.1278486 -0.87905264 0 5
1.1264037 12.497948 0.29199895 2 24
2.9424007 15.498088 0.18364975 2 22
0.95776922 10.626873 -0.74611521 1 8
1.3481741 9.6538925 -0.7957446 1 7
0.20378332 4.9657159 0.14463814 8 25
3.4842947 24.950047 0.43973082 2 23
1.7309927 9.1174107 -0.54046041 1 10
1.467477 16.282305 0.95208472 3 27
3.4747508 24.881704 1.023544 3 26
0.51109648 5.6708412 -0.26522741 0 12
0.76020771 5.4436316 -0.28805712 0 11
1.3221577 14.669925 1.8085413 4 29
2.276181 16.299086 1.3434902 3 28
0.38839141 9.4641771 -0.38590506 2 13
0.43629786 4.8409176 1.3023775 2 31
1.0591345 7.5841613 1.3962072 2 30
1.4383364 15.958978 -0.37286159 1 16
0.41615662 9.3813438 -0.163913 1 17
0.87296969 6.1032748 -0.17943041 6 15
0.40687466 4.3529525 -1.2238722 5 1
0.71253878 4.9816389 -1.006474 1 2
2.0661905 10.689403 -0.12674811 0 18
0.67645091 7.2370167 -1.1308191 0 3
1.054002 7.3689427 -0.94751674 0 4
0.22051491 4.9710279 0.028920086 8 21
2.2167265 15.498008 -0.090991333 1 19
0.76318789 8.1649723 -0.88333648 0 5
1.7739475 9.1774883 -0.87255895 2 6
1.5176705 16.236813 0.37946835 1 24
2.0669496 10.69333 0.12679468 1 22
0.98854554 10.575964 -0.74276698 1 8
1.3762268 9.6217432 -0.79346645 1 7
0.22060247 4.973002 0.14487086 8 25
2.1705575 15.175222 0.2675803 1 23
2.0635931 10.675965 -0.63325024 1 10
1.5222028 16.285301 0.95254982 3 27
2.3377264 16.343966 0.67264712 1 26
0.50870174 5.4423509 -0.25461832 0 12
0.77825415 5.441081 -0.28805712 0 11
1.3707948 14.665461 1.8085413 4 29
2.3319082 16.303289 1.3444666 1 28
0.41853184 9.4348879 -0.38476527 1 13
2.0612786 10.663991 -0.37928775 1 14
0.45342627 4.8509851 1.3054833 2 31
1.0853914 7.5883985 1.3976421 3 30
1.4923636 15.966066 -0.37314078 1 16
0.45111626 9.3917389 -0.16412243 1 17
0.89417374 6.0921216 -0.1791977 6 15
0.42394501 4.3629332 -1.227107 5 1
0.73022425 4.9751124 -1.0056895 1 2
1.519187 15.634365 0 1 20
2.1022639 10.66606 -0.12656187 0 18
0.69991511 7.2030168 -1.1258998 0 3
1.0833102 7.380733 -0.9495371 0 4
0.23873444 4.9701858 0.028920086 8 21
2.3304436 15.877614 -0.093269594 1 19
0.79041857 8.1344118 -0.88033777 0 5
1.8060347 9.1631098 -0.87181538 0 6
2.0999436 10.654288 0.12642217 1 22
1.4184327 9.6639662 -0.79737186 1 7
0.23921293 4.9801474 0.14510359 8 25
0.4539001 9.4496956 -0.60631752 1 9
1.8741388 9.5086432 -0.56441367 1 10
1.5830439 16.291534 0.95324743 3 27
0.53367066 5.4921494 -0.25703794 0 12
0.80457377 5.4816651 -0.29035991 0 11
1.4253088 14.668241 1.8095162 4 29
0.45311207 9.4332895 -0.38476527 1 13
0.47120422 4.8492904 1.3054833 2 31
1.1143417 7.592155 1.3990771 2 30
0.48472252 9.4060841 -0.16440167 1 17
0.91602981 6.092917 -0.17931406 6 15
0.43840122 4.3537617 -1.2249504 5 1
0.74817067 4.9764123 -1.006474 1 2
1.6038125 15.927458 0 1 20
1.2161536 6.0587292 -0.071941897 0 18
1.1061195 7.3572869 -0.94701171 0 4
0.25608346 4.9693222 0.028920086 7 21
2.3888304 15.889161 -0.093385838 1 19
0.81044286 8.0485058 -0.87134171 0 5
1.6346288 16.233496 0.37965447 3 24
1.2208765 6.0822577 0.072221287 0 22
1.0562096 10.489215 -0.73718643 1 8
1.4373424 9.5603962 -0.78923547 0 7
0.25659671 4.9792819 0.14510359 4 25
0.48626906 9.4360943 -0.60555005 1 9
1.6407069 16.293856 0.95371258 3 27
0.75106537 4.995666 0.20581603 9 26
0.56885284 5.6492763 -0.26448292 0 12
0.81954783 5.4511728 -0.2888945 0 11
1.4769036 14.667126 1.8100036 4 29
0.74682534 4.9674635 0.41007698 6 28
0.48624575 9.4356422 -0.38492808 1 13
1.2154951 6.0554485 -0.2156789 1 14
0.48890397 4.8553042 1.3075538 2 31
1.1420088 7.5960021 1.4005121 2 30
1.2504108 12.417827 -0.29041705 3 16
0.44399062 2.8880072 -1.3625214 0 0
0.51722413 9.4283848 -0.16482052 0 17
0.9386586 6.1056533 -0.1797795 5 15
0.4532342 4.3561149 -1.2260288 5 1
0.76526403 4.9777808 -1.0072584 1 2
1.6781431 16.128935 0 1 20
1.2234346 5.991961 -0.071196869 0 18
1.1305096 7.353579 -0.94701171 0 4
0.50612015 9.2259731 0.05370209 1 21
2.4469748 15.916734 -0.093595065 1 19
1.2222049 5.9859385 -0.57030481 1 6
1.6909316 16.251846 0.38021275 3 24
1.2258351 6.0037174 0.07133656 0 22
1.4557087 9.4688873 -0.78207535 0 7
0.50810456 9.2621469 0.26996017 2 25
5.4833736 35.667473 0.62989229 31 23
0.51886767 9.4583445 -0.60708505 1 9
1.220649 5.9783182 -0.35534573 0 10
1.6947271 16.288326 0.95371258 3 27
0.76762652 4.9931479 0.20581603 6 26
0.58758229 5.6473584 -0.26448292 0 12
1.523887 14.646352 1.8080537 4 29
0.76450455 4.9728408 0.41072789 6 28
1.214775 5.9495492 -0.21204934 0 14
0.50420147 4.8459706 1.3054833 2 31
1.1665922 7.588284 1.3997946 2 30
1.2932359 12.429522 -0.29078928 2 16
0.45519635 2.8936017 -1.3659023 0 0
0.55642581 9.5343227 -0.16670538 0 17
0.95686048 6.0825906 -0.1791977 5 15
0.46843818 4.354506 -1.2260288 5 1
0.78324586 4.9789538 -1.0080429 1 2
1.7382878 16.158772 0 1 20
1.2272542 5.905416 -0.070219018 0 18
1.1561733 7.3495874 -0.94701171 0 4
0.53948921 9.2441149 0.053818323 2 21
2.5000372 15.892289 -0.093502074 1 19
1.2252661 5.8958497 -0.56212574 1 6
