# .PCD v0.7 - Point Cloud Data file format
VERSION 0.7
FIELDS x y z intensity ring
SIZE 4 4 4 4 2
TYPE F F F F U
COUNT 1 1 1 1 1
WIDTH 1277
HEIGHT 1
VIEWPOINT 0 0 0 1 0 0 0
POINTS 1277
DATA ascii
-5.8035479 -10.287045 0.13750447 4 22
-3.8385527 -8.6908417 -0.66436064 2 8
-4.361979 -8.6992941 -0.79444283 4 7
-4.8611665 -12.643986 0.39423493 3 25
-5.7274117 -10.152089 -0.67883128 1 10
-5.5870762 -12.649661 0.80534178 2 27
-4.8559537 -10.994332 -0.55986249 2 12
-5.5837002 -12.642017 1.696909 5 29
-6.3758869 -12.715723 1.1612338 3 28
-4.8721013 -12.672427 -0.55313057 2 13
-5.5510211 -12.568029 3.6814423 2 31
-6.3621373 -12.688302 2.587934 4 30
-5.0505514 -11.434919 -0.29088232 2 16
-1.5598643 -3.0826581 -1.6110209 1 0
-4.9160509 -12.648144 -0.23686406 3 17
-5.2640729 -10.403044 -0.33931199 3 15
-2.1858561 -4.9003057 -1.5020739 4 1
-3.0353742 -5.9986124 -1.3445803 4 2
-5.1492095 -11.543625 0 3 20
-3.2395763 -7.2625613 -1.2371985 3 3
-4.2388 -8.3768644 -1.1950026 3 4
-4.9138188 -12.642401 0.078832805 3 21
-3.867238 -8.6696692 -1.0225627 3 5
-4.9615021 -8.7196474 -0.93650448 4 6
-5.6511946 -12.668987 0.32279932 3 24
-5.868906 -10.314374 0.13815638 4 22
-3.873632 -8.6840029 -0.66491872 2 8
-4.4028344 -8.7010345 -0.79607004 4 7
-4.9161677 -12.648443 0.39493307 3 25
-5.4641294 -10.798404 0.21124394 3 23
-4.1243749 -10.611299 -0.72962773 5 9
-5.7389097 -10.085911 -0.67580801 3 10
-5.0884442 -11.407399 0.72743553 2 27
-5.664341 -11.194068 0.51112068 2 26
-5.6693902 -12.709778 -0.64827162 2 12
-6.4566255 -12.759809 -0.74945098 3 11
-5.6380849 -12.639596 1.6993462 5 29
-6.4314499 -12.710055 1.1628611 4 28
-4.9300995 -12.684288 -0.55443323 2 13
-5.6127877 -12.582885 3.6917951 2 31
-6.4210367 -12.689476 2.5929563 4 30
-5.1347837 -11.511284 -0.29330167 2 16
-1.5706153 -3.0771942 -1.6110209 1 0
-4.9689426 -12.653242 -0.23728292 4 17
-2.2045295 -4.8961577 -1.5031523 4 1
-3.0545118 -5.9844861 -1.3437958 4 2
-6.1257839 -10.678931 -0.14332502 2 18
-3.2649078 -7.2512083 -1.2371985 3 3
-4.2734265 -8.3726187 -1.1965178 3 4
-4.9666915 -12.64751 0.078972287 3 21
-3.9056416 -8.6742477 -1.0247047 3 5
-5.0057812 -8.7264576 -0.93910688 2 6
-5.7052345 -12.671061 0.32335764 3 24
-5.8929324 -10.273007 0.137877 3 22
-3.9055595 -8.6740665 -0.66519773 2 8
-4.4422417 -8.7033663 -0.79769737 3 7
-4.9690576 -12.653535 0.39563125 3 25
-5.334518 -10.45154 0.20482145 3 23
-3.8797812 -9.8797302 -0.68025243 3 9
-5.7939506 -10.100454 -0.67813361 3 10
-5.1347904 -11.404131 0.72836572 2 27
-6.4955683 -12.726302 0.58211416 2 26
-5.573173 -10.919119 -0.64247626 2 11
-5.6886916 -12.634319 1.7012962 3 29
-6.4902763 -12.715934 1.1654648 3 28
-4.9816499 -12.6856 -0.55524737 2 13
-5.8897424 -10.267446 -0.41334966 2 14
-5.6661944 -12.584354 3.6980069 2 31
-6.4813929 -12.698529 2.5994136 6 30
-1.5824699 -3.0751925 -1.6127114 1 0
-5.0167727 -12.651567 -0.23756215 3 17
-5.2414594 -10.185657 -0.33337754 2 15
-2.2223473 -4.8923278 -1.5042306 4 1
-3.07793 -5.9812994 -1.3453647 3 2
-5.2574439 -11.573861 0 3 20
-7.3861899 -12.777804 -0.1718224 3 18
-3.2889361 -7.2403417 -1.2371985 2 3
-4.3047996 -8.3654585 -1.1975279 2 4
-5.0130286 -12.642124 0.079042032 3 21
-5.7780151 -11.228338 -0.073392853 11 19
-3.9426093 -8.6793537 -1.0268465 3 5
-5.0446577 -8.7270498 -0.94096583 3 6
-5.7587996 -12.677557 0.32400903 3 24
-5.8989434 -10.204928 0.13722509 3 22
-3.9442043 -8.6828651 -0.66687191 2 8
-4.4820247 -8.709857 -0.79965007 3 7
-5.0168872 -12.651855 0.39609671 3 25
-4.1979799 -10.586691 -0.72988349 3 9
-5.8394041 -10.101928 -0.67952895 3 10
-5.1857924 -11.416125 0.73022616 3 27
-4.9609032 -10.921049 -0.55874574 2 12
-5.7420516 -12.640688 1.7047086 3 29
-6.5415301 -12.712067 1.1670921 4 28
-5.0295835 -12.683873 -0.55589873 2 13
-5.9337611 -10.265162 -0.41404763 2 14
-5.7206783 -12.593636 3.7062888 1 31
-6.5432744 -12.715456 2.6073058 6 30
-5.1716733 -11.385043 -0.29097536 3 16
-1.5931947 -3.0696497 -1.6127114 1 0
-3.224226 -8.0489159 -0.15134728 1 17
-2.2426219 -4.8915429 -1.5063872 4 1
-3.1005969 -5.9740005 -1.3461492 3 2
-5.3244848 -11.613615 0 3 20
-3.3141899 -7.2288165 -1.2371985 2 3
-4.3321462 -8.346858 -1.1970228 3 4
-3.2172258 -8.0314407 0.05028468 1 21
-3.9778545 -8.676383 -1.0281317 3 5
-5.0871215 -8.7300339 -0.94319648 3 6
-5.8163509 -12.686459 0.32475346 3 24
-5.8640485 -10.063322 0.13559535 4 22
-3.9761527 -8.6726713 -0.66715091 2 8
-4.5234194 -8.7153893 -0.80160284 4 7
-3.2159185 -8.0281773 0.25169131 2 25
-5.898757 -10.122886 -0.68231964 3 10
-5.2306037 -11.408844 0.73092383 3 27
-5.824945 -12.705205 -0.6510635 2 12
-5.761456 -11.100746 -0.65545553 4 11
-5.794414 -12.638611 1.7071459 3 29
-6.5968833 -12.710386 1.1690449 4 28
-5.997735 -10.292742 -0.41600204 1 14
-6.5948715 -12.70651 2.6101758 6 30
-5.0463924 -11.007048 -0.28176317 2 16
-1.6061168 -3.0670011 -1.6144018 1 0
-5.3309054 -10.179767 -0.33442476 2 15
-2.2572989 -4.8762999 -1.5042306 4 1
-3.1261115 -5.9695454 -1.3477181 3 2
-5.2914 -11.430675 0 3 20
-6.2757792 -10.679717 -0.14420974 3 18
-3.3456438 -7.2273817 -1.2390432 2 3
-4.3682327 -8.3414707 -1.1985381 3 4
-5.4332767 -10.375252 -0.068069138 3 19
-4.0146403 -8.6725731 -1.0294169 3 5
-5.1352272 -8.7388 -0.94617069 2 6
-5.8745689 -12.690458 0.32540482 2 24
-5.8988681 -10.038314 0.13554879 9 22
-4.0162945 -8.6761456 -0.66854608 2 8
-4.5627313 -8.7128792 -0.80290467 3 7
-5.4510942 -10.409276 0.20510069 3 23
-3.2445424 -8.014411 -0.55412817 14 9
-5.9236817 -10.080541 -0.6809243 1 10
-5.2707067 -11.385973 0.73069125 3 27
-5.6754622 -10.837724 0.49842 3 26
-5.8966508 -12.73816 -0.65385538 2 12
-5.3610625 -10.237353 -0.60563177 2 11
-5.8557086 -12.649715 1.7115332 3 29
-6.6582217 -12.714376 1.1716485 4 28
-3.2455044 -8.0167875 -0.35236225 16 13
-7.5179462 -12.793557 -0.5181877 6 14
-3.2640271 -7.0510707 2.0819407 6 31
-6.6523523 -12.703169 2.6144807 6 30
-5.1152592 -11.05017 -0.28334504 2 16
-1.6151198 -3.0581706 -1.6127114 1 0
-5.624084 -10.648998 -0.35048276 3 15
-2.2726762 -4.8649001 -1.5031523 3 1
-3.1469297 -5.9585972 -1.3477181 3 2
-5.1501164 -11.024361 0 2 20
-6.2763286 -10.595802 -0.1433716 3 18
-3.3708515 -7.2156591 -1.2390432 2 3
-4.4010286 -8.3331881 -1.1995481 3 4
-3.2609897 -7.9748921 0.050075453 10 21
-5.6992216 -10.791268 -0.070928596 3 19
-4.0549884 -8.6801252 -1.0319873 3 5
-5.1738186 -8.7345266 -0.94765776 2 6
-5.925601 -12.684366 0.32577702 2 24
-4.0533104 -8.6765337 -0.66966212 2 8
-4.6024261 -8.7145262 -0.80453199 4 7
-5.5396924 -10.489205 0.20705535 6 23
-3.2679658 -7.9919524 -0.5533607 15 9
-5.3104191 -11.367505 0.73069125 2 27
-5.6180692 -10.637609 0.49011573 2 26
-5.9444613 -12.724739 -0.65422761 2 12
-5.3874378 -10.200917 -0.60458505 3 11
-5.9082308 -12.647183 1.7139707 3 29
-6.7193184 -12.722784 1.1745776 4 28
-3.2734685 -8.0054092 -0.35236225 21 13
-6.1364288 -10.359621 -0.42046914 2 14
-3.2591844 -6.976624 2.0633056 4 31
-6.7113557 -12.707707 2.6202204 6 30
-1.6291934 -3.0589135 -1.6160923 1 0
-3.3021016 -7.9956508 -0.15099822 22 17
-6.7833171 -12.736106 -0.41995096 2 15
-2.2929294 -4.8639059 -1.5053089 3 1
-3.1658666 -5.9441147 -1.3469337 3 2
-5.0930519 -10.803702 0 2 20
-6.3563352 -10.645947 -0.14434944 3 18
-3.39939 -7.2109995 -1.2402731 2 3
-4.4338217 -8.3247795 -1.2005583 3 4
-3.2765927 -7.9338841 0.049889471 16 21
-5.6014729 -10.517118 -0.069254771 3 19
-4.0903516 -8.6767101 -1.0332724 3 5
-5.2165265 -8.7369308 -0.94988841 2 6
-5.9766636 -12.678074 0.32614923 2 24
-6.1717963 -10.33687 0.14015865 3 22
-4.0886779 -8.6731606 -0.67049921 2 8
-4.6403141 -8.7124834 -0.80583376 3 7
-3.2951024 -7.9787025 0.25122586 29 25
-5.5894337 -10.494515 0.20754401 2 23
-3.3049855 -8.0026331 -0.5548957 11 9
-5.3500676 -11.3489 0.73069125 2 27
-5.7190461 -10.73787 0.4956519 2 26
-5.3567352 -11.363044 -0.5851754 2 12
-5.4079909 -10.153844 -0.60291028 2 11
-5.9641929 -12.651621 1.717383 3 29
-6.7768078 -12.723885 1.1768558 4 28
-3.3059695 -8.0050163 -0.35285074 14 13
-6.1377149 -10.279789 -0.41809598 1 14
-6.7686224 -12.708516 2.6252427 4 30
-5.108726 -10.83695 -0.27878547 2 16
-1.6410422 -3.0566881 -1.6177827 1 0
-3.3301353 -7.988349 -0.15106803 13 17
-5.3824897 -10.025698 -0.33116665 2 15
-2.3156612 -4.8701911 -1.5096221 4 1
-3.1892698 -5.940495 -1.3485026 3 2
-5.1065187 -10.739793 0 2 20
-6.3957248 -10.631665 -0.14444257 2 18
-3.4232821 -7.1996875 -1.2402731 2 3
-4.461401 -8.3100309 -1.2005583 3 4
-3.3075001 -7.9340515 0.049959216 11 21
-5.6155038 -10.459722 -0.068999045 3 19
-4.1276383 -8.681057 -1.0354143 3 5
-5.2598395 -8.743475 -0.95249087 2 6
-6.0306897 -12.683466 0.32680058 3 24
-6.0019197 -9.9770403 0.13554879 4 22
-4.1276956 -8.6811762 -0.67217338 2 8
-4.6767211 -8.7110977 -0.80713558 3 7
-3.3261561 -7.9788032 0.25157496 10 25
-5.6033926 -10.437162 0.20677611 2 23
-3.3345752 -7.9989991 -0.55540729 2 9
-6.3030005 -10.477529 -0.71208674 2 10
-5.3979583 -11.352735 0.7320866 2 27
-5.7640729 -10.736453 0.49646607 3 26
-6.0532408 -12.730894 -0.65664721 4 12
-6.0197501 -12.660458 1.7212827 3 29
-6.8321619 -12.72593 1.179134 4 28
-3.1174579 -6.5564919 1.945284 0 31
-6.8256159 -12.713737 2.6309824 4 30
-5.1326113 -10.794669 -0.27813411 0 16
-1.6499771 -3.0477526 -1.6160923 1 0
-5.465044 -10.094748 -0.33407569 3 15
-2.3309824 -4.8586044 -1.5085437 4 1
-3.2099884 -5.9293251 -1.3485026 3 2
-5.1249471 -10.68223 0 2 20
-7.7558589 -12.791324 -0.17415062 3 18
-3.4501045 -7.1912565 -1.240888 2 3
-4.4922729 -8.2978954 -1.2010634 3 4
-3.3413851 -7.9372034 0.050052203 4 21
-5.524395 -10.204378 -0.067441449 2 19
-4.1647992 -8.6809378 -1.0371279 3 5
-5.3006558 -8.7420883 -0.95434976 2 6
-6.0887685 -12.69118 0.32754502 3 24
-6.0284176 -9.9423466 0.13536252 3 22
-4.1666055 -8.6847019 -0.67356849 2 8
-4.714695 -8.7087421 -0.80843747 3 7
-4.4760776 -10.632578 -0.73934919 3 9
-6.1097445 -12.734902 -0.6579501 2 12
-5.7660432 -10.650739 -0.63473052 5 11
-6.0724969 -12.657264 1.7237202 3 29
-6.8917298 -12.730049 1.1817378 4 28
-5.3406343 -12.686266 -0.56078357 3 13
-6.2489986 -10.306139 -0.42088792 4 14
-6.8811984 -12.710595 2.6352873 4 30
-6.1077957 -12.73084 -0.32856861 3 16
-1.657131 -3.0356112 -1.6127114 1 0
-5.3807058 -12.657721 -0.24007531 3 17
-5.4063721 -9.9036493 -0.32837394 2 15
-2.3479271 -4.8504386 -1.5085437 4 1
-3.2344234 -5.9249701 -1.3500715 2 2
-5.1587157 -10.657075 0 2 20
-7.8150587 -12.788064 -0.17447656 3 18
-3.4769061 -7.1827273 -1.2415029 2 3
-4.525012 -8.2891312 -1.2020736 3 4
-6.9763265 -12.779567 -0.084621467 2 19
-4.2002726 -8.6770859 -1.038413 3 5
-5.3415208 -8.7405233 -0.95620859 2 6
-6.145226 -12.695045 0.32819641 3 24
-7.936028 -12.98601 0.1771773 2 22
-4.2003713 -8.67729 -0.67412657 2 8
-4.7546148 -8.7097292 -0.81006473 3 7
-5.3870692 -12.67269 0.4007512 3 25
-5.9846478 -10.962962 0.21801546 2 23
-4.5381489 -10.675667 -0.74344248 3 9
-4.9738135 -10.275097 -0.53175771 2 12
-5.7878723 -10.602499 -0.63305581 5 11
-6.1287484 -12.661006 1.7271326 3 29
-6.945673 -12.723413 1.183365 4 28
-5.402082 -12.708007 -0.56257468 3 13
-6.2640872 -10.250153 -0.41949195 1 14
-3.2102909 -6.6319432 1.9742718 2 31
-6.9406066 -12.714132 2.6410272 4 30
-4.965663 -10.258259 -0.26519981 1 16
-1.668936 -3.0332754 -1.6144018 1 0
-5.4384198 -12.676563 -0.24077339 3 17
-5.4372573 -9.882164 -0.32825759 3 15
-2.3606195 -4.8357034 -1.5063872 4 1
-3.2540538 -5.9142118 -1.3500715 2 2
-7.8721023 -12.785919 -0.17480251 3 18
-3.4989724 -7.1676068 -1.240888 2 3
-4.5563006 -8.2810326 -1.2030838 3 4
-5.1000962 -11.887955 0.075182922 3 21
-5.977437 -10.863935 -0.072067738 3 19
-4.2394924 -8.6845541 -1.0409833 3 5
-5.3809175 -8.7397203 -0.95806754 2 6
-7.9832425 -12.966434 0.17727043 2 22
-4.2413764 -8.6884136 -0.67607975 2 8
-4.7988462 -8.721858 -0.81266844 3 7
-5.4369459 -12.673128 0.401333 3 25
-5.5833268 -10.147643 0.20216867 3 23
-4.5766745 -10.667897 -0.74395418 3 9
-6.3665924 -10.340661 -0.70720309 2 10
-7.012969 -12.746004 0.59269804 2 26
-5.996304 -10.898225 -0.65189672 3 11
-7.0051246 -12.731747 1.1862941 4 28
-4.9241991 -11.477951 -0.5088411 2 13
-6.3357701 -10.290599 -0.42200473 2 14
-3.2780297 -6.7150078 2.0022242 4 31
-6.9979057 -12.718627 2.6467669 4 30
-1.6835607 -3.0334775 -1.6177827 1 0
-5.4943867 -12.678563 -0.24119227 3 17
-5.4559789 -9.8307047 -0.32721031 2 15
-2.3783274 -4.8270187 -1.5063872 3 1
-3.2757087 -5.9022455 -1.3500715 3 2
-7.9484444 -12.804556 -0.17545441 3 18
-3.5304601 -7.1653705 -1.2427328 2 3
-4.5923986 -8.2746868 -1.2045989 2 4
-5.4887691 -12.6656 0.080227666 3 21
-4.2818408 -8.690362 -1.0435537 3 5
-5.431818 -8.7503939 -0.96141356 2 6
-8.0496988 -12.967671 0.17768951 2 22
-4.2784834 -8.683548 -0.67691684 2 8
-4.8443241 -8.7286119 -0.81494665 3 7
-5.4944878 -12.678797 0.40214753 2 25
-5.9271245 -10.679626 0.2131986 5 23
-4.4998732 -10.383676 -0.72527856 3 9
-7.0751543 -12.748172 0.5940007 2 26
-5.6872945 -10.247495 -0.61421484 1 11
-7.0672188 -12.733873 1.1888977 3 28
-4.9741802 -11.478162 -0.50965518 2 13
-6.4767518 -10.43373 -0.42884502 4 14
-3.3043265 -6.7064133 2.0032594 2 31
-7.0616617 -12.723861 2.6532242 4 30
-1.6941394 -3.0275819 -1.6177827 1 0
-5.5530376 -12.692283 -0.24182054 3 17
-5.6659808 -10.125627 -0.33768293 1 15
-2.400306 -4.8290348 -1.5096221 4 1
-3.2962916 -5.8907747 -1.3500715 3 2
-5.0421391 -10.143985 0 21 20
-8.0100632 -12.803859 -0.17582694 3 18
-3.5519319 -7.1459236 -1.2415029 2 3
-4.6309423 -8.275918 -1.2071242 2 4
-4.3227711 -8.6967297 -1.0461241 3 5
-5.479228 -8.7583895 -0.96438771 2 6
-5.0389953 -10.137659 0.26343179 23 24
-8.1097651 -12.963227 0.17801546 2 22
-4.3176494 -8.6864252 -0.678312 2 8
-4.8806033 -8.722085 -0.81592304 3 7
-5.5403147 -12.663203 0.40226391 2 25
-5.9174967 -10.575109 0.21152318 3 23
-4.5264921 -10.345963 -0.72374362 4 9
-5.0282784 -10.116099 0.65790123 12 27
-7.1391273 -12.758273 0.59562898 3 26
-5.6957216 -10.178776 -0.61128402 2 11
-5.0345979 -10.128813 1.3888232 12 29
-7.1271996 -12.736958 1.1915015 4 28
-5.5604939 -12.709325 -0.56517994 4 13
-6.3710823 -10.183993 -0.41949195 4 14
-7.1252494 -12.733473 2.660399 4 30
-1.70417 -3.0219474 -1.6177827 1 0
-4.9748549 -11.268851 -0.21501365 4 17
-2.4163065 -4.8210487 -1.5096221 3 1
-3.3196614 -5.8866444 -1.3516405 3 2
-8.0695381 -12.804296 -0.17619945 3 18
-3.5809224 -7.1447062 -1.2433476 2 3
-4.652514 -8.2501469 -1.2056091 2 4
-5.159688 -11.687528 0.074253015 3 21
-6.0614028 -10.748482 -0.071719021 2 19
-4.3604965 -8.7001238 -1.0482659 3 5
-5.5209823 -8.7603884 -0.96661836 3 6
-8.1804314 -12.980253 0.17862079 2 22
-4.3535829 -8.6863298 -0.6794281 2 8
-4.9232087 -8.7301607 -0.81820124 3 7
-5.5951953 -12.674023 0.40319481 3 25
-5.9250293 -10.506656 0.21054582 7 23
-4.5656118 -10.341849 -0.72451103 5 9
-6.5192399 -10.344367 -0.71208674 6 10
-7.1833591 -12.738009 0.59579182 3 26
-5.7490664 -10.194626 -0.61337745 2 11
-5.6139078 -12.71641 -0.56631976 3 13
-6.4751549 -10.274416 -0.42409867 2 14
-6.3275881 -12.624892 3.7839346 4 31
-7.1790342 -12.730341 2.6647038 4 30
-1.7093323 -3.0065267 -1.6127114 1 0
-5.0027623 -11.225846 -0.21452498 2 17
-2.4296436 -4.8057098 -1.5074655 3 1
-3.3421268 -5.8784318 -1.352425 3 2
-8.133482 -12.806439 -0.17661853 3 18
-3.6058388 -7.1321635 -1.2433476 2 3
-4.6832433 -8.2373066 -1.2061141 3 4
-5.2134767 -11.698674 0.074438997 3 21
-4.3944263 -8.6919489 -1.0491228 3 5
-5.566473 -8.7645979 -0.96922082 2 6
-5.4687347 -10.816875 0.28204232 3 24
-8.2406988 -12.975256 0.17894673 2 22
-4.3892765 -8.6817636 -0.68026513 2 8
-4.9654737 -8.7337189 -0.82015395 3 7
-5.6507921 -12.679979 0.40400934 3 25
-5.9596891 -10.482434 0.21047603 5 23
-4.6731772 -10.48628 -0.7357676 4 9
-6.6409411 -10.456385 -0.72138906 2 10
-6.417666 -12.693813 0.82836485 4 27
-7.2435794 -12.740655 0.59709442 6 26
-6.445014 -12.747906 -0.66539508 2 12
-7.2751899 -12.796255 -0.7714321 1 11
-6.4092832 -12.677232 1.7441941 4 29
-7.2452564 -12.743605 1.1967088 8 28
-4.8903766 -10.97366 -0.48946437 2 13
-8.1440802 -12.823127 -0.53047234 4 14
-6.3768458 -12.613073 3.7870405 3 31
-7.2428746 -12.739415 2.6718786 4 30
-5.2594395 -10.402901 -0.27124822 2 16
-1.7252257 -3.0099766 -1.6177827 1 0
-4.981214 -11.073362 -0.21194203 4 17
-5.5929923 -9.7580137 -0.32732671 1 15
-2.4481549 -4.8006306 -1.5085437 2 1
-3.3665285 -5.8735342 -1.3539939 3 2
-5.5897264 -10.960995 0 2 20
-8.204011 -12.818392 -0.1771773 3 18
-3.6325102 -7.1230536 -1.2439624 2 3
-4.7159171 -8.2277937 -1.2071242 3 4
-4.4319692 -8.6907272 -1.0508363 3 5
-5.6034765 -8.7551746 -0.97033614 3 6
-6.478404 -12.703618 0.33182544 2 24
-8.3118172 -12.986835 0.17950551 2 22
-4.4304333 -8.6877155 -0.68193924 2 8
-5.0078268 -8.7370834 -0.82210666 3 7
-5.7065043 -12.6857 0.40482387 3 25
-5.9823251 -10.437277 0.20998736 5 23
-4.6082239 -10.244196 -0.71990615 4 9
-8.2229786 -12.848027 -0.88836432 5 10
-6.4782667 -12.703349 0.83045781 2 27
-7.3039122 -12.743031 0.59839708 6 26
-5.6526508 -11.084384 -0.57959169 2 12
-7.3476257 -12.819298 -0.77436286 1 11
-6.4607139 -12.668929 1.7461442 6 29
-7.3075418 -12.749364 1.1996379 8 28
-8.2103443 -12.828287 -0.53186834 4 14
-6.4383907 -12.625155 3.7973933 3 31
-7.2970862 -12.731122 2.6754658 4 30
-5.7807856 -11.335645 -0.29609326 3 16
-1.7357212 -3.0039365 -1.6177827 1 0
-5.7605739 -12.687346 -0.24321674 3 17
-2.4666581 -4.7954817 -1.5096221 4 1
-3.3850467 -5.8583517 -1.3532094 3 2
-8.2638779 -12.813209 -0.17750326 3 18
-3.6609666 -7.1173611 -1.2451923 2 3
-4.744607 -8.2112827 -1.2071242 2 4
-7.3923402 -12.793598 -0.085876845 1 19
-4.47683 -8.7034979 -1.0542635 3 5
-5.6469536 -8.7556458 -0.97256684 2 6
-6.5428262 -12.720044 0.33284903 2 24
-8.3744392 -12.984633 0.17987803 2 22
-4.4680314 -8.6863928 -0.6830554 2 8
-5.0442758 -8.729907 -0.82308304 3 7
-5.7623186 -12.691189 0.4056384 3 25
-6.0127163 -10.405944 0.20977792 3 23
-4.6175475 -10.169894 -0.71581286 5 9
-6.5390067 -12.712619 0.83255082 4 27
-7.3683414 -12.752065 0.60002536 3 26
-5.8974733 -10.206498 -0.61777371 1 11
-6.5157905 -12.667484 1.7490689 6 29
-7.363965 -12.744491 1.2015907 8 28
-5.7814603 -12.733348 -0.56973916 3 13
-8.2745705 -12.829787 -0.53312474 4 14
-6.4947896 -12.626656 3.8046401 3 31
-7.3631353 -12.743055 2.6833582 4 30
-5.2862086 -10.277028 -0.26892191 1 16
-1.7498467 -3.0041242 -1.6211637 1 0
-5.2033529 -11.354632 -0.21801546 2 17
-6.2888594 -10.796668 -0.3636317 2 15
-2.4851577 -4.7902603 -1.5107003 4 1
-3.4094257 -5.8532777 -1.3547784 3 2
-8.3281736 -12.814465 -0.17792232 3 18
-3.6857905 -7.1045375 -1.2451923 2 3
-4.7852259 -8.2152414 -1.2101548 3 4
-5.2290535 -11.410715 0.072951145 3 21
-6.2229648 -10.683541 -0.071858503 1 19
-4.5126801 -8.6984062 -1.0555487 3 5
-5.6970167 -8.765934 -0.97591281 2 6
-6.6111312 -12.743271 0.3340587 2 24
-8.4415121 -12.988857 0.18034367 2 22
-4.5093532 -8.6919937 -0.68472958 2 8
-5.0807409 -8.722579 -0.82405943 3 7
-5.813251 -12.685536 0.40610388 3 25
-6.0671229 -10.415993 0.21040621 3 23
-4.722867 -10.306127 -0.72655773 4 9
-8.3451157 -12.840532 -0.89185268 5 10
-6.5943789 -12.71098 0.83394617 4 27
-7.4268942 -12.750439 0.60116518 5 26
-5.5256524 -10.650959 -0.55893189 4 12
-6.5727706 -12.66933 1.7524813 6 29
-7.4204502 -12.739376 1.2035434 8 28
-4.9667306 -10.83828 -0.48571929 2 13
-8.3367348 -12.827638 -0.5342415 4 14
-6.5512838 -12.627913 3.811887 3 31
-7.4254012 -12.747875 2.6898153 4 30
-1.758486 -2.9948719 -1.6194733 1 0
-6.3346038 -10.788444 -0.36409712 2 15
-2.5054345 -4.788383 -1.5128571 4 1
-3.4298356 -5.841342 -1.3547784 3 2
-5.4093466 -10.338336 0 3 20
-8.3903818 -12.812087 -0.17829484 3 18
-3.714231 -7.0986333 -1.2464222 2 3
-4.8098536 -8.1916456 -1.2091445 3 4
-5.278924 -11.414176 0.073090628 4 21
-7.5098305 -12.789968 -0.086202309 2 19
-4.5522327 -8.7002211 -1.0576905 3 5
-5.7406707 -8.7659855 -0.97814339 2 6
-5.6692853 -10.835131 0.28455472 1 24
-8.5087109 -12.992773 0.18080932 2 22
-4.5526137 -8.7009497 -0.68668276 2 8
-5.1293235 -8.735734 -0.82698858 3 7
-5.8725982 -12.697828 0.4071511 3 25
-7.5047631 -12.781338 0.25871447 2 23
-4.8107557 -10.401895 -0.73448843 3 9
-8.4117613 -12.844732 -0.89417821 5 10
-6.6572189 -12.723268 0.83627176 2 27
-7.4875431 -12.752011 0.60246783 3 26
-5.4257169 -10.369623 -0.54515862 2 12
-6.6335173 -12.677969 1.7568686 6 29
-7.4830389 -12.74434 1.2064725 6 28
-5.0783486 -10.980489 -0.4928838 2 13
-8.40555 -12.835248 -0.53577709 4 14
-6.6060686 -12.625509 3.8180988 3 31
-7.4837995 -12.745635 2.6948378 4 30
-1.7689295 -2.9887154 -1.6194733 1 0
-6.0952592 -10.298316 -0.34827188 2 15
-2.5239313 -4.7830148 -1.5139352 4 1
-3.4522026 -5.8327093 -1.3555628 3 2
-5.7496867 -10.896032 0 3 20
-8.4614887 -12.822781 -0.1788536 3 18
-3.7389872 -7.0856252 -1.2464222 2 3
-4.8444815 -8.185051 -1.2106597 3 4
-5.9226756 -12.689654 0.081390046 3 21
-7.5707288 -12.791213 -0.08638829 2 19
-4.5899987 -8.6983471 -1.059404 3 5
-5.7865896 -8.7691622 -0.98074585 2 6
-4.5922694 -8.7026501 -0.68807787 2 8
-5.1760302 -8.7452221 -0.82959217 3 7
-5.9270329 -12.698991 0.40784928 3 25
-4.8183355 -10.323546 -0.73013932 10 9
-8.4719419 -12.838621 -0.89580613 5 10
-6.7090454 -12.714079 0.83720195 2 27
-7.5523672 -12.760191 0.60409611 2 26
-5.4693394 -10.364755 -0.54590315 3 12
-6.4658794 -10.924502 -0.66529477 4 11
-6.6925545 -12.682828 1.7607684 6 29
-9.7367849 -16.450899 1.5605707 2 28
-8.4723196 -12.839194 -0.53717309 4 14
-6.664525 -12.62971 3.8263807 3 31
-7.5402703 -12.739752 2.6991425 4 30
-1.7774938 -2.979409 -1.6177827 1 0
-6.1721406 -10.345652 -0.35059914 3 15
-2.536993 -4.767375 -1.5117787 4 1
-3.4745514 -5.8239918 -1.3563473 2 2
-8.5283422 -12.826473 -0.17931925 3 18
-3.7692685 -7.0829978 -1.2482669 2 3
-4.8791223 -8.1783133 -1.212175 3 4
-4.997159 -10.60989 0.068162128 1 21
-7.6337767 -12.795624 -0.086597517 2 19
-4.6278076 -8.6963167 -1.0611176 3 5
-5.8326011 -8.7721262 -0.98334837 2 6
-5.7090974 -10.728215 0.28278673 3 24
-8.5859222 -12.913072 0.18052992 5 22
-4.6319928 -8.7041807 -0.68947303 2 8
-5.2208238 -8.7510681 -0.8318705 3 7
-5.9815469 -12.699926 0.40854746 2 25
-6.2147946 -10.417148 0.2117326 3 23
-4.88836 -10.378889 -0.7352559 6 9
-8.5432367 -12.848874 -0.89859676 5 10
-6.7646413 -12.711734 0.8385973 2 27
-6.2843056 -10.533661 0.49972263 1 26
-5.5261345 -10.384401 -0.54795057 2 12
-7.6418624 -12.809177 -0.78168994 3 11
-6.753572 -12.690933 1.7651558 4 29
-9.8186617 -16.457897 1.5644761 2 28
-5.2008634 -11.042391 -0.49728018 2 13
-8.5414324 -12.84616 -0.53870863 4 14
-6.7176466 -12.623425 3.8315573 3 31
-7.604856 -12.747147 2.7063174 4 30
-1.7980483 -2.9924548 -1.6279256 3 0
-6.5402751 -10.884846 -0.36956614 1 15
-2.5483172 -4.7525916 -1.5096221 4 1
-3.4948514 -5.8164091 -1.3571318 2 2
-5.5855503 -10.417007 0 2 20
-8.590848 -12.832855 -0.17978491 5 18
-3.7989728 -7.0850549 -1.2507266 2 3
-4.9047914 -8.1629438 -1.212175 3 4
-6.0272951 -12.693454 0.081669018 3 21
-7.7151403 -12.84015 -0.087062471 4 19
-4.6701398 -8.709774 -1.0645448 3 5
-5.8712087 -8.7703056 -0.9852072 2 6
-5.6898618 -10.611547 0.28018126 3 24
-8.5841732 -12.822883 0.17964521 7 22
-4.6649718 -8.7001352 -0.69031012 2 8
-5.2585568 -8.751708 -0.8334977 3 7
-6.0317063 -12.702744 0.40924564 2 25
-6.191875 -10.30501 0.20984773 3 23
-4.9380651 -10.39954 -0.73781425 6 9
-8.5991116 -12.845199 -0.90022469 5 10
-6.8196392 -12.718574 0.84045774 4 27
-23.058699 -38.376118 1.824012 9 26
-7.6902957 -12.798801 -0.78252727 3 11
-6.8084173 -12.697645 1.7690556 4 29
-9.8805847 -16.444054 1.5661035 2 28
-5.2646723 -11.087374 -0.50004828 2 13
-8.6039877 -12.852482 -0.54010463 4 14
-6.7755294 -12.636309 3.8419101 3 31
-7.6651325 -12.756923 2.7134922 4 30
-5.3950696 -10.061763 -0.26566505 2 16
-1.8028489 -2.9768574 -1.6228542 1 0
-6.0914817 -12.713902 -0.24607892 3 17
-6.5885868 -10.879049 -0.37014797 2 15
-2.5703878 -4.7538323 -1.5128571 4 1
-3.5131011 -5.8008189 -1.3563473 2 2
-5.6047564 -10.365779 0 3 20
-8.6579571 -12.835949 -0.18025054 3 18
-3.8199215 -7.0647964 -1.2494967 2 3
-4.9353113 -8.1491671 -1.21268 3 4
-7.7599139 -12.81314 -0.087062471 2 19
-4.7080803 -8.7074118 -1.0662583 3 5
-5.9218311 -8.7794752 -0.98855317 2 6
-5.6241617 -10.401669 0.27515644 1 24
-8.6400633 -12.809421 0.17987803 5 22
-4.7123928 -8.7153873 -0.69282126 2 8
-5.301466 -8.7537603 -0.83545047 3 7
-6.0846486 -12.699639 0.40982744 3 25
-6.1863728 -10.214914 0.20845154 3 23
-4.8915462 -10.209443 -0.72553444 4 9
-8.6706924 -12.854831 -0.90301532 5 10
-6.8810878 -12.726304 0.84255075 2 27
-23.240135 -38.37402 1.827757 9 26
-5.8001318 -10.727118 -0.56805193 7 12
-7.7659645 -12.823131 -0.78566748 2 11
-6.8678055 -12.70174 1.7729553 4 29
-9.8718367 -16.300339 1.5556889 2 28
-5.3378806 -11.141015 -0.50330484 2 13
-8.6666813 -12.848883 -0.54122138 4 14
-6.8361363 -12.643168 3.8512278 3 31
-7.7320399 -12.767115 2.7213843 4 30
-5.3902173 -9.968998 -0.26371098 2 16
-1.8156364 -2.9733241 -1.6245446 2 0
-6.1502256 -12.716695 -0.24656759 3 17
-7.8140693 -12.796483 -0.43635803 2 15
-2.5933263 -4.7545247 -1.5160918 3 1
-3.5404701 -5.7979474 -1.3587008 2 2
-5.5737548 -10.218751 0 2 20
-8.7274294 -12.837208 -0.18071619 3 18
-3.8514657 -7.0611587 -1.2513415 2 3
-4.9692807 -8.1377974 -1.2136902 3 4
-5.1287851 -10.604683 0.068464346 2 21
-7.8234992 -12.811925 -0.087248459 2 19
-4.7475781 -8.7040644 -1.0679718 3 5
-5.9674029 -8.7774744 -0.99078387 2 6
-5.928411 -10.868966 0.28809074 2 24
-8.7184343 -12.823977 0.18052992 5 22
-4.7500353 -8.7085686 -0.69365835 2 8
-5.3439012 -8.7512836 -0.83707774 3 7
-4.9508781 -10.23683 0.33093393 1 25
-6.2362747 -10.212654 0.2088704 3 23
-4.8611484 -10.051296 -0.71555704 3 9
-8.742444 -12.859293 -0.90557349 5 10
-6.9448919 -12.732552 0.84464377 4 27
-23.405617 -38.329525 1.829711 9 26
-5.7226958 -10.491815 -0.55669838 2 12
-7.8337269 -12.828674 -0.78776091 4 11
-6.9295197 -12.704369 1.7768552 4 29
-9.877491 -16.175585 1.5472269 2 28
-4.9540892 -10.243468 -0.46357456 3 13
-8.7384367 -12.853399 -0.54275697 4 14
-6.8990779 -12.648557 3.8605449 4 31
-7.7931356 -12.762201 2.7264068 4 30
-1.8241049 -2.9638803 -1.6228542 1 0
-7.8733621 -12.792961 -0.43717256 2 15
-2.6061957 -4.7386923 -1.5139352 3 1
-3.5689118 -5.798914 -1.3618386 2 2
-5.6421638 -10.258814 0 2 20
-8.7902727 -12.833061 -0.1810887 3 18
-3.8818064 -7.0580597 -1.2531862 2 3
-4.9976587 -8.1204004 -1.2136902 2 4
-7.8765626 -12.798162 -0.08734145 2 19
-4.789434 -8.7083454 -1.0705422 3 5
-6.0137625 -8.7795897 -0.99338627 2 6
-5.8911605 -10.711551 0.28446168 3 24
-8.7902727 -12.833061 0.1810887 5 22
-4.7900219 -8.7094145 -0.69505352 2 8
-5.3848667 -8.7495518 -0.83870506 3 7
-6.3096204 -10.25213 0.21012698 2 23
-8.8098469 -12.861639 -0.90789902 5 10
-7.0027685 -12.732721 0.84627163 2 27
-8.1466808 -13.237061 0.63324255 1 26
-5.7650638 -10.482276 -0.55725676 3 12
-7.8973055 -12.831865 -0.78964496 4 11
-6.9872203 -12.704452 1.7802675 4 29
-8.1577492 -13.255045 1.2705877 1 28
-8.8126221 -12.865689 -0.54457176 4 14
-6.9580865 -12.651479 3.8688273 3 31
-7.8562026 -12.765079 2.7328641 4 30
-5.4710522 -9.9476919 -0.26417625 5 16
-1.834439 -2.9574952 -1.6228542 1 0
-6.4996037 -10.478706 -0.35886082 2 15
-2.620852 -4.7261982 -1.5128571 3 1
-3.5891306 -5.7864213 -1.3618386 2 2
-5.5945234 -10.088637 0 3 20
-8.857729 -12.835221 -0.18155435 3 18
-3.9102523 -7.0513816 -1.2544161 2 3
-5.034338 -8.116395 -1.2157105 3 4
-7.9401617 -12.801184 -0.087550677 2 19
-4.8352304 -8.7194004 -1.0739694 3 5
-6.0579429 -8.7782135 -0.99561697 2 6
-5.7656093 -10.397158 0.27664527 1 24
-8.8531847 -12.828636 0.18146122 5 22
-4.8300676 -8.7100897 -0.69644862 2 8
-5.4300838 -8.7544193 -0.84098327 3 7
-6.3411503 -10.223247 0.20998736 3 23
-4.5115991 -9.1647463 -0.6546694 4 9
-8.8796349 -12.866963 -0.91045713 5 10
-7.0607247 -12.732647 0.84789956 4 27
-8.2075806 -13.232319 0.63438231 1 26
-6.4387002 -10.380517 -0.64017349 2 11
-7.0488501 -12.711234 1.7846549 4 29
-8.2291822 -13.267145 1.2744932 1 28
-5.0148902 -10.187118 -0.46259758 25 13
-8.8779087 -12.864463 -0.5458281 4 14
-7.0171933 -12.654147 3.8771093 3 31
-7.9152298 -12.760988 2.7378864 4 30
-5.5231938 -9.9600086 -0.26501369 2 16
-1.8447516 -2.9510739 -1.6228542 1 0
-7.9963894 -12.791932 -0.43903434 2 15
-2.6392136 -4.7203827 -1.5139352 3 1
-3.6072285 -5.7705321 -1.3610542 2 2
-5.6453228 -10.096979 0 2 20
-8.9367285 -12.853481 -0.18225281 3 18
-3.932914 -7.0342393 -1.253801 2 3
-5.064743 -8.1021376 -1.2162156 3 4
-8.0123615 -12.817483 -0.087852895 2 19
-6.1044636 -8.7799025 -0.99821937 2 6
-8.9207458 -12.830494 0.18192686 5 22
-4.8701797 -8.7105913 -0.69784379 3 8
-5.4775152 -8.762455 -0.84358686 3 7
-8.284749 -13.253225 0.27281603 2 23
-4.5151558 -9.0917397 -0.65057617 2 9
-8.9518518 -12.875232 -0.91324782 5 10
-7.1168203 -12.728836 0.8492949 4 27
-8.2897348 -13.261201 0.63715041 2 26
-5.8342009 -10.434799 -0.55688447 3 12
-8.0121021 -12.817068 -0.79215711 4 11
-7.1009288 -12.700413 1.7866048 4 29
-8.2796707 -13.2451 1.2751441 1 28
-8.9455824 -12.866215 -0.5472241 4 14
-7.0745215 -12.653182 3.8843563 3 31
-7.9826708 -12.769986 2.7457786 4 30
-5.5345097 -9.8987846 -0.26389706 2 16
-1.8550415 -2.9446166 -1.6228542 1 0
-8.0623045 -12.797771 -0.44019797 2 15
-2.6537836 -4.7077866 -1.5128571 3 1
-3.6294401 -5.7612238 -1.3618386 2 2
-5.7099967 -10.129479 0 1 20
-8.9976053 -12.845141 -0.18257876 3 18
-3.9613259 -7.0273542 -1.2550309 2 3
-5.0972233 -8.0911226 -1.2172257 3 4
-8.0783749 -12.823279 -0.088085376 2 19
-4.9174681 -8.7235413 -1.0786816 4 5
-6.1487842 -8.7781134 -1.00045 2 6
-8.9884272 -12.832038 0.18239251 5 22
-4.9240689 -8.7352505 -0.70119202 7 8
-5.5186939 -8.760148 -0.84521419 6 7
-6.5807767 -10.446054 0.21550232 2 23
-4.5486526 -9.0794916 -0.650832 2 9
-9.0196505 -12.876614 -0.91557342 5 10
-8.3231936 -13.211895 0.63617349 1 26
-6.3591518 -11.281075 -0.60322952 2 12
-8.0823431 -12.829579 -0.79466927 6 11
-7.1608148 -12.703217 1.7905045 6 29
-8.3279791 -13.219491 1.2754695 1 28
-5.4260221 -10.830794 -0.49353513 2 13
-9.0133753 -12.867655 -0.5486201 4 14
-7.1338248 -12.655336 3.8926387 3 31
-8.0460758 -12.77201 2.7522359 4 30
-5.5709929 -9.8828878 -0.26399013 2 16
-1.8711379 -2.947305 -1.6279256 4 0
-5.3249903 -10.53712 -0.20607802 2 17
-8.1219292 -12.79318 -0.4410125 4 15
-2.6740067 -4.7051911 -1.5150136 3 1
-3.653733 -5.7551427 -1.3634075 3 2
-9.0700607 -12.85287 -0.18313752 3 18
-3.9877844 -7.0169191 -1.2556458 2 3
-5.1275625 -8.0766315 -1.2177308 3 4
-5.6161723 -11.113312 0.072369955 3 21
-8.1445255 -12.828772 -0.088317849 2 19
-4.9557486 -8.7201519 -1.0803951 9 5
-6.2046466 -8.7923908 -1.0045396 2 6
-9.0654497 -12.846335 0.1830444 5 22
-4.9584732 -8.724947 -0.7017501 3 8
-5.5641961 -8.7643909 -0.8474924 7 7
-5.6409411 -11.162325 0.36398077 2 25
-8.3813581 -13.201817 0.27295563 2 23
-4.583919 -9.0706835 -0.65134358 1 9
-9.0875664 -12.877677 -0.91789895 5 10
-7.2331328 -12.727445 0.85255063 6 27
-8.3842554 -13.206381 0.63731325 2 26
-7.273077 -12.797731 -0.68568265 2 12
-8.1399231 -12.821523 -0.79592532 4 11
-8.4018517 -13.234096 1.2797005 3 28
-9.0881996 -12.878573 -0.55043483 4 14
-7.1970472 -12.663948 3.9029913 3 31
-8.1159191 -12.783712 2.7608457 4 30
-7.2671375 -12.78728 -0.34224734 2 16
-1.8755535 -2.9315944 -1.6228542 2 0
-5.2963519 -10.390193 -0.20356487 2 17
-8.1816196 -12.788325 -0.44182703 2 15
-2.6923296 -4.6991706 -1.5160918 3 1
-3.675914 -5.7456579 -1.364192 3 2
-5.9058495 -10.308023 0 2 20
-9.1403646 -12.856991 -0.18364975 3 18
-4.0201135 -7.0166745 -1.2581054 2 3
-5.1578627 -8.062026 -1.2182359 3 4
-5.6603804 -11.104331 0.0724397 4 21
-8.2000351 -12.81711 -0.088434085 2 19
-4.9861574 -8.7027998 -1.0803951 9 5
-6.249146 -8.7901545 -1.0067703 2 6
-5.7969017 -10.117866 0.27134126 2 24
-9.1287756 -12.840691 0.18341692 5 22
-4.9948506 -8.7179728 -0.70258719 3 8
-5.609796 -8.7684221 -0.84977061 6 7
-6.4915395 -12.734869 0.41599464 3 25
-4.6173663 -9.0581837 -0.65159947 2 9
-9.1579142 -12.881677 -0.92045707 5 10
-7.2894268 -12.722908 0.85394603 6 27
-8.4539967 -13.214067 0.63910437 2 26
-6.5370708 -11.409751 -0.61253572 3 12
-8.2104616 -12.833408 -0.79843742 4 11
-7.276957 -12.701143 1.7973293 6 29
-8.4802246 -13.255061 1.2845824 1 28
-6.5179458 -12.786673 -0.58471942 1 13
-9.1562614 -12.879352 -0.55183083 4 14
-7.2527332 -12.658863 3.9092031 3 31
-8.1774588 -12.781822 2.7665854 4 30
-5.6676841 -9.8923302 -0.26529285 1 16
-1.8847544 -2.9256873 -1.6228542 2 0
-5.3070378 -10.330813 -0.20272715 2 17
-8.2412443 -12.792809 -0.44287431 2 15
-2.703229 -4.6840167 -1.5139352 3 1
-3.6960711 -5.7373781 -1.3649765 3 2
-5.8022466 -10.053836 0 3 20
-9.2016611 -12.857483 -0.18406881 3 18
-4.0460892 -7.0108566 -1.2593353 2 3
-5.1917615 -8.0591249 -1.2202562 3 4
-5.2839956 -10.285959 0.067208976 2 21
-8.2684221 -12.834998 -0.088736303 2 19
-5.0373297 -8.7284269 -1.0855358 3 5
-6.2906384 -8.7899103 -1.0090009 2 6
-5.9545879 -10.317806 0.27720359 2 24
-9.1923494 -12.844472 0.18388256 5 22
-5.0441542 -8.7402534 -0.70565647 3 8
-5.6524291 -8.7742147 -0.85204881 3 7
-6.5406499 -12.732194 0.41657645 2 25
-4.6530972 -9.0578356 -0.65262282 2 9
-9.2239027 -12.888561 -0.92301512 5 10
-7.3513184 -12.737988 0.85650408 6 27
-8.4846468 -13.170641 0.63829023 1 26
-6.5529118 -11.35455 -0.6106745 2 12
-8.278863 -12.851204 -0.80115891 4 11
-7.3287306 -12.69885 1.800254 6 29
-8.4592123 -13.131159 1.2751441 1 28
-9.219945 -12.883031 -0.55322683 4 14
-7.3137116 -12.672826 3.9205911 3 31
-8.2303619 -12.775916 2.7708902 4 30
-5.7107277 -9.895257 -0.26585117 1 16
-1.9018992 -2.9275489 -1.6279256 2 0
-5.3356204 -10.289058 -0.2023083 2 17
-8.3164425 -12.801305 -0.44427064 2 15
-2.721194 -4.6736031 -1.5139352 4 1
-3.7159369 -5.7198548 -1.364192 3 2
-7.4127121 -12.731203 0 4 20
-9.2884073 -12.873957 -0.18481384 3 18
-4.0789447 -7.0055161 -1.26118 2 3
-5.2248292 -8.0424576 -1.2207612 2 4
-5.3363428 -10.290451 0.067371711 2 21
-8.3394346 -12.836698 -0.088968784 2 19
-5.0788107 -8.7227678 -1.0872493 3 5
-6.3429852 -8.7915306 -1.011975 2 6
-6.0947676 -10.467656 0.28185621 3 24
-9.2767057 -12.857738 0.18458103 5 22
-5.0816927 -8.7277184 -0.70621455 4 8
-5.6969376 -8.7691631 -0.85367614 3 7
-6.6078973 -12.74248 0.41774008 2 25
-4.6970315 -9.057621 -0.65390199 2 9
-9.3013611 -12.891912 -0.92580581 2 10
-7.4162478 -12.737275 0.85836458 6 27
-8.5112047 -13.101098 0.63649911 1 26
-7.4509249 -12.796833 -0.68977737 2 12
-8.343379 -12.842769 -0.80262429 4 11
-7.3914199 -12.694633 1.8036665 6 29
-8.5030546 -13.088552 1.2741678 3 28
-5.5914345 -10.782362 -0.49483773 6 13
-9.2950726 -12.883195 -0.55476242 4 14
-7.3720379 -12.661345 3.9257677 3 31
-8.3072262 -12.787119 2.7802174 4 30
-5.849287 -10.046048 -0.27050379 1 16
-1.9110872 -2.9215593 -1.6279256 2 0
-5.371623 -10.279333 -0.20244791 2 17
-8.3741293 -12.801884 -0.44520155 2 15
-2.7397609 -4.6716757 -1.5160918 4 1
-3.7381825 -5.7147169 -1.3657609 3 2
-7.4648147 -12.728554 0 4 20
-9.3499594 -12.873837 -0.18523292 3 18
-4.0989347 -6.9892573 -1.2605652 2 3
-5.256587 -8.0359659 -1.2222764 2 4
-5.4427466 -10.415439 0.068301618 2 21
-8.4059982 -12.850603 -0.089247756 2 19
-5.1222849 -8.7342129 -1.0906764 3 5
-6.3916373 -8.8005619 -1.0153211 2 6
-6.1134629 -10.42431 0.28120485 2 24
-9.3476095 -12.870602 0.18518637 7 22
-5.125236 -8.7392445 -0.70844674 3 8
-5.7375541 -8.7712402 -0.85562891 3 7
-4.7236152 -9.0392818 -0.65364611 2 9
-9.3723221 -12.904628 -0.92882907 2 10
-7.4784493 -12.751802 0.86092269 5 27
-8.5545101 -13.07764 0.63666189 2 26
-6.2055192 -10.581278 -0.57140219 3 12
-8.3968067 -12.836551 -0.80388033 4 11
-7.4513507 -12.705595 1.8085413 6 29
-5.453135 -10.435318 -0.47969463 2 13
-9.3613415 -12.889508 -0.55629796 4 14
-7.4293709 -12.668117 3.9350848 3 31
-8.3688993 -12.793889 2.7873921 4 30
-6.0204058 -10.265635 -0.27692443 1 16
-1.9222901 -2.9142003 -1.6279256 1 0
-8.4474354 -12.80635 -0.44648153 2 15
-2.7557158 -4.6578074 -1.5150136 4 1
-3.7600961 -5.7003222 -1.3657609 3 2
-7.5502925 -12.761767 0 4 20
-9.4182224 -12.863663 -0.18560545 3 18
-4.1237264 -6.9700665 -1.2599502 3 3
-5.2852163 -8.0124111 -1.2217714 3 4
-5.4565701 -10.344934 0.067976147 2 21
-8.4706926 -12.841606 -0.089410484 2 19
-5.1699572 -8.7384424 -1.0936751 3 5
-6.4512596 -8.811305 -1.0194106 2 6
-7.5441766 -12.751431 0.34475973 2 24
-9.4111338 -12.853981 0.18546575 5 22
-5.1648474 -8.729805 -0.70928383 3 8
-5.7821636 -8.7657852 -0.85725611 3 7
-5.5159106 -10.457436 0.34408286 1 25
-8.5554295 -12.970069 0.2712104 2 23
-4.7713223 -9.0457945 -0.65543687 2 9
-6.7207584 -9.1793938 -0.66255236 1 10
-7.5354872 -12.736744 0.86185288 4 27
-8.5518408 -12.964628 0.63275403 3 26
-6.4047956 -10.825609 -0.58591992 2 12
-8.4702225 -12.840895 -0.8061831 6 11
-7.5223155 -12.71448 1.8139035 6 29
-8.5459242 -12.955658 1.2670076 3 28
-5.3943362 -10.226947 -0.47106469 2 13
-9.436738 -12.888952 -0.55783355 5 14
-7.4877915 -12.656126 3.9402614 4 31
-8.4439592 -12.80108 2.7960017 7 30
-7.5828648 -12.816823 -0.34652776 2 16
-1.9294305 -2.9051273 -1.6262352 1 0
-5.2987247 -9.9696522 -0.19707258 2 17
-8.5141726 -12.819717 -0.44787788 2 15
-2.7742789 -4.6557446 -1.5171702 3 1
-3.7844961 -5.6982837 -1.3681144 3 2
-7.602633 -12.7586 0 4 20
-9.4894361 -12.875867 -0.18621077 3 18
-4.1496501 -6.9638677 -1.26118 2 3
-5.3235345 -8.0156012 -1.2248019 2 4
-8.528698 -12.841588 -0.089596465 2 19
-5.2055283 -8.7358227 -1.0953888 3 5
-6.4978127 -8.8166428 -1.0223849 3 6
-6.2536383 -10.494742 0.28427556 2 24
-9.4870644 -12.872647 0.18616422 5 22
-5.2045035 -8.7341032 -0.710958 3 8
-5.8317308 -8.7807875 -0.86051071 3 7
-5.5487366 -10.440055 0.34408286 2 25
-8.5585203 -12.886492 0.27002364 3 23
-4.8072109 -9.0448599 -0.65646029 2 9
-6.7732544 -9.1903791 -0.66487789 1 10
-9.7994537 -16.445267 1.1148739 2 27
-8.5748405 -12.911065 0.63145143 2 26
-6.197422 -10.400401 -0.56395721 3 12
-8.534833 -12.850825 -0.80848593 6 11
-8.5446768 -12.865647 1.260824 3 28
-5.5746202 -10.488755 -0.4839282 3 13
-9.5056448 -12.897859 -0.55950874 5 14
-7.82023 -13.123768 4.093482 1 31
-8.4993753 -12.797437 2.8010242 5 30
-7.6435633 -12.82729 -0.34745827 2 16
-1.9440988 -2.9040608 -1.6296161 1 0
-6.8377132 -12.752283 -0.25257123 1 17
-8.5722237 -12.805037 -0.44845966 2 15
-2.789341 -4.6422434 -1.5160918 4 1
-3.80972 -5.6908932 -1.3696833 3 2
-7.6637669 -12.754651 0 4 20
-9.5675678 -12.882743 -0.18681611 3 18
-4.1873608 -6.9689393 -1.2648695 2 3
-5.3572927 -8.0026302 -1.225812 2 4
-8.6090851 -12.860101 -0.089945182 4 19
-5.2518506 -8.7405472 -1.0983875 3 5
-6.5419569 -8.808754 -1.0242437 3 6
-6.2529302 -10.406625 0.2825076 3 24
-9.5580292 -12.869899 0.18662986 5 22
-5.2488122 -8.7354918 -0.71263212 3 8
-5.881618 -8.7858582 -0.86311442 3 7
-5.5775175 -10.402028 0.34350103 1 25
-4.8403306 -9.0271797 -0.65646029 2 9
-9.8658342 -16.419508 1.1155716 2 27
-8.5798616 -12.816447 0.62835765 3 26
-8.6018763 -12.849333 -0.81037003 6 11
-9.8640976 -16.416616 2.3515911 3 29
-5.4789338 -10.218169 -0.47236732 2 13
-9.5766888 -12.895023 -0.56090468 5 14
-7.933948 -13.204309 4.1276464 1 31
-8.563736 -12.792359 2.8067639 5 30
-7.6925869 -12.802616 -0.34755132 2 16
-1.9542242 -2.8972566 -1.6296161 1 0
-5.733252 -10.603428 -0.21040621 1 17
-8.6436996 -12.814813 -0.44985601 2 15
-2.8095193 -4.6390681 -1.5182486 4 1
-3.8295619 -5.6775594 -1.3696833 3 2
-7.7248182 -12.755193 0 4 20
-9.6412296 -12.887699 -0.18737489 3 18
-4.2116609 -6.9542794 -1.2648695 2 3
-5.3962889 -8.0003281 -1.2283374 2 4
-5.7264185 -10.59079 0.069975451 3 21
-8.6651068 -12.84655 -0.090061419 2 19
-5.2988091 -8.7493753 -1.1018145 3 5
-6.5869794 -8.8049984 -1.0264744 3 6
-6.191854 -10.223968 0.27813411 1 24
-9.6196661 -12.858874 0.18695581 5 22
-5.2916746 -8.7375946 -0.71430629 3 8
-5.9233971 -8.7817984 -0.86474168 3 7
-5.6061869 -10.368426 0.34303558 1 25
-4.8775072 -9.0207615 -0.65722769 2 9
-6.8388457 -9.141675 -0.66487789 3 10
-23.213861 -38.330647 2.6097445 13 27
-8.6468964 -12.819551 0.62998593 2 26
-6.1081676 -10.085785 -0.5492534 3 12
-8.6667805 -12.84903 -0.81225413 4 11
-9.9090014 -16.361708 2.3486662 3 29
-8.6521292 -12.82731 1.2631022 3 28
-9.6551666 -12.906328 -0.56285906 5 14
-7.9799905 -13.176532 4.1276464 1 31
-8.6369448 -12.804798 2.8160911 7 30
-1.9556725 -2.8787656 -1.6228542 1 0
-5.7588134 -10.566799 -0.21005715 2 17
-8.7086153 -12.819152 -0.45101964 2 15
-2.8208749 -4.6231494 -1.5160918 4 1
-3.8593891 -5.6810517 -1.3736056 6 2
-7.7816586 -12.753408 0 4 20
-9.7007599 -12.87802 -0.18770084 3 18
-4.2388167 -6.9470224 -1.2660992 2 3
-5.4205594 -7.9791069 -1.2278323 2 4
-5.8342438 -10.705206 0.070858859 3 21
-8.7323856 -12.854141 -0.090317145 2 19
-5.3340096 -8.7419405 -1.1030997 3 5
-6.6377087 -8.811738 -1.0298204 3 6
-6.2590513 -10.257998 0.27962294 1 24
-9.6983528 -12.874825 0.18765427 5 22
-5.3330917 -8.7404366 -0.71598047 3 8
-5.9704089 -8.7884903 -0.86734539 3 7
-5.6424527 -10.35329 0.34315193 2 25
-8.7289553 -12.849092 0.27114061 2 23
-4.9131255 -9.0150537 -0.65799522 2 9
-6.8835397 -9.1380844 -0.66627324 3 10
-23.386604 -38.328449 2.6148608 13 27
-8.7208023 -12.837091 0.63226551 2 26
-8.7317877 -12.853262 -0.81434757 4 11
-9.9135752 -16.247419 2.3369668 3 29
-8.7103004 -12.821632 1.2653804 3 28
-9.7267761 -12.912558 -0.56453425 5 14
-8.0055304 -13.120314 4.1183286 1 31
-8.7036839 -12.811893 2.8239832 7 30
-1.9698046 -2.8779044 -1.6262352 1 0
-8.7781515 -12.824968 -0.45229962 2 15
-2.8390133 -4.6165557 -1.5171702 4 1
-3.8791962 -5.6675448 -1.3736056 5 2
-7.8449874 -12.756833 0 3 20
-9.7698317 -12.875944 -0.18816648 3 18
-4.2754631 -6.9523845 -1.2697887 2 3
-5.4528608 -7.9666848 -1.2288424 2 4
-8.806572 -12.86649 -0.09061937 2 19
-5.3769917 -8.7435942 -1.10567 3 5
-6.690093 -8.8170671 -1.0331663 3 6
-9.7698317 -12.875944 0.18816648 5 22
-5.3802905 -8.7489586 -0.71821266 3 8
-6.0145612 -8.7873344 -0.86929816 3 7
-5.8075724 -10.568304 0.35094818 3 25
-8.7963438 -12.851547 0.27183869 2 23
-4.9484091 -9.0048456 -0.65850687 2 9
-6.9202223 -9.1203623 -0.66673833 3 10
-23.551632 -38.297604 2.6183493 13 27
-8.7813606 -12.829657 0.63340533 2 26
-6.1745849 -10.04057 -0.54906726 2 12
-8.8036757 -12.862259 -0.81685966 4 11
-9.9244757 -16.138315 2.3262422 3 29
-8.7775211 -12.824046 1.268635 3 28
-7.0332422 -12.798711 -0.59497768 1 13
-9.7935362 -12.907187 -0.56579059 5 14
-8.1079502 -13.184441 4.1473165 1 31
-8.7705784 -12.813904 2.8311582 5 30
-7.8742862 -12.804476 -0.34978458 2 16
-1.9762225 -2.8646972 -1.6228542 1 0
-5.4833317 -9.8921919 -0.19742163 2 17
-8.8500738 -12.828911 -0.4535796 2 15
-2.8599746 -4.6126661 -1.5193268 4 1
-3.9043977 -5.6597462 -1.3751746 6 2
-6.2876372 -10.140919 0 2 20
-9.8533993 -12.887711 -0.18886495 3 18
-4.2967515 -6.9299493 -1.268559 6 3
-5.4887843 -7.9564447 -1.2303576 2 4
-8.8673 -12.853881 -0.090758853 2 19
-5.4194813 -8.7407274 -1.107812 3 5
-6.7441359 -8.8209629 -1.0365124 3 6
-6.4250145 -10.362486 0.28371727 1 24
-9.8461103 -12.878177 0.18872525 5 22
-5.4249377 -8.749527 -0.71988684 3 8
-6.0625753 -8.7882023 -0.87157631 3 7
-5.8171921 -10.494492 0.34920278 3 25
-8.8592854 -12.842264 0.27232736 2 23
-4.9833159 -8.990139 -0.65876269 2 9
-6.9560294 -9.0981083 -0.66697085 3 10
-8.848752 -12.826994 0.63487083 2 26
-6.1923947 -9.9873085 -0.54739219 3 12
-8.8734426 -12.862785 -0.8189531 4 11
-8.2512903 -13.307966 1.922611 2 29
-8.8471041 -12.824605 1.2718896 3 28
-9.872344 -12.912489 -0.56760538 5 14
-8.0625648 -13.003583 4.0996938 1 31
-8.8398314 -12.814063 2.8383329 5 30
-7.9485583 -12.81971 -0.35099426 2 16
-1.9903473 -2.8637359 -1.6262352 1 0
-5.5197783 -9.8764839 -0.19749144 2 17
-8.9130526 -12.824208 -0.45451051 2 15
-2.8699338 -4.5928559 -1.5160918 3 1
-3.9397984 -5.6686296 -1.3806659 6 2
-6.3081574 -10.095166 0 3 20
-9.9373684 -12.90394 -0.18960996 3 18
-4.3209138 -6.9149103 -1.268559 7 3
-5.5165219 -7.9372387 -1.2303576 2 4
-5.7644515 -10.314276 0.068673581 4 21
-8.9395046 -12.862267 -0.091037825 2 19
-5.4668174 -8.7487392 -1.1112391 3 5
-6.791894 -8.8194571 -1.0391147 3 6
-6.4632645 -10.343389 0.28381032 1 24
-9.9227257 -12.884927 0.18933058 5 22
-5.4681315 -8.750843 -0.72156101 3 8
-6.1114149 -8.7931776 -0.87417996 3 7
-5.8401341 -10.449693 0.34838825 3 25
-8.9337292 -12.853957 0.27323487 2 23
-5.016613 -8.9761753 -0.65901858 2 9
-6.9926171 -9.080101 -0.667436 3 10
-8.2739162 -13.241039 0.90929431 3 27
-8.9162788 -12.828849 0.63649911 2 26
-8.0227566 -12.839098 -0.70522577 3 12
-8.941082 -12.864536 -0.82104653 4 11
-8.280859 -13.25215 1.9187111 2 29
-8.919116 -12.832932 1.275795 3 28
-6.1029391 -10.919928 -0.50965518 3 13
-9.9466228 -12.915957 -0.56928056 5 14
-8.0587645 -12.896725 4.0748472 1 31
-8.9047165 -12.812214 2.8447902 5 30
-8.0144472 -12.825802 -0.35192478 2 16
-2.0014126 -2.8604391 -1.6279256 1 0
-5.5782475 -9.9078836 -0.19846877 2 17
-8.9762201 -12.828904 -0.45567411 2 15
-2.8864 -4.5870771 -1.5171702 4 1
-3.9575877 -5.6562243 -1.3806659 7 2
-6.3803172 -10.139624 0 2 20
-9.9974613 -12.897948 -0.1899825 3 18
-4.3405108 -6.8979554 -1.267944 7 3
-5.548255 -7.9296217 -1.2318728 3 4
-7.1842179 -12.76035 0.085109673 3 21
-9.0073862 -12.873447 -0.091316797 2 19
-5.5069838 -8.7517185 -1.1138093 7 5
-6.8390865 -8.8232584 -1.042089 3 6
-8.3315687 -13.240559 0.36402163 2 24
-9.9901104 -12.888465 0.18984279 5 22
-5.5019712 -8.7437525 -0.7223981 3 8
-6.1527233 -8.7935343 -0.87613273 3 7
-5.8317399 -10.358128 0.34594461 2 25
-9.0061665 -12.871704 0.27421221 2 23
-5.0506625 -8.9708052 -0.65978605 2 9
-7.0235543 -9.061244 -0.66766852 3 10
-8.3048401 -13.198081 0.9081316 3 27
-8.9863243 -12.843346 0.63861591 3 26
-8.0736914 -12.830739 -0.70615631 4 12
-9.0043535 -12.869113 -0.82314003 4 11
-8.3161077 -13.215988 1.9172486 2 29
-8.9776735 -12.83098 1.2783988 3 28
-7.2058349 -12.798745 -0.59839708 3 13
-9.9651089 -12.85621 -0.56802422 5 14
-8.1074724 -12.884424 4.0789886 1 31
-8.9742517 -12.826091 2.8541174 5 30
-8.0802584 -12.841176 -0.35304141 2 16
-2.009795 -2.8501213 -1.6262352 1 0
-6.1457648 -10.822898 -0.21724756 2 17
-9.0508347 -12.835128 -0.45707047 2 15
-2.9052579 -4.5797195 -1.5182486 4 1
-3.9941165 -5.6641183 -1.3861572 9 2
-6.4795799 -10.214122 0 2 20
-9.9757366 -12.772953 -0.18867868 5 18
-4.365766 -6.8819995 -1.267944 7 3
-5.5864305 -7.9222035 -1.2338932 3 4
-9.0775642 -12.873034 -0.09154927 2 19
-5.5603294 -8.7650566 -1.1180933 3 5
-6.8909936 -8.8232412 -1.0450631 3 6
-8.3543386 -13.169409 0.362905 2 24
-9.9831238 -12.782411 0.18881838 7 22
-5.5468087 -8.7437429 -0.72407216 3 8
-6.2009969 -8.7937288 -0.87841094 3 7
-5.8143873 -10.239331 0.3426865 2 25
-9.0740309 -12.868023 0.2748405 2 23
-5.0894241 -8.9626465 -0.66055351 2 9
-7.0690107 -9.0511751 -0.66883135 3 10
-8.3659954 -13.187783 0.90952694 3 27
-9.0540714 -12.839718 0.64008135 2 26
-8.1356497 -12.824677 -0.70745921 4 12
-9.0698814 -12.862138 -0.8248148 4 11
-8.3900156 -13.225648 1.9230984 2 29
-9.043025 -12.824053 1.2810023 3 28
-7.262567 -12.789624 -0.59921122 3 13
-8.3905916 -13.226556 4.19701 1 31
-9.0438824 -12.82527 2.8612921 5 30
-8.1379833 -12.828356 -0.35350668 2 16
-2.0255313 -2.852308 -1.6313065 1 0
-5.9094844 -10.3269 -0.20768364 1 17
-9.1188087 -12.840902 -0.45835045 2 15
-2.9225018 -4.5733061 -1.5193268 4 1
-4.0174184 -5.6572385 -1.3877261 9 2
-10.022983 -12.746093 -0.18877183 1 18
-4.3864336 -6.8641548 -1.2673291 7 3
-5.6103711 -7.9003992 -1.2333881 3 4
-5.8486986 -10.220676 0.0684411 2 21
-9.1410437 -12.872213 -0.091758505 2 19
-5.593646 -8.753273 -1.1189501 6 5
-6.939908 -8.8253889 -1.0480374 3 6
-8.4302616 -13.192179 0.36430079 2 24
-10.015564 -12.736659 0.18863212 5 22
-5.5908127 -8.7488384 -0.7260254 3 8
-6.2485881 -8.7991219 -0.88101453 3 7
-5.7668877 -10.077711 0.33791563 2 25
-9.1351748 -12.863948 0.27539897 2 23
-5.121098 -8.9491854 -0.6608094 2 9
-7.1039214 -9.0339622 -0.66929644 3 10
-8.4462337 -13.217173 0.91348034 3 27
-9.1197367 -12.842209 0.64170963 2 26
-8.1974945 -12.827931 -0.70913434 4 12
-9.140234 -12.871073 -0.82732689 6 11
-8.4658928 -13.247936 1.9304106 2 29
-9.1201229 -12.842752 1.2858843 3 28
-5.980917 -10.45173 -0.49060422 1 13
-8.1642818 -10.382409 -0.46123174 4 14
-9.1114225 -12.830502 2.8691843 5 30
-8.19555 -12.824887 -0.35415807 3 16
-2.0291479 -2.8363752 -1.6262352 1 0
-5.8755493 -10.184959 -0.20524029 3 17
-9.196146 -12.85452 -0.4599795 2 15
-2.9405339 -4.5663157 -1.5204051 4 1
-4.0508342 -5.6623211 -1.3924329 9 2
-8.2338362 -12.786214 0 4 20
-4.410368 -6.8488016 -1.2673291 7 3
-5.6448417 -7.8904495 -1.2349033 3 4
-5.9103246 -10.245241 0.068743326 4 21
-9.2045393 -12.866252 -0.091944478 2 19
-6.9978719 -8.8354521 -1.0521269 3 6
-5.6364412 -8.7527542 -0.72797859 3 8
