# .PCD v0.7 - Point Cloud Data file format
VERSION 0.7
FIELDS x y z intensity ring
SIZE 4 4 4 4 2
TYPE F F F F U
COUNT 1 1 1 1 1
WIDTH 1332
HEIGHT 1
VIEWPOINT 0 0 0 1 0 0 0
POINTS 1332
DATA ascii
43.826031 6.8943367 0.51649165 16 22
8.5592079 2.2199409 -0.61832136 0 8
9.8364153 2.0441895 -0.82015395 1 7
23.166735 7.2333884 0.70631814 2 25
32.351742 6.7232914 0.57676709 9 23
29.168594 7.5652504 3.6999536 10 29
32.362583 6.7255449 2.6983716 7 28
13.090933 2.0593536 -0.46276733 1 14
26.796804 6.9500961 7.4177542 6 31
32.633289 6.7818022 6.0770168 13 30
25.347055 7.8268504 -0.46304727 5 17
5.6421332 1.4444586 -1.6303918 1 1
8.0659513 1.6498386 -1.646601 0 2
26.819056 6.8660226 0 39 20
43.819801 6.7523637 -0.51616567 10 18
8.2667351 2.1163902 -1.3275902 0 3
9.7887135 2.0022185 -1.2717736 1 4
22.923597 7.0785174 0.13943943 4 21
12.517201 1.9288243 -1.1822486 1 6
26.889277 6.8840003 0.64587784 9 24
43.847473 6.756628 0.51649165 16 22
26.799917 6.8611231 3.3967426 8 29
32.539787 6.6558046 2.7113898 7 28
26.919567 6.8917551 7.4457068 6 31
32.585041 6.6650605 6.0641026 13 30
5.6511254 1.4247098 -1.6314702 0 1
8.0642529 1.6187184 -1.6450319 0 2
43.844257 6.5916991 -0.51616567 10 18
8.3779144 2.1121628 -1.3441929 0 3
9.9126978 1.9897524 -1.2869258 1 4
12.567511 1.8894435 -1.1863382 1 6
27.236168 6.8665323 0.65360117 9 24
43.871948 6.5958619 0.51649165 16 22
23.22691 7.0790272 0.7066673 5 25
33.882881 6.8012304 0.60322499 5 23
29.13472 7.3451781 3.689229 10 29
32.548328 6.533349 2.7100883 7 28
27.027069 6.8138161 7.4684825 6 31
33.69725 6.7639689 6.2664304 14 30
23.260389 7.0050092 -0.42402369 8 17
5.6483431 1.4041021 -1.6293135 1 1
8.0618801 1.5904467 -1.643463 0 2
43.889622 6.4497471 -0.51644504 10 18
8.4692602 2.1053441 -1.3577209 0 3
10.032138 1.979139 -1.3015729 1 4
23.206091 6.9886565 0.14085756 4 21
12.892877 1.8946574 -1.216452 1 6
27.588661 6.85817 0.66151065 9 24
43.937107 6.4567256 0.51700383 16 22
25.248716 7.603806 0.76740831 3 25
34.521282 6.8103542 0.61418509 5 23
29.128099 7.2408538 3.6853292 10 29
13.902126 2.0429704 -0.49068692 1 14
27.000776 6.7120295 7.4550238 6 31
23.499372 6.9876113 -0.42793301 9 17
5.6419854 1.3816297 -1.6260786 0 1
8.0750837 1.563789 -1.6450319 0 2
44.038559 6.3146806 -0.5179351 10 18
8.6070833 2.1077337 -1.3786278 0 3
10.155852 1.9667424 -1.3167251 1 4
25.235533 7.5038643 0.15301608 5 21
34.781208 6.7355924 -0.2059045 6 19
13.104414 1.8790394 -1.2357844 1 6
27.927048 6.8388762 0.66904795 9 24
44.046478 6.3158159 0.51802826 16 22
25.206118 7.4951172 0.76531374 3 25
34.83147 6.7453251 0.61928117 5 23
13.162839 1.887417 -0.7744118 2 10
27.95776 6.8463969 3.5342114 9 29
34.713444 6.7224693 2.8864863 8 28
27.189161 6.6581798 7.5005765 6 31
34.859016 6.7506604 6.4737811 15 30
23.532507 6.9036818 -0.42807263 9 17
5.6582456 1.3636475 -1.6293135 0 1
8.0730543 1.5327166 -1.643463 0 2
45.800411 6.3960714 -0.53837681 10 18
8.7069693 2.0983953 -1.3933855 0 3
23.535692 6.9046164 0.14255464 4 21
35.214363 6.6856527 -0.20832226 6 19
13.399155 1.8712049 -1.2629241 1 6
28.309586 6.8226619 0.67760879 4 24
45.812298 6.3977313 0.53851652 16 22
24.427732 7.1663122 0.74087769 3 25
35.610371 6.7608376 0.63268465 5 23
28.040562 6.7578263 3.5415235 9 29
34.933693 6.6323662 2.9027593 8 28
27.495096 6.626368 7.5782218 6 31
36.035618 6.8415728 6.6875882 16 30
24.327377 7.0493584 -0.44210437 4 17
5.6777267 1.3484409 -1.6336268 0 1
8.0626688 1.5030673 -1.6403252 0 2
46.043304 6.2744317 -0.54098445 10 18
8.8215532 2.0950887 -1.410603 0 3
10.184938 1.8987072 -1.3187454 1 4
24.326832 7.0492001 0.14720416 4 21
35.885147 6.6898179 -0.21215811 6 19
8.7486372 2.0777717 -0.96858579 0 5
13.799908 1.8805466 -1.3001018 1 6
28.686104 6.8128524 0.68607652 10 24
24.347668 7.0552382 0.73773593 3 25
35.876354 6.6881785 0.63701284 5 23
29.128929 6.9180217 3.6760671 10 29
35.935295 6.6991668 2.9841237 9 28
14.810011 2.0181956 -0.52195686 2 14
24.456884 6.9898028 -0.44398922 9 17
5.6526246 1.3206071 -1.6250004 0 1
8.0874176 1.4770236 -1.6442475 0 2
29.030268 6.7822614 0 61 20
46.426815 6.1534214 -0.54522181 10 18
8.9292431 2.0861144 -1.4265908 0 3
10.207443 1.8642087 -1.3207656 1 4
24.433273 6.9830551 0.14769235 4 21
36.023537 6.5790615 -0.2128323 6 19
14.063338 1.8639584 -1.3242673 1 6
29.057459 6.7886133 0.69435823 5 24
12.220541 2.2318654 -1.0141269 1 7
25.165312 7.1922727 0.76170659 3 25
36.065872 6.5867929 0.63994485 5 23
29.463339 6.8834386 1.7620776 5 27
36.05719 6.5852075 1.493306 6 26
29.103836 6.7994485 3.6697299 10 29
35.971375 6.5695348 2.9851003 9 28
35.838623 6.54529 6.6423879 16 30
24.745512 6.9836202 -0.44880611 9 17
5.6682339 1.3044478 -1.6282352 0 1
8.0729666 1.4467386 -1.6403252 0 2
46.558037 6.0137858 -0.5465256 10 18
10.222604 2.3525586 -1.6319705 0 3
10.768188 1.9297433 -1.3924861 1 4
25.095324 7.0823436 0.15155149 5 21
36.226265 6.4920297 -0.21390168 6 19
14.381483 1.8576205 -1.3536376 1 6
29.39547 6.7648683 0.70189548 5 24
49.556919 6.401144 0.58172828 18 22
12.20433 2.1871114 -1.0121741 1 7
25.181326 7.1066146 0.76147383 3 25
36.21349 6.4897399 0.64217877 5 23
29.60664 6.8134656 1.7692868 5 27
36.141773 6.4768882 1.4959112 6 26
29.133961 6.7046862 3.6707048 10 29
35.977264 6.4474068 2.983798 18 28
8.6544914 2.44245 -0.36636555 0 13
29.147057 6.7076998 8.0140734 7 31
25.02017 6.966939 -0.45334372 10 17
5.6840224 1.2872075 -1.6314702 0 1
8.0663767 1.4165162 -1.6379718 0 2
30.207108 6.8407216 0 19 20
46.511272 5.8427663 -0.54573399 10 18
10.203768 2.3107519 -1.6276662 0 3
12.814928 2.2503974 -1.656134 2 4
39.278294 6.8975635 -0.23177913 8 19
14.85417 1.8659874 -1.3975071 1 6
29.824518 6.7540798 0.71157295 5 24
49.555141 6.2251391 0.58144885 18 22
12.231523 2.1479471 -1.0138015 1 7
25.136648 6.9993725 0.75937933 3 25
43.649334 7.6651502 0.77356046 8 23
43.61586 7.6592722 1.8041469 9 26
12.408831 2.1790838 -0.66027045 1 11
36.710274 6.446599 3.042706 9 28
8.6052113 2.3961461 -0.36392313 0 13
29.177826 6.6076298 8.0161438 7 31
25.153526 6.9048252 -0.45529839 5 17
5.6811829 1.2646904 -1.6293135 0 1
8.0599184 1.3849473 -1.6356183 0 2
30.220266 6.7273455 0 38 20
10.21217 2.2733352 -1.6276662 0 3
12.827003 2.204082 -1.6566392 2 4
25.149218 6.9036431 0.15157473 5 21
39.220531 6.7393193 -0.23129094 8 19
15.16137 1.8481537 -1.4257622 1 6
49.601452 6.04636 0.58172828 18 22
12.227528 2.1010735 -1.012825 1 7
43.602249 7.4922361 0.77223408 8 23
14.99144 1.8274393 -0.87952715 2 10
29.568886 6.5823412 1.7641706 5 27
43.616074 7.4946117 1.8030071 9 26
36.757236 6.3160477 3.0446589 9 28
8.5985193 2.3603561 -0.36327183 0 13
17.317181 2.1109445 -0.60920566 2 14
36.762302 6.3169188 6.8009496 16 30
5.6968508 1.2473245 -1.6325485 0 1
8.0763063 1.3587583 -1.6379718 0 2
10.193015 2.2317588 -1.6233618 0 3
12.818965 2.1566637 -1.654619 2 4
15.345707 1.8162876 -1.442492 1 6
52.938877 6.2657413 0.62060946 22 22
12.222991 2.056397 -1.0118487 1 7
43.632072 7.340663 0.77230388 8 23
17.254128 2.0421646 -1.0118517 2 10
29.556572 6.471406 1.7620776 5 27
43.618313 7.3383479 1.8020301 9 26
12.45562 2.0955343 -0.66194522 13 11
32.593334 7.1363044 4.0967603 12 29
36.688629 6.1724977 3.0371733 9 28
36.745323 6.1820354 6.7937751 16 30
5.6856794 1.2261741 -1.6282352 0 1
8.0921459 1.3352968 -1.6403252 0 2
10.211566 2.2022271 -1.6252066 0 3
12.825677 2.1163836 -1.654619 2 4
43.798965 7.2273307 -0.25800249 10 19
15.683686 1.8063495 -1.4737213 1 6
52.938435 6.0971198 0.62037665 22 22
43.812763 7.2296076 0.7750963 8 23
8.6227608 2.3056273 -0.57203627 0 9
29.549429 6.372632 1.7604496 5 27
43.783115 7.2247152 1.807892 9 26
12.373797 2.668534 -0.58964241 1 12
31.37756 6.7668872 3.9412546 11 29
36.723576 6.0598102 3.038475 9 28
8.698926 2.3259931 -0.36685404 0 13
17.366541 2.0001702 -0.61046201 27 14
36.768444 6.067214 6.7944922 16 30
5.6936936 1.2071172 -1.6293135 0 1
8.0619078 1.3014137 -1.6332649 0 2
31.437248 6.6649952 0 21 20
10.223059 2.1673856 -1.6258215 0 3
12.85649 2.0753911 -1.6576493 2 4
43.827877 7.0750246 -0.25802574 10 19
9.4656353 2.0068045 -1.0422685 1 5
17.688736 1.9747342 -1.6614684 1 6
53.046848 5.9220409 0.62140101 22 22
9.8250942 2.0830133 -0.70230818 1 8
43.821941 7.0740666 0.77481705 8 23
8.6384773 2.2775471 -0.57254797 0 9
17.295074 1.9307866 -1.0134795 25 10
29.540247 6.2628131 1.7585893 10 27
43.804119 7.0711899 1.807729 9 26
12.324406 2.6128912 -0.58685052 1 12
12.559944 2.0275204 -0.66676015 1 11
31.397112 6.656486 3.9407675 11 29
17.381363 1.9404197 -0.6107412 30 14
37.919884 6.1213126 7.0032778 17 30
5.6905375 1.1846719 -1.627157 0 1
8.0704985 1.2724696 -1.6340494 0 2
32.338654 6.7323508 0 93 20
10.207717 2.1250708 -1.6221319 0 3
12.789539 2.0165172 -1.6480529 2 4
43.825855 6.9099903 -0.25786301 10 19
9.5469036 1.9875008 -1.050408 1 5
17.636457 1.9034821 -1.6558915 1 6
55.454174 5.9851041 0.64933968 25 22
9.8639135 2.0534968 -0.70454037 1 8
43.831768 6.9109225 0.7745378 8 23
8.6429014 2.2448685 -0.57229209 0 9
17.309973 1.868245 -1.0139446 23 10
29.531725 6.1479964 1.7567288 16 27
43.825798 6.9099813 1.8075663 9 26
12.345634 2.5701485 -0.5874089 1 12
12.523888 1.9746321 -0.66445738 1 11
32.560146 6.778461 4.0835986 12 29
17.408232 1.87885 -0.61143917 27 14
32.307217 6.7258062 8.8422937 9 31
26.829268 6.8736157 -0.48343167 11 17
5.7095294 1.1688834 -1.6314702 0 1
8.0785503 1.2462955 -1.6348339 0 2
32.352966 6.6234612 0 15 20
10.21858 2.0919991 -1.6227469 0 3
12.753018 1.9674357 -1.6424971 2 4
43.81295 6.7591186 -0.25765377 10 19
17.642672 1.8449819 -1.6558915 1 6
32.422565 6.6377096 0.77010298 6 24
56.766579 5.9363632 0.66447306 26 22
9.9136696 2.0295761 -0.70760965 1 8
12.545363 1.9354004 -1.036258 1 7
26.911085 6.8945775 0.80848414 3 25
43.83073 6.7618618 0.77411896 8 23
17.331961 1.8124893 -1.0148748 20 10
29.841446 6.1092901 1.7739379 5 27
43.793175 6.7560678 1.8052868 9 26
32.555218 6.6648674 4.0801864 12 29
38.845707 5.9928112 3.2086895 10 28
17.434244 1.8231857 -0.6121372 22 14
32.643517 6.6829443 8.9282227 9 31
38.965088 6.0112286 7.1883864 18 30
5.7213278 1.1494678 -1.6336268 0 1
8.0869417 1.2172631 -1.6356183 0 2
22.838547 2.3037543 -0.26723272 3 18
10.226179 2.0545342 -1.6227469 0 3
12.764066 1.9212736 -1.6430023 2 4
43.833469 6.5979042 -0.25763053 10 19
17.673092 1.782708 -1.6581222 1 6
33.642448 6.7590799 0.79848403 7 24
9.8075914 1.9704362 -0.69951797 1 8
12.670641 1.9072111 -1.0460218 1 7
43.871037 6.603559 0.77439815 8 23
17.370272 1.7521621 -1.0167353 14 10
29.855806 5.9983087 1.7734728 5 27
43.817638 6.5955215 1.8052868 9 26
32.567745 6.5431623 4.0787234 12 29
17.500469 1.7652954 -0.61423111 5 14
32.603394 6.550324 8.9106226 9 31
39.951893 6.0136418 7.3663201 19 30
5.702631 1.1250149 -1.627157 0 1
8.0795002 1.187314 -1.6332649 0 2
33.83585 6.6751361 0 8 20
22.647404 2.2046366 -0.2649045 3 18
10.256556 2.0234129 -1.6264365 0 3
12.770697 1.8767037 -1.6430023 2 4
43.919556 6.4541507 -0.25800249 10 19
17.635607 1.7167575 -1.6540328 1 6
34.077785 6.7228651 0.8082546 7 24
9.7556877 1.9246019 -0.69533253 0 8
12.957273 1.9041218 -1.0691292 1 7
43.945267 6.4579287 0.77530575 8 23
17.423975 1.6961561 -1.019526 8 10
29.845222 5.8878646 1.7716124 5 27
43.864124 6.4460039 1.8062636 9 26
32.567017 6.4248209 4.0757985 12 29
40.106407 5.8937931 3.3092561 11 28
17.745251 1.7274311 -0.62260699 2 14
32.732201 6.457408 8.9396095 9 31
5.721457 1.1090314 -1.6314702 0 1
8.0833931 1.1605166 -1.6332649 0 2
34.654964 6.717423 0 9 20
10.185604 1.9743495 -1.6141382 0 3
12.765067 1.8326553 -1.641487 2 4
27.90963 6.8397765 0.16701117 12 21
45.769932 6.5710983 -0.26874292 10 19
17.641203 1.6582699 -1.6540328 1 6
34.563145 6.699625 0.81923479 7 24
63.284721 5.9487524 0.74000043 36 22
12.229943 2.3706186 -0.87111884 1 8
17.560703 1.650703 -1.0272003 5 10
29.903786 5.7964673 1.7739379 5 27
44.170097 6.3414135 1.8179874 9 26
36.018066 6.9816427 4.5047789 15 29
18.089184 1.7003801 -0.63447285 2 14
33.595501 6.5120597 9.1694412 10 31
5.7063732 1.0854524 -1.6260786 1 1
8.0873947 1.1322911 -1.6332649 0 2
34.784298 6.6165848 0 9 20
12.787105 1.7902831 -1.6435072 2 4
45.784668 6.4101701 -0.26869643 10 19
10.236185 1.9471022 -1.1223772 1 5
17.623083 1.5945222 -1.6518022 1 6
35.006668 6.6588831 0.82919139 7 24
63.305099 5.7277942 0.74000043 36 22
13.352912 1.8694999 -1.1006987 1 7
45.825996 6.415956 0.80769736 9 23
17.677713 1.5994651 -1.0337119 5 10
29.935608 5.6942787 1.7746357 5 27
44.892544 6.2852664 1.8468082 9 26
42.174984 5.9047894 3.4765413 11 28
34.236721 6.5124259 9.338192 10 31
8.0990705 1.1051164 -1.6348339 0 2
35.723366 6.6660953 0 9 20
10.206909 1.9046422 -1.615368 8 3
12.816864 1.7488583 -1.6465378 2 4
10.270285 1.9164683 -1.1253759 1 5
17.628542 1.5330006 -1.6518022 1 6
35.399216 6.605608 0.83793831 8 24
63.814823 5.5494189 0.74572784 37 22
12.246195 2.2851796 -0.87111884 8 8
13.683267 1.8670788 -1.1273862 1 7
18.331638 1.5941429 -1.0716186 3 10
29.994555 5.5970807 1.7769611 5 27
45.825005 6.2528119 1.8842587 10 26
43.214474 5.8966055 3.5605097 11 28
34.620068 6.4602165 9.4365435 10 31
5.7289677 1.0483614 -1.6303918 1 1
8.087327 1.0747695 -1.631696 0 2
35.87233 6.5643883 0 10 20
23.273531 1.9420598 -0.27188915 3 18
10.205721 1.8675765 -1.6141382 6 3
12.807158 1.7020139 -1.6445173 2 4
29.019615 6.7904582 0.17321828 12 21
46.438923 6.171525 -0.27227655 11 19
10.273001 1.8798882 -1.1249475 1 5
35.79575 6.550375 0.84677833 8 24
63.917511 5.3335967 0.74670571 37 22
13.90706 1.848186 -1.1452863 1 7
19.105118 1.5942265 -1.1165018 3 10
30.009983 5.4916196 1.7767286 5 27
46.734009 6.2107406 1.9207325 10 26
35.241745 6.4489956 4.3989959 14 29
47.072178 6.2556815 3.8765292 12 28
22.288902 1.8598974 -0.78105074 142 14
48.167473 6.4012413 8.8593864 29 30
5.7363839 1.0290385 -1.6314702 0 1
8.0793581 1.0450251 -1.6293426 0 2
36.060383 6.4688015 0 10 20
70.681763 5.649682 -0.8254925 30 18
10.23941 1.8368276 -1.6184427 1 3
12.793344 1.6547558 -1.6419921 2 4
29.799334 6.8632894 0.17772834 6 21
10.792301 1.9360095 -1.1810664 1 5
10.34191 0.82664192 -0.96847725 0 6
36.058498 6.4684629 0.85245448 8 24
67.089462 5.3625455 0.7835381 42 22
12.27756 2.2024474 -0.87223494 36 8
14.304853 1.850262 -1.1775068 1 7
20.149485 1.6105738 -1.177199 3 10
30.072205 5.3945932 1.7792867 5 27
47.849373 6.1890802 1.9656733 10 26
48.165207 6.2299314 3.9647281 12 28
36.01059 6.4598684 9.803031 11 31
48.259766 6.2421622 8.8723011 29 30
5.7321763 1.0086763 -1.6293135 0 1
8.074996 1.0172483 -1.6277736 0 2
43.598148 7.6718535 0 14 20
70.692131 5.4146643 -0.82539946 30 18
10.241551 1.8021793 -1.6178277 0 3
12.818445 1.6148047 -1.6445173 2 4
49.531681 6.2397575 -0.29015401 50 19
10.837829 1.9071047 -1.1853503 1 5
14.749968 1.8581283 -1.2136326 1 7
49.556717 6.2429113 0.8718524 11 23
10.571072 0.80969137 -0.61743647 1 10
48.880795 6.1577625 2.0071948 11 26
50.234539 6.3283 4.1333156 15 28
12.301056 2.7902203 -0.51388878 1 13
36.130745 6.3578339 9.8299484 11 31
50.306515 6.3373671 9.2446709 30 30
5.7206511 0.98504418 -1.6250004 0 1
8.0786705 0.98764324 -1.6277736 0 2
67.432426 4.9164371 -0.78712356 30 18
10.224717 1.7606035 -1.6141382 0 3
12.843972 1.5702165 -1.6470428 2 4
12.381118 2.131916 -1.3532784 1 5
43.637817 7.5140357 1.0303711 11 24
15.069304 1.8422704 -1.2393438 2 7
52.913929 6.4688964 0.93049252 14 23
10.358906 0.75525844 -0.60487843 2 10
30.963095 5.3315635 1.8297515 6 27
12.47469 2.1480284 -0.58964241 1 12
50.281136 6.1470294 4.1352682 15 28
12.334605 2.7503319 -0.51486576 1 13
36.763031 6.3302603 9.9955921 12 31
52.35664 6.4007664 9.6170406 30 30
5.7086935 0.96350247 -1.6206871 0 1
8.1013765 0.96316111 -1.631696 0 2
43.603321 7.3592854 0 29 20
72.328232 5.0322981 -0.84407169 30 18
10.234398 1.7273422 -1.6147531 0 3
12.790004 1.5205854 -1.6394666 2 4
31.42729 6.8982315 0.18700415 7 21
52.922398 6.2918682 -0.30975178 15 19
12.403807 2.0934908 -1.3549919 1 5
10.405498 0.72397137 -0.97368217 0 6
43.662498 7.3692737 1.0303711 11 24
12.315328 2.0785575 -0.87335104 1 8
15.494969 1.8421749 -1.2738423 2 7
31.500435 6.9142866 0.93857694 5 25
52.927147 6.2924333 0.93035287 14 23
10.452975 0.7272746 -0.61022717 2 10
31.453114 5.3085971 1.8576581 6 27
49.43853 5.8776765 2.0283625 11 26
12.505386 2.1106353 -0.59075916 1 12
17.322071 2.0593963 -0.91420454 26 11
36.693584 6.1930733 4.5691257 15 29
51.239494 6.0917907 4.2124019 18 28
12.331948 2.7068396 -0.51437724 1 13
36.780014 6.2076612 9.9945564 12 31
52.428383 6.2331357 9.6263685 30 30
12.607696 2.7212741 -0.22513604 1 17
5.742425 0.94859308 -1.6293135 0 1
8.0774136 0.93173152 -1.6262047 0 2
43.612953 7.2044382 0 43 20
72.081947 4.7624068 -0.84099847 30 18
10.240364 1.6916091 -1.6147531 0 3
12.822827 1.4791162 -1.6430023 2 4
52.928143 6.1052737 -0.3096588 15 19
12.430657 2.0534244 -1.357134 1 5
10.388091 0.68633431 -0.97182322 0 6
43.715572 7.2213898 1.0310224 11 24
12.322507 2.0355589 -0.87335104 1 8
17.790461 2.0521338 -1.461957 2 7
52.960705 6.1090298 0.93056232 14 23
9.8368244 2.123203 -0.64494789 1 9
10.447482 0.69025826 -0.60976213 2 10
31.995447 5.2853389 1.8885881 6 27
49.426983 5.7014141 2.0270598 11 26
12.520559 2.0682755 -0.59113139 1 12
17.329153 1.998922 -0.91420454 26 11
36.773731 6.0746651 4.576438 15 29
52.397102 6.0440178 4.3058081 21 28
12.310068 2.6570334 -0.51307464 1 13
36.778584 6.0754666 9.9883451 12 31
12.640593 2.6822262 -0.2255549 1 17
5.7380967 0.92731196 -1.627157 0 1
8.0884123 0.90439993 -1.6277736 0 2
43.657585 7.055336 0 14 20
79.263641 4.9590483 -0.92458147 30 18
10.226698 1.6526976 -1.6116785 0 3
12.808195 1.432139 -1.6404768 2 4
31.549026 6.6944346 0.18744586 7 21
12.465233 2.0144587 -1.3601327 1 5
10.302976 0.64459509 -0.96364415 0 6
43.823418 7.0821352 1.0329765 11 24
17.761858 1.9860293 -1.4590279 2 7
9.8519859 2.0905075 -0.64545953 1 9
10.529537 0.65876973 -0.61441326 4 10
32.620789 5.2717214 1.9244018 7 27
49.422752 5.5261693 2.026083 11 26
17.351906 1.9401907 -0.91504198 59 11
36.77512 5.9430866 4.5740004 15 29
54.153255 6.0551071 4.4483585 27 28
12.346636 2.6198509 -0.51421446 1 13
36.85297 5.955668 10.002839 12 31
54.62936 6.1083422 10.022414 30 30
5.7336888 0.90607816 -1.6250004 0 1
8.075922 0.87447733 -1.6246358 0 2
43.847881 6.929153 0 14 20
81.791916 4.8307204 -0.95387042 30 18
10.251924 1.6200817 -1.6147531 0 3
12.801282 1.3861489 -1.6389616 2 4
55.458885 6.0052009 -0.32421184 36 19
12.495757 1.974668 -1.362703 1 5
10.336969 0.61051279 -0.96661836 0 6
43.836018 6.927278 1.0326973 11 24
17.7885 1.9261751 -1.4606552 2 7
10.475964 0.6187219 -0.61115742 1 10
33.108356 5.232017 1.9520758 7 27
49.429821 5.3523617 2.0255945 11 26
17.35063 1.8787616 -0.91462332 45 11
37.925034 5.9931827 4.7143941 16 29
54.455479 5.8965502 4.4714661 28 28
37.930656 5.994071 10.28961 12 31
5.7444301 0.8872326 -1.627157 1 1
8.0672216 0.84505355 -1.6222824 0 2
43.812504 6.7668819 0 14 20
10.218454 1.5782499 -1.6086041 0 3
12.778418 1.3385583 -1.635426 2 4
56.728649 5.9424109 -0.33151159 58 19
12.545808 1.9377117 -1.3674152 1 5
10.339037 0.57442331 -0.96661836 0 6
43.840168 6.7711549 1.032232 11 24
17.838728 1.8686335 -1.4642351 2 7
32.753311 6.7113805 0.9730202 5 25
56.824387 5.9524393 0.99730027 19 23
10.442176 0.58015358 -0.60906446 1 10
54.369171 5.6952519 2.2271769 20 26
17.380917 1.8206772 -0.91587931 38 11
37.953568 5.8619642 4.7153687 16 29
54.681911 5.7280121 4.48839 28 28
38.039173 5.875186 10.313422 12 31
5.7511497 0.8687523 -1.6282352 1 1
8.0660791 0.81789917 -1.6214979 0 2
43.810974 6.6179614 0 14 20
10.247082 1.5478951 -1.6122936 0 3
12.782787 1.2961726 -1.635426 2 4
33.647446 6.7783999 0.19948813 9 21
12.532502 1.8931241 -1.3652732 1 5
10.396567 0.54304028 -0.97182322 0 6
43.826797 6.6203518 1.0313946 11 24
17.73377 1.7982016 -1.4551224 2 7
33.108555 6.6698384 0.98291099 5 25
10.495885 0.54822791 -0.61208767 1 10
54.351978 5.5112824 2.2257116 19 26
17.418655 1.7662491 -0.91755408 30 11
38.616611 5.8333158 4.7953157 17 29
54.724411 5.549047 4.4903431 29 28
5.738904 0.84642756 -1.623922 1 1
8.0688839 0.78974384 -1.6214979 0 2
43.833809 6.4650221 0 14 20
10.690587 0.52099282 -0.12460616 0 18
10.228961 1.5086633 -1.6086041 0 3
12.775386 1.2503937 -1.6339109 2 4
33.973034 6.7207007 0.20127819 9 21
12.62559 1.8621408 -1.3746978 1 5
10.374532 0.5055902 -0.96959257 0 6
43.865463 6.4696908 1.0317668 11 24
17.680422 1.7304752 -1.4502405 2 7
10.362124 0.50498557 -0.60418075 1 10
54.358948 5.3203945 2.2252231 19 26
17.476395 1.7105061 -0.92027557 11 11
54.38237 5.3226867 4.4607263 27 28
40.004745 5.9002762 10.835201 16 31
5.7303858 0.82474208 -1.6206871 1 1
8.0676861 0.76120275 -1.6207134 0 2
43.935291 6.3233585 0 14 20
10.556489 0.4775244 -0.12302298 0 18
10.245902 1.4746349 -1.6104488 0 3
12.791524 1.2069066 -1.635426 2 4
34.726639 6.743896 0.20560229 10 21
63.273914 5.9700236 -0.36938202 23 19
12.903629 1.8571465 -1.4042566 1 5
10.324511 0.46703082 -0.96475947 0 6
43.970901 6.3284836 1.0337209 11 24
114.52312 5.1804709 1.3346269 63 22
17.710171 1.6709909 -1.4521933 2 7
63.301178 5.9725962 1.1098335 26 23
12.222121 2.3735301 -0.79793435 1 9
10.363824 0.46880916 -0.60418075 1 10
54.301586 5.1234665 2.2221291 19 26
17.605539 1.6611189 -0.92676514 4 11
54.301392 5.1234479 4.45259 27 28
5.737185 0.80426973 -1.6217654 1 1
8.0587044 0.73056751 -1.61836 0 2
44.112663 6.1839523 0 14 20
10.558169 0.43883198 -0.12302298 0 18
10.266894 1.4392689 -1.6129084 0 3
12.764247 1.1571518 -1.6313856 2 4
34.833633 6.6322889 0.20609048 10 21
63.347157 5.7427812 -0.36968422 23 19
13.075766 1.8330318 -1.422249 1 5
10.34605 0.43001562 -0.96661836 0 6
111.93178 4.6522503 1.3042204 63 22
17.831318 1.6165106 -1.4616315 2 7
63.52578 5.7589746 1.1133937 26 23
10.321586 0.4289988 -0.60162264 1 10
54.387665 4.9305525 2.2248974 19 26
17.786552 1.6124525 -0.93597633 4 11
54.327747 4.9251204 4.4532409 27 28
63.888458 5.7918534 11.696284 38 30
22.377695 1.9499298 -0.65372247 2 15
5.7552233 0.78632247 -1.6260786 1 1
8.0612049 0.70243084 -1.61836 0 2
45.778702 6.2546353 0 15 20
10.220947 1.3964638 -1.6049145 0 3
12.780066 1.1136193 -1.6329007 2 4
35.812035 6.6891117 0.21173966 10 21
14.764629 2.0172563 -1.6051707 2 5
10.359427 0.39435038 -0.96773374 0 6
45.837627 6.2626863 1.0765251 11 24
111.76347 4.2544789 1.3020785 63 22
12.234868 2.2852764 -0.79767847 11 9
10.394845 0.39569861 -0.60580862 1 10
56.427197 4.9169083 2.3076146 23 26
17.959208 1.5649152 -0.94476873 2 11
56.94606 4.9621205 4.6664157 35 28
64.684494 5.636426 11.838345 40 30
22.41193 1.8780431 -0.65453702 2 15
8.0634899 0.67569286 -1.61836 0 2
10.233357 1.3636035 -1.6061444 0 3
10.415168 0.87275547 -1.3303621 1 4
35.952049 6.591949 0.21243709 10 21
14.723932 1.9619763 -1.6000301 2 5
10.332816 0.35902417 -0.96513128 0 6
114.72298 3.9861662 1.3363965 63 22
20.169975 1.6901748 -1.6523498 2 7
36.035759 6.6072979 1.0662262 6 25
64.583771 5.4118991 1.1312649 55 23
10.34821 0.35955906 -0.60301799 1 10
57.179996 4.7914877 2.3377378 25 26
19.015169 1.5934061 -1.0000356 2 11
57.164822 4.7902164 4.6830139 36 28
66.098846 5.538857 12.093766 42 30
5.7488518 0.7466467 -1.6228437 1 1
8.0735054 0.6495803 -1.619929 1 2
46.334843 6.0178547 0 15 20
10.233903 1.3291539 -1.6055294 0 3
10.366587 0.83407772 -1.323796 1 4
36.123306 6.4996161 0.21332049 10 21
14.722468 1.9121178 -1.5991733 2 5
10.345892 0.32513472 -0.96624666 0 6
45.838501 5.9533911 1.0755947 23 24
14.185925 1.8424327 -1.0003079 1 8
36.183395 6.510428 1.0699499 6 25
64.601364 5.1977143 1.1312649 27 23
12.328331 2.2182193 -0.80279511 5 9
10.349346 0.32524326 -0.60301799 1 10
59.968304 4.8249464 2.451067 30 26
20.242714 1.6286939 -1.0643041 2 11
67.568146 5.4364166 5.5337605 52 28
67.650528 5.4430451 12.3743 45 30
5.7515507 0.72556955 -1.6228437 1 1
8.0640993 0.61908227 -1.6175755 0 2
46.392311 5.8524823 0 15 20
10.363305 0.28766254 -0.12069475 0 18
10.234786 1.2911386 -1.6049145 0 3
10.298361 0.79060698 -1.3147048 1 4
43.600014 7.6800098 0.25730506 17 21
14.709651 1.8556519 -1.5970314 2 5
10.354977 0.28743133 -0.96699011 0 6
49.537865 6.2493005 1.1618544 12 24
14.55284 1.8358698 -1.0256991 1 8
43.641361 7.6872935 1.2896415 9 25
12.379622 2.1806328 -0.80560923 16 9
10.362445 0.28763863 -0.60371566 1 10
60.00153 4.606328 2.4517183 30 26
22.347483 1.7156202 -1.1746283 3 11
69.583099 5.3419065 5.6971407 54 28
5.7464013 0.70455211 -1.6206871 1 1
8.0583878 0.59035808 -1.6160066 0 2
46.448185 5.6948977 0 15 20
10.23923 1.2554067 -1.6049145 0 3
10.269399 0.75233692 -1.3106642 1 4
43.626556 7.5277801 0.25730506 51 21
72.157402 5.2862573 -0.42050362 26 19
14.676564 1.7994574 -1.5927474 2 5
10.324064 0.25051323 -0.96401596 0 6
49.587162 6.0797596 1.1625057 12 24
14.982944 1.8370219 -1.055555 1 8
10.41336 0.76288354 -0.85237432 1 7
43.644291 7.5308404 1.2889434 9 25
86.379318 6.3281555 1.5117972 79 23
10.319471 0.25040177 -0.60115749 1 10
71.110275 5.2095442 2.9048717 38 26
70.969093 5.1992011 5.8090982 55 28
10.678346 0.25910985 -0.37300584 1 14
48.5816 5.9564705 13.114879 31 31
5.760181 0.68685919 -1.623922 1 1
8.0720396 0.56445098 -1.61836 0 2
52.917122 6.3099775 0 26 20
10.365024 0.2171149 -0.12069475 0 18
10.243337 1.2214426 -1.6049145 0 3
10.279754 0.7188291 -1.3116744 1 4
43.600006 7.3743834 0.25700283 34 21
10.324839 0.21627316 -0.96401596 0 6
52.938538 6.3125315 1.2405767 23 24
15.19895 1.812363 -1.0703434 1 8
10.415833 0.72834462 -0.85237432 1 7
43.613834 7.3767219 1.2873143 9 25
86.308067 6.0352373 1.5101917 39 23
12.35482 2.0896597 -0.80305094 1 9
10.3442 0.21667872 -0.60255283 1 10
51.217762 6.1073413 3.0039272 20 27
17.342205 2.0679305 -0.81355017 26 12
50.326847 6.0011067 6.2231369 30 29
72.568802 5.0744958 5.9386311 56 28
10.587223 0.2217693 -0.36979508 1 14
5.7586002 0.66731447 -1.6228437 1 1
8.0621262 0.53690356 -1.6160066 0 2
52.898018 6.1298947 0 26 20
10.421674 0.18373615 -0.12134666 0 18
10.235551 1.1861097 -1.6030698 0 3
10.286039 0.6850068 -1.3121794 1 4
43.624218 7.2297893 0.25700283 17 21
14.668421 1.6997967 -1.5906055 7 5
10.321515 0.18197034 -0.96364415 0 6
52.923428 6.1328392 1.2397393 23 24
15.712234 1.820755 -1.1060587 3 8
10.382389 0.69142324 -0.84944516 1 7
43.783997 7.256269 1.2916197 9 25
78.222801 5.2093081 1.3684083 42 23
12.361681 2.0486865 -0.80305094 2 9
10.340869 0.18231155 -0.60232031 1 10
75.422234 5.0228024 3.0795875 41 26
17.337059 2.009042 -0.8129918 33 12
51.265373 5.9407015 6.336719 30 29
75.385681 5.0203681 6.1677527 59 28
10.723796 0.18906263 -0.3745414 1 14
5.7685504 0.64806771 -1.6250004 1 1
8.0796089 0.50974387 -1.6191446 0 2
52.942944 5.9478741 0 26 20
10.542233 0.14905012 -0.12274359 0 18
10.251413 1.1516949 -1.6049145 0 3
43.822926 7.1056271 0.25802574 17 21
81.799988 5.1607752 -0.47636774 30 19
14.686122 1.6499121 -1.5918906 2 5
10.326072 0.14599395 -0.96401596 0 6
52.996174 5.9538541 1.2409489 23 24
10.412591 0.65693212 -0.85172337 1 7
43.832745 7.1072192 1.292318 9 25
78.228531 4.935451 1.3681989 42 23
12.380578 2.0074372 -0.80381846 1 9
10.349427 0.14632417 -0.60278541 1 10
53.488312 6.0091438 3.1346238 26 27
78.287285 4.939158 3.1958475 43 26
52.453629 5.8929019 6.4810123 30 29
78.23568 4.9359021 6.3994789 62 28
10.500549 0.14846079 -0.36672392 1 14
5.7633371 0.62508118 -1.6228437 1 1
8.0815067 0.47871464 -1.6191446 0 2
55.403099 6.0089207 0 65 20
10.490732 0.10803178 -0.12213825 0 18
10.232183 1.1097642 -1.6012251 0 3
10.294747 0.6098178 -1.3126845 3 4
43.818279 6.9322953 0.25783977 17 21
81.787262 4.8447356 -0.47618178 30 19
14.684442 1.5926481 -1.5910339 2 5
10.286732 0.10593101 -0.96029818 0 6
17.300053 1.8763328 -1.2168319 21 8
10.379219 0.61482149 -0.84879422 1 7
43.847862 6.936976 1.2919688 9 25
79.616302 4.7161369 1.3921436 44 23
10.341928 0.10649942 -0.60232031 1 10
54.364529 5.8962793 3.1846232 29 27
79.566414 4.713182 3.2473016 44 26
17.35132 1.881893 -0.8129918 70 12
13.848525 2.146343 -0.24461293 1 17
10.435177 0.58524621 -0.30417061 1 15
5.7691031 0.60737652 -1.623922 1 1
8.0908022 0.45376435 -1.6207134 0 2
55.445568 5.8373604 0 32 20
10.447025 0.074760906 -0.12162605 0 18
10.239549 1.0780292 -1.6018399 0 3
10.276802 0.57636392 -1.3101591 3 4
43.812172 6.7903218 0.25767702 17 21
114.66986 6.4311419 -0.66750997 30 19
14.709148 1.5485927 -1.5931758 2 5
10.322856 0.07387232 -0.96364415 0 6
17.313801 1.8228129 -1.2173901 21 8
10.337314 0.57975763 -0.84521419 1 7
43.829926 6.7930737 1.2908052 9 25
111.79527 6.2699232 1.9544601 44 23
10.342212 0.074010834 -0.60232031 1 10
82.350174 4.618525 3.3603048 43 26
17.377016 1.8294683 -0.81392241 90 12
55.999634 5.8956933 6.9138923 30 29
5.7673564 0.58684337 -1.6228437 1 1
8.0962553 0.42572325 -1.6214979 0 2
56.735058 5.7729383 0 35 20
10.427223 0.038217433 -0.12139322 0 18
10.211794 1.0390763 -1.5969207 0 3
10.294602 0.54131836 -1.3121794 5 4
43.851425 6.6397309 0.25777 17 21
114.51187 6.0213475 -0.66646379 30 19
14.714465 1.4972348 -1.5931758 2 5
10.311104 0.037791837 -0.96252888 0 6
17.363724 1.7668037 -1.2204592 19 8
10.363162 0.54492342 -0.84716696 1 7
43.873138 6.6430187 1.291387 9 25
104.55163 5.4976106 1.8274764 44 23
10.33442 0.037877291 -0.60185516 1 10
54.398472 5.5351849 3.1843908 59 27
17.415098 1.7720312 -0.81541139 71 12
56.746635 5.7741165 7.0035882 30 29
5.7770367 0.56746233 -1.6250004 1 1
8.0898561 0.39707667 -1.619929 0 2
58.056595 5.7027388 0 39 20
10.431293 0.0018224374 -0.12143978 0 18
10.246826 1.0065174 -1.6018399 0 3
10.292466 0.50518799 -1.3116744 3 4
43.905991 6.4913106 0.257956 17 21
10.299224 0.0017993639 -0.96141356 0 6
17.421412 1.7112571 -1.2240865 12 8
10.349073 0.50796646 -0.84586513 1 7
43.927708 6.4945211 1.292318 9 25
111.81634 5.4883127 1.954111 44 23
10.330496 0.0018048272 -0.60162264 1 10
54.389641 5.3425441 3.1827629 58 27
17.456966 1.7147496 -0.81708658 22 12
10.568713 0.47807831 -0.30789423 1 15
5.7791724 0.5452773 -1.6250004 1 1
8.103075 0.36654457 -1.6222824 0 2
63.263035 5.9690022 0 47 20
10.459221 -0.038331047 -0.12176573 0 18
10.219135 0.96419728 -1.5969207 0 3
10.282436 0.46512851 -1.3101591 2 4
45.815136 6.5939183 0.26902187 19 21
114.46503 5.1778531 -0.66595238 60 19
14.673572 1.3844829 -1.5876068 2 5
10.303138 -0.037759032 -0.96178532 0 6
17.531139 1.6541005 -1.2313412 6 8
10.342981 0.46786729 -0.84521419 1 7
45.808395 6.592948 1.3468918 10 25
111.7447 5.0547986 1.9525055 44 23
10.306467 -0.037771232 -0.6002273 1 10
54.330242 5.1261744 3.1781116 29 27
5.7731853 0.52641761 -1.6228437 1 1
8.104187 0.34108388 -1.6222824 0 2
63.245625 5.7669396 0 47 20
10.439051 -0.071056373 -0.12153292 0 18
10.214241 0.93136734 -1.5956908 0 3
10.279883 0.43265322 -1.3096541 2 4
45.772259 6.4410229 0.26864994 19 21
111.88706 4.7090316 -0.65086466 90 19
14.697653 1.3401792 -1.5897487 2 5
10.330847 -0.070319846 -0.96438771 0 6
10.312535 0.43402743 -0.8426106 1 7
45.789291 6.4434199 1.3457282 10 25
111.76402 4.7038531 1.9525752 44 23
10.330257 -0.070315838 -0.60162264 1 10
54.322216 4.9532747 3.1767163 29 27
17.81072 1.6240387 -0.83309329 1 12
5.7789135 0.50559133 -1.623922 1 1
8.1093025 0.31153059 -1.6230668 0 2
10.209712 0.89323747 -1.5944611 0 3
10.27347 0.39467022 -1.3086439 3 4
111.7317 4.292335 -0.64986497 60 19
14.646999 1.2814512 -1.5837513 2 5
10.310608 -0.10797299 -0.96252888 0 6
63.818882 5.5834498 1.490702 41 24
18.289309 1.6001133 -1.2837982 4 8
10.302106 0.39577031 -0.84163421 1 7
10.305971 -0.10792445 -0.6002273 1 10
18.724098 1.6381524 -0.87552959 2 12
63.008331 5.5125356 7.7660027 36 29
14.852859 2.0345938 -0.61077207 1 13
10.397092 -0.10887866 -0.36309436 1 14
22.480024 1.9667547 -0.52509558 2 16
5.7921581 0.48638144 -1.627157 1 1
8.1103401 0.28321984 -1.6230668 0 2
63.85128 5.3617458 0 3 20
10.193074 0.85593694 -1.5913866 0 3
10.270821 0.35866559 -1.3081388 3 4
114.75212 4.0072393 -0.66734725 30 19
14.663273 1.2313102 -1.5850365 2 5
10.318131 -0.14407703 -0.96327239 0 6
63.885803 5.3646445 1.4918188 41 24
18.911102 1.5880107 -1.3270471 2 8
10.315377 0.36022153 -0.8426106 1 7
45.830257 6.1150651 1.3456117 32 25
10.337476 -0.14434715 -0.6020878 1 10
57.125816 4.7969923 3.3385754 37 27
18.857113 1.5834773 -0.88148558 2 12
64.055817 5.378921 7.8927464 38 29
14.820254 1.9774451 -0.60914379 1 13
5.7783813 0.4659341 -1.6228437 1 1
8.1112347 0.25632507 -1.6230668 0 2
10.191917 0.82181519 -1.5907717 0 3
10.287816 0.32510772 -1.3101591 3 4
49.514164 6.439568 0.2902005 22 21
111.63039 3.5276585 -0.64912105 30 19
10.317596 -0.17829029 -0.96327239 0 6
65.975952 5.3199058 1.540206 40 24
20.01799 1.614131 -1.4043374 2 8
10.324484 0.32626647 -0.84326142 2 7
45.8265 5.9599681 1.3449136 21 25
14.365301 1.8682802 -0.92840773 2 9
10.344925 -0.17876254 -0.60255283 1 10
59.899765 4.8299589 3.4997368 45 27
20.216394 1.630129 -0.94476795 2 12
64.730217 5.2194571 7.9736681 39 29
5.7800503 0.44475064 -1.6228437 2 1
8.1278038 0.22703016 -1.6262047 0 2
10.202744 0.78505838 -1.5920016 0 3
10.281006 0.28717455 -1.3091489 3 4
10.316875 -0.21610759 -0.96327239 0 6
86.345329 6.6439114 2.0151463 30 24
10.507208 0.80848563 -0.73690736 1 8
49.545078 6.2589989 1.4533631 12 25
14.768085 1.865643 -0.9539907 2 9
10.360169 -0.21701449 -0.60348308 1 10
62.716038 4.8257365 3.6632237 48 27
11.979561 0.92177707 -0.55967635 1 12
66.292725 5.1009474 8.163785 41 29
11.008052 0.26903337 -0.32046133 1 15
5.7738838 0.42400882 -1.6206871 2 1
8.1403103 0.19894667 -1.6285582 0 2
10.205421 0.74944156 -1.5920016 0 3
10.281946 0.25128758 -1.3091489 3 4
49.562946 6.0855751 0.29022375 22 21
10.324315 0.75817263 -1.1150945 1 5
10.351892 -0.25299251 -0.96661836 0 6
10.521905 0.77268273 -0.73774445 1 8
10.314598 0.25208557 -0.84228504 2 7
52.951752 6.5016689 1.5526199 18 25
15.115245 1.855922 -0.97599214 2 9
10.355357 -0.25307721 -0.6032505 1 10
62.784271 4.6106029 3.6662469 48 27
69.588608 5.1102834 8.5674152 47 29
17.382929 2.1343591 -0.71351731 2 13
11.004844 0.23436098 -0.32034495 1 15
5.7828727 0.40640596 -1.6228437 1 1
8.1291304 0.17311931 -1.6262047 0 2
10.188011 0.71598822 -1.5889269 0 3
10.286652 0.21906625 -1.3096541 3 4
52.937847 6.3311949 0.30986801 25 21
10.326647 0.72573113 -1.1150945 1 5
10.331139 -0.28496647 -0.96475947 0 6
72.42971 5.0901804 1.6895554 71 24
10.496418 0.73766226 -0.73579127 1 8
10.315338 0.21967717 -0.84228504 2 7
52.91634 6.3286223 1.5509909 18 25
15.755171 1.8842673 -1.016925 2 9
10.35451 -0.28561112 -0.6032505 1 10
72.486099 5.0941434 4.2318234 57 27
10.351443 0.22044607 -0.54261923 1 11
70.974625 4.9879208 8.736083 49 29
10.977647 0.19353375 -0.31953043 1 15
5.7996969 0.38623303 -1.627157 1 1
8.1571627 0.14380917 -1.631696 0 2
76.7061 5.1082721 0 60 20
10.170849 0.67733157 -1.5858524 0 3
10.283419 0.18129463 -1.3091489 3 4
52.936863 6.1343746 0.30972853 25 21
10.309396 0.68655813 -1.1129526 2 5
10.357891 -0.32369876 -0.96736199 0 6
75.32872 5.0165448 1.7567394 66 24
10.308104 0.18172982 -0.84163421 2 7
52.895493 6.129581 1.549711 18 25
10.405281 -0.32517976 -0.60627377 1 10
73.851013 4.9181366 4.3104277 58 27
10.352183 0.18250695 -0.54261923 1 11
73.860489 4.9187675 9.089016 54 29
17.365294 2.0123072 -0.71221465 19 13
5.8009462 0.36699682 -1.627157 1 1
8.1615162 0.1168121 -1.6324805 0 2
76.742577 4.8551188 0 60 20
10.161206 0.64284867 -1.5840077 0 3
10.276028 0.14707617 -1.3081388 3 4
52.909214 5.9534144 0.30944955 25 21
10.33686 -0.35735974 -0.96550304 0 6
78.206444 4.9477301 1.823458 62 24
10.46149 0.66184604 -0.73300099 2 8
10.324594 0.14777127 -0.84293604 2 7
52.998966 5.9635134 1.5521545 18 25
17.263416 1.9425024 -1.1133729 27 9
10.368228 -0.35844421 -0.60418075 1 10
75.361397 4.7677383 4.3976359 59 27
10.34075 0.14800249 -0.54199123 1 11
75.461304 4.7740593 9.2840071 57 29
17.332155 1.9502368 -0.71058637 47 13
5.8022518 0.34573412 -1.627157 1 1
8.1658115 0.086941458 -1.6332649 1 2
10.155602 0.60513365 -1.5827779 0 3
10.276498 0.10941396 -1.3081388 3 4
55.435844 6.0320549 0.32409558 27 21
10.286148 0.61291248 -1.1099539 3 5
10.359359 -0.39615473 -0.96773374 0 6
78.220055 4.6608357 1.823365 31 24
10.404097 0.61994058 -0.72881567 1 8
10.32108 0.10988862 -0.8426106 2 7
17.29423 1.8818103 -1.114908 27 9
10.366844 -0.39644098 -0.60418075 1 10
78.308189 4.6660872 4.5685644 62 27
10.305273 0.10972033 -0.54010713 1 11
78.351578 4.6686726 9.6374283 62 29
17.351105 1.8879989 -0.71107483 71 13
5.7957315 0.32504544 -1.6250004 1 1
8.1778316 0.058518939 -1.6356183 0 2
81.779488 4.5864873 0 61 20
10.161598 0.5698989 -1.5833927 0 3
10.272849 0.073510461 -1.3076339 3 4
55.432697 5.8359838 0.3239561 27 21
10.823541 0.077451102 -0.062908158 0 19
10.31602 0.5785594 -1.1129526 9 5
10.349954 -0.43198374 -0.96699011 0 6
10.402212 0.58339339 -0.72853661 1 8
10.329372 0.073914938 -0.84326142 2 7
56.762123 5.9759464 1.6610695 25 25
17.324514 1.823934 -1.1164429 24 9
10.397315 -0.43396053 -0.60604119 1 10
10.333553 0.073944852 -0.54157251 1 11
17.425161 1.8345302 -0.71384299 64 13
10.600469 0.59451234 -0.24705456 0 16
5.8006244 0.3060284 -1.6260786 1 1
8.1819038 0.031416632 -1.6364028 0 2
114.41289 6.0361767 0 63 20
10.163433 0.53620076 -1.5833927 1 3
10.2651 0.039415631 -1.3066236 3 4
56.645538 5.7738233 0.33093038 28 21
10.823738 0.041560672 -0.062908158 0 19
10.317883 0.54434913 -1.1129526 9 5
10.364378 -0.4670181 -0.96847725 0 6
10.380182 0.54763597 -0.72686243 1 8
10.321589 0.039632533 -0.8426106 2 7
17.366207 1.7701203 -1.1187453 21 9
10.423743 -0.46969309 -0.60766912 1 10
10.317764 0.039617851 -0.54073519 1 11
17.407291 1.774308 -0.71286595 45 13
5.8132491 0.28533378 -1.6293135 1 1
8.2054968 0.0014341827 -1.6411096 1 2
114.43026 5.6166215 0 63 20
10.165331 0.49894857 -1.5833927 0 3
10.269144 0.0017948735 -1.3071287 3 4
59.289658 5.8238645 0.34625059 30 21
10.311865 0.50614095 -1.1120958 9 5
10.33873 -0.50383693 -0.96624666 0 6
10.406033 0.51076299 -0.72853661 1 8
10.27781 0.0017963882 -0.8390305 3 7
17.440115 1.7130959 -1.1230946 9 9
10.313846 0.0018026866 -0.54052579 1 11
17.445499 1.7136246 -0.71416861 11 13
5.8064675 0.26570106 -1.627157 1 1
8.1936893 -0.025741566 -1.6387562 0 2
10.174826 0.46559492 -1.5846225 0 3
10.261158 -0.032236792 -1.3061186 3 4
63.262817 6.0023761 0.36933553 30 21
11.02376 -0.034632608 -0.064070538 1 19
10.297594 0.47121274 -1.1103822 3 5
10.317116 -0.53708625 -0.96438771 0 6
10.347878 0.47351372 -0.72435123 1 8
10.281747 -0.032301474 -0.83935601 6 7
17.568892 1.6669364 -1.1310252 9 9
10.488004 -0.5459823 -0.61162257 2 10
5.8227539 0.24608289 -1.6314702 1 1
8.20924 -0.054445043 -1.6418941 0 2
114.47382 4.837925 0 63 20
10.164541 0.42957672 -1.5827779 0 3
10.268918 -0.068105176 -1.3071287 3 4
63.255497 5.7789764 0.36917278 30 21
11.223564 -0.074436545 -0.065232925 1 19
10.303149 0.43543464 -1.1108108 1 5
10.259506 -0.57000118 -0.95918286 0 6
10.329534 0.43654972 -0.72295606 1 8
63.018761 5.7573485 1.8416635 30 25
107.81721 -0.71506166 1.8819977 44 23
10.45015 -0.58059305 -0.6095295 4 10
10.357558 -0.068693049 -0.54282862 1 11
18.324421 1.674106 -0.74966532 2 13
22.617453 1.9867244 -0.39630923 3 17
5.8158793 0.22545619 -1.6293135 1 1
8.2050762 -0.083062783 -1.6411096 0 2
111.66814 4.3288856 0 3 20
10.16993 0.39424369 -1.5833927 0 3
10.260683 -0.10387238 -1.3061186 3 4
10.272815 0.3982321 -1.1073835 1 5
10.356848 -0.61168307 -0.96847725 0 6
10.342957 0.40095121 -0.72379315 1 8
10.301204 -0.10428259 -0.84098327 2 7
18.562296 1.6305182 -1.1942153 3 9
10.475965 -0.61871815 -0.61115742 2 10
18.903471 1.6604869 -0.77311271 2 13
11.181688 -0.66039872 -0.39115354 1 14
5.8165946 0.20616996 -1.6293135 1 1
8.1969128 -0.11016428 -1.6395407 0 2
111.69387 3.9590039 0 2 20
10.18303 0.36093885 -1.5852374 0 3
10.272184 -0.13805538 -1.3076339 3 4
63.863327 5.3964372 0.3724972 61 21
10.270104 0.36402524 -1.1069552 1 5
10.308774 -0.13854712 -0.84163421 2 7
63.901127 5.399631 1.8663324 60 25
19.359152 1.635844 -1.2451254 3 9
10.485811 -0.65419817 -0.61185509 1 10
86.056831 -1.1565806 3.5063627 40 26
22.317886 1.8858564 -0.91249448 4 13
5.8211608 0.18497331 -1.6303918 1 1
8.2003756 -0.14027199 -1.6403252 0 2
10.180334 0.3234905 -1.5846225 0 3
10.271609 -0.1757016 -1.3076339 3 4
70.668434 5.7106996 0.4120647 30 21
10.287269 0.32688844 -1.1086687 1 5
10.30421 -0.17625926 -0.84130871 2 7
66.052635 5.3376975 1.9285861 60 25
10.559842 0.8533383 -0.67897326 1 9
10.551081 -0.69709927 -0.61580861 1 10
11.978982 0.96801865 -0.48962724 1 13
5.8217711 0.16465099 -1.6303918 1 1
8.1919928 -0.16873643 -1.6387562 0 2
10.181401 0.2879498 -1.5846225 0 3
10.259032 -0.21131274 -1.3061186 3 4
70.648056 5.4608841 0.41183221 30 21
10.288347 0.29097444 -1.1086687 1 5
10.349874 -0.72010255 -0.96847725 0 6
10.303532 -0.21222933 -0.84130871 1 7
10.32794 0.79831892 -0.66387928 1 9
12.002212 0.92773515 -0.49044135 1 13
46.004673 -3.20082 -1.6104023 18 14
5.833838 0.14563116 -1.6336268 1 1
8.1796255 -0.19562207 -1.6364028 0 2
10.190203 0.25437993 -1.5858524 0 3
10.254309 -0.24523973 -1.3056134 3 4
72.093857 5.3321805 0.42015487 30 21
10.273354 0.25645563 -1.1069552 1 5
17.310596 -1.2621019 -1.6202011 1 6
86.245781 2.1529694 2.0075159 131 24
10.339523 0.25810745 -0.72323507 216 8
10.270887 -0.24563622 -0.83870506 1 7
70.924171 5.2456684 2.0697334 60 25
10.334513 0.76435757 -0.66413516 1 9
10.429439 0.26035202 -0.48597106 0 12
12.021166 0.8891052 -0.49109265 1 13
11.049567 0.27583238 -0.25719729 0 16
5.811204 0.12477148 -1.627157 2 1
8.1867332 -0.22438632 -1.6379718 0 2
10.187077 0.21872517 -1.5852374 0 3
10.253389 -0.28103033 -1.3056134 3 4
74.837234 5.2725067 0.43603304 30 21
10.266233 0.22042474 -1.1060984 1 5
17.242544 -1.3176603 -1.6142526 1 6
10.328394 0.22175938 -0.7223981 151 8
10.289892 -0.28203082 -0.84033233 1 7
72.497528 5.1076674 2.1151145 60 25
10.261461 0.72295064 -0.6592744 1 9
27.477194 -2.0997832 -1.6048697 5 10
10.406315 0.22343241 -0.48485431 0 12
5.8231578 0.10469355 -1.6303918 1 1
8.1780596 -0.2527197 -1.6364028 0 2
10.207538 0.18351957 -1.588312 1 3
10.264244 -0.31718731 -1.3071287 3 4
76.730957 5.1368189 0.44695947 30 21
10.26694 0.18458755 -1.1060984 1 5
17.26166 -1.3797439 -1.6164833 1 6
10.321126 0.18556175 -0.72184002 151 8
10.288845 -0.31794751 -0.84033233 1 7
75.347374 5.0441937 2.1977317 30 25
10.291802 0.68899345 -0.66106516 1 9
10.445398 -0.35928556 -0.30417061 1 15
5.835043 0.084533706 -1.6336268 1 1
8.1810484 -0.28139976 -1.6371872 0 2
10.200212 0.14777298 -1.5870821 1 3
10.263075 -0.35301426 -1.3071287 3 4
76.864182 4.8762913 0.44763362 30 21
10.279451 0.14892095 -1.1073835 1 5
17.280554 -1.4419773 -1.618714 1 6
10.3257 0.14959097 -0.72211897 195 8
10.271735 -0.35331216 -0.8390305 1 7
78.221573 4.9624043 2.2810469 30 25
10.465447 0.66393167 -0.67206585 1 9
10.431593 0.15112507 -0.48597106 0 12
5.8353024 0.064165093 -1.6336268 1 1
8.1643381 -0.30936119 -1.6340494 0 2
119.86747 -10.423804 -1.4007483 4 18
10.204618 0.11221016 -1.587697 1 3
10.257814 -0.38868669 -1.3066236 3 4
81.867706 4.9068561 0.47666997 30 21
10.279908 0.11303806 -1.1073835 1 5
17.299221 -1.5043589 -1.6209446 1 6
114.0817 -9.9206676 1.3331369 63 22
10.33813 0.11367826 -0.72295606 151 8
10.350117 -0.3921842 -0.84553963 1 7
79.579437 4.7697058 2.3201447 30 25
10.419885 0.62453043 -0.66899592 1 9
27.326395 -2.3763328 -1.5974278 5 10
10.364135 0.11396421 -0.48280695 0 12
5.8393421 0.043824591 -1.6347049 1 1
8.1514521 -0.33737156 -1.631696 0 2
111.21812 -10.062929 -1.3000762 30 18
10.212852 0.076648027 -1.5889269 1 3
10.252432 -0.42432675 -1.3061186 3 4
92.986473 5.247592 0.54129845 30 21
10.252403 0.076944858 -1.1043848 1 5
17.317663 -1.5668887 -1.6231753 1 6
111.20617 -10.061848 1.2999365 63 22
10.326492 0.07750091 -0.72211897 151 8
10.316819 -0.42699161 -0.84293604 1 7
10.382147 0.58590531 -0.66643757 1 9
27.306002 -2.4706259 -1.5967301 5 10
10.400811 -0.43046784 -0.54555005 1 11
5.8317518 0.024428139 -1.6325485 1 1
8.146369 -0.36422563 -1.6309115 0 2
111.32352 -10.444763 -1.3017061 30 18
10.240717 0.042896483 -1.5932312 1 3
10.254931 -0.45849988 -1.3066236 2 4
10.26851 0.043012902 -1.1060984 1 5
17.316338 -1.6246796 -1.6235471 1 6
111.2598 -10.438785 1.3009609 63 22
10.314722 0.043206479 -0.72128195 151 8
10.343226 -0.46244752 -0.84521419 1 7
5.82795 0.004068682 -1.6314702 0 1
8.1489658 -0.39284849 -1.631696 0 2
111.52524 -10.856543 -1.3044999 30 18
10.256613 0.0071604759 -1.5956908 0 3
10.261195 -0.49467564 -1.3076339 2 4
10.272574 0.0071716192 -1.1065269 1 5
17.35813 -1.6897454 -1.6280084 1 6
114.0332 -11.100683 1.3338354 63 22
10.318801 0.0072038919 -0.72156101 208 8
10.357476 -0.4993172 -0.84651601 1 7
27.089832 -2.6370883 -1.5851024 5 10
10.380741 0.0072471341 -0.48355144 0 12
5.8163757 -0.015227268 -1.6282352 1 1
8.1358671 -0.41926366 -1.6293426 0 2
111.30157 -11.207479 -1.3023113 30 18
10.252628 -0.026841378 -1.595076 1 3
10.239684 -0.5276792 -1.3051084 1 4
114.49949 5.2995214 0.66618484 30 21
10.256634 -0.026851863 -1.1048133 1 5
17.364319 -1.7484949 -1.6291238 1 6
107.57667 -10.8324 1.2587271 63 22
10.306797 -0.02698319 -0.72072393 151 8
10.363727 -0.53407145 -0.84716696 1 7
10.403497 0.48151788 -0.66746098 1 9
27.291513 -2.7481108 -1.5974278 5 10
10.352739 -0.027103467 -0.48224857 0 12
11.0985 -0.61078745 -0.32348675 1 15
5.8162866 -0.035530124 -1.6282352 0 1
8.1265211 -0.4472295 -1.6277736 0 2
111.06287 -11.575195 -1.2999831 30 18
10.276187 -0.06277445 -1.5987655 1 3
10.229856 -0.56298304 -1.3040982 2 4
111.9397 4.7895236 0.6511901 30 21
10.256477 -0.062654048 -1.1048133 1 5
17.373951 -1.8107482 -1.6306108 1 6
107.57002 -11.211164 1.2590996 7 22
10.318611 -0.063033603 -0.72156101 208 8
10.31005 -0.5673964 -0.84293604 1 7
10.361244 0.44332284 -0.6646468 1 9
27.142742 -2.8288713 -1.5892884 5 10
10.376555 -0.063387573 -0.48336533 0 12
5.8238206 -0.056922898 -1.6303918 1 1
8.1169968 -0.47655192 -1.6262047 0 2
111.56847 -12.041411 -1.306409 30 18
10.303554 -0.10070848 -1.6030698 0 3
10.219802 -0.60000843 -1.3030882 2 4
111.76465 4.3717089 0.65007424 30 21
10.260156 -0.1002843 -1.1052417 1 5
17.355322 -1.8731328 -1.6294956 1 6
107.52821 -11.605352 1.2590996 3 22
10.33028 -0.10096971 -0.7223981 162 8
10.37158 -0.60891938 -0.84814334 1 7
10.362799 0.40534407 -0.6646468 1 9
27.171894 -2.9326203 -1.591614 5 10
10.400227 -0.10165337 -0.48448208 0 12
5.842845 -0.077506967 -1.6357833 0 1
8.1113682 -0.50463903 -1.6254202 0 2
81.076401 -9.0368652 -0.94972622 30 18
10.318948 -0.13688372 -1.6055294 0 3
10.229527 -0.63641775 -1.3046033 2 4
111.72726 3.9796989 0.64977199 30 21
17.356594 -1.9345851 -1.6302391 1 6
10.329865 -0.13702855 -0.7223981 173 8
27.062275 -3.016391 -1.5858001 5 10
5.8232985 -0.096562788 -1.6303918 0 1
8.1096497 -0.53153449 -1.6254202 0 2
10.298677 -0.17077418 -1.602455 0 3
10.286751 -0.67422926 -1.3121794 1 4
10.24333 -0.1698564 -1.1035281 2 5
17.298645 -1.9862251 -1.625406 1 6
111.09849 -12.756294 1.3018923 63 22
10.297437 -0.17075358 -0.72016585 173 8
10.34138 0.33402467 -0.66311181 3 9
27.079895 -3.1093051 -1.587428 5 10
10.375322 -0.17204511 -0.48336533 0 12
10.442079 0.30079344 -0.18234275 1 17
5.8306284 -0.11704391 -1.6325485 1 1
8.0960064 -0.55902869 -1.6230668 0 2
80.933571 -9.5791187 -0.9487949 39 18
10.309874 -0.20696019 -1.6042997 0 3
10.331839 -0.71341276 -1.3182403 1 4
10.262555 -0.20601033 -1.10567 2 5
17.311382 -2.0489371 -1.6272649 1 6
10.296778 -0.2066973 -0.72016585 113 8
19.755087 -1.3640875 -1.6165494 2 7
10.306572 0.29689005 -0.6608094 4 9
27.064911 -3.2033432 -1.5871954 5 10
10.410613 -0.20898242 -0.48504046 0 12
10.44311 0.26251921 -0.18234275 1 17
5.8301601 -0.13841349 -1.6325485 0 1
8.1095514 -0.58983648 -1.6262047 0 2
10.285338 -0.24418361 -1.6006103 0 3
12.656182 -0.92052907 -1.6152232 2 4
10.253779 -0.24343437 -1.1048133 2 5
17.268175 -2.1080291 -1.6239188 1 6
19.738028 -1.4356167 -1.615573 2 7
10.327543 0.25961408 -0.66208851 6 9
27.009384 -3.2971966 -1.5846373 5 10
10.419892 0.22918239 -0.1819239 1 17
5.8142948 -0.15631463 -1.6282352 0 1
8.0920143 -0.61412311 -1.6230668 0 2
10.268717 -0.2760697 -1.5981506 0 3
12.665099 -0.96118587 -1.6167384 2 4
10.268867 -0.27607375 -1.1065269 3 5
17.249613 -2.1607833 -1.6228036 1 6
19.697645 -1.4949033 -1.6126441 2 7
10.324318 0.22708024 -0.66183269 6 9
26.983046 -3.3800476 -1.5837071 5 10
10.900319 0.23974924 -0.44419789 0 13
10.4087 0.1889535 -0.18171446 1 17
5.8329024 -0.17923026 -1.6336268 0 1
8.101325 -0.64612508 -1.6254202 0 2
10.291284 -0.31622499 -1.6018399 0 3
12.692957 -1.0123328 -1.6207789 2 4
10.255806 -0.31513482 -1.1052417 2 5
17.213541 -2.2234297 -1.6202011 1 6
10.333878 -0.31753379 -0.72295606 3 8
