# .PCD v0.7 - Point Cloud Data file format
VERSION 0.7
FIELDS x y z intensity ring
SIZE 4 4 4 4 2
TYPE F F F F U
COUNT 1 1 1 1 1
WIDTH 1269
HEIGHT 1
VIEWPOINT 0 0 0 1 0 0 0
POINTS 1269
DATA ascii
-5.7327409 -12.708443 -1.1381264 3 7
-4.9597125 -14.669703 0.45067054 1 25
-6.9136205 -15.326238 0.29347965 1 23
-4.6192422 -13.66267 -0.92431444 6 9
-3.2157874 -6.2896142 -0.41139174 0 10
-6.9483852 -15.403304 0.68844157 1 26
-5.4076881 -13.742284 -0.6879161 8 12
-6.2383304 -13.829242 -0.79508793 10 11
-6.9418368 -17.64094 2.3277047 3 29
-8.0327225 -17.807083 1.5947437 2 28
-4.6197619 -13.664207 -0.58765036 14 13
-7.1228032 -13.93117 -0.54638654 16 14
-3.7095973 -9.4270124 2.7144945 2 31
-3.7459228 -8.3040285 1.6609557 2 30
-5.4120865 -13.753463 -0.34392226 13 16
-1.4556388 -3.1970651 -1.6380684 0 0
-4.668004 -13.649672 -0.25180331 15 17
-6.289216 -13.813202 -0.44171068 9 15
-2.0690196 -5.2045045 -1.5678504 4 1
-2.1242857 -4.6656356 -1.0253012 45 2
-5.8708611 -14.767827 0 1 20
-7.1661077 -13.89598 -0.18201998 10 18
-1.9872298 -4.9987669 -0.83689225 2 3
-2.3381033 -5.1352496 -0.71821368 0 4
-5.0168104 -14.669613 0.090107918 2 21
-6.4044805 -14.066361 -0.089828946 1 19
-2.249331 -5.6580682 -0.65586233 0 5
-2.9097214 -5.642314 -0.59261143 0 6
-5.9121137 -14.871596 0.37239638 1 24
-7.7325773 -14.994436 0.19640838 2 22
-5.468874 -13.756652 -1.0351861 4 8
-5.785327 -12.706495 -1.1397536 3 7
-5.0199471 -14.678784 0.4514851 1 25
-6.9753647 -15.320212 0.29382873 1 23
-4.6746573 -13.669126 -0.92584944 6 9
-3.2468741 -6.2960958 -0.4125545 0 10
-5.906661 -14.857881 0.93115461 1 27
-7.0302653 -15.440792 0.69120973 1 26
-5.4644818 -13.745603 -0.68903291 9 12
-6.3047738 -13.847372 -0.7973907 12 11
-7.0195069 -17.657183 2.3330669 3 29
-8.1097012 -17.81159 1.5976729 2 28
-4.6764851 -13.67447 -0.58879018 13 13
-7.1915436 -13.945304 -0.54792213 14 14
-5.4181771 -13.629126 3.9299085 4 31
-3.7536886 -8.2443438 1.6516285 1 30
-5.4659719 -13.749351 -0.34429449 13 16
-1.471331 -3.2018468 -1.64314 0 0
-4.7273879 -13.667311 -0.2524316 14 17
-6.3440728 -13.805697 -0.44217613 9 15
-2.0871739 -5.1972504 -1.5678504 4 1
-2.1405592 -4.6581922 -1.0253012 111 2
-5.926846 -14.758378 0 1 20
-7.2330265 -13.906365 -0.18248563 8 18
-1.9987748 -4.9771285 -0.8344326 1 3
-2.3576715 -5.1306624 -0.71871877 0 4
-5.0810614 -14.689813 0.090340391 2 21
-6.4669042 -14.072997 -0.090014927 1 19
-2.2764781 -5.6686344 -0.65800428 0 5
-2.9422636 -5.6568561 -0.59521383 0 6
-6.1189756 -15.236798 0.38207385 1 24
-4.8373981 -9.3004799 0.12204512 1 22
-5.5287566 -13.767099 -1.0374182 6 8
-5.8346405 -12.697092 -1.14073 3 7
-5.0750761 -14.672508 0.45183417 1 25
-7.0421591 -15.324841 0.29438719 1 23
-4.7327814 -13.682904 -0.92789602 6 9
-3.314898 -6.373291 -0.41836843 0 10
-5.9599767 -14.840877 0.93138719 1 27
-7.1124911 -15.477896 0.69397777 1 26
-5.5228524 -13.752398 -0.69033575 11 12
-6.3647475 -13.850688 -0.79885614 10 11
-7.0899768 -17.654678 2.3359919 3 29
-8.1901369 -17.823021 1.6012529 2 28
-4.732028 -13.680725 -0.58976716 13 13
-7.2567801 -13.952034 -0.54917848 14 14
-5.4829965 -13.653153 3.9423318 4 31
-3.8415961 -8.3599148 1.6774576 0 30
-5.5243649 -13.756164 -0.34494585 12 16
-1.4885989 -3.2098465 -1.6499019 0 0
-4.7790275 -13.662052 -0.25264105 14 17
-6.410727 -13.823367 -0.44345608 11 15
-2.1038547 -5.1863642 -1.5667721 3 1
-2.1584558 -4.6542501 -1.0260857 103 2
-5.9888506 -14.763548 0 1 20
-7.3038201 -13.923538 -0.1830444 3 18
-2.013164 -4.9627962 -0.83320272 1 3
-2.3705575 -5.1116023 -0.71720356 0 4
-5.1441927 -14.705969 0.090549625 2 21
-6.5244012 -14.068481 -0.090131164 1 19
-2.2768166 -5.6127453 -0.6524353 0 5
-2.9619913 -5.6465516 -0.59521383 0 6
-6.1841483 -15.244991 0.38281825 1 24
-8.0284424 -15.304911 0.20120449 2 22
-5.5887771 -13.777298 -1.0396504 4 8
-2.9436555 -6.3473659 -0.57117867 0 7
-5.1671863 -14.771702 0.45544142 1 25
-7.1107521 -15.332822 0.29501548 1 23
-4.7871041 -13.685142 -0.9291752 6 9
-3.3148642 -6.3192463 -0.41557774 0 10
-6.0177484 -14.834785 0.93231744 1 27
-7.1647921 -15.449347 0.69381493 1 26
-5.5843406 -13.766361 -0.69201088 11 12
-6.4264994 -13.857376 -0.80053085 10 11
-7.1634974 -17.659254 2.3398917 3 29
-8.2606859 -17.812408 1.6028802 2 28
-4.7876706 -13.686761 -0.59074414 14 13
-7.3221493 -13.95848 -0.55043483 16 14
-5.5306206 -13.633932 3.9423318 11 31
-5.5828705 -13.762737 -0.34559724 12 16
-1.4951848 -3.1947803 -1.6448303 0 0
-4.8373594 -13.675449 -0.25319952 14 17
-6.4725018 -13.829876 -0.44438702 9 15
-2.1219466 -5.1789885 -1.5667721 2 1
-2.1763523 -4.6502395 -1.0268701 32 2
-6.0327682 -14.724045 0 1 20
-7.3654718 -13.922706 -0.18337035 5 18
-2.0274789 -4.9484234 -0.83197296 2 3
-2.3951147 -5.1176715 -0.7192238 0 4
-5.315547 -15.027308 0.092641912 2 21
-6.5904269 -14.081848 -0.090363637 1 19
-2.3069506 -5.6305232 -0.65543401 0 5
-2.9444366 -5.5657697 -0.58777833 0 6
-6.2449083 -15.241811 0.3832835 1 24
-7.791914 -14.728794 0.19398703 2 22
-5.6459141 -13.77986 -1.0413246 6 8
-7.1879668 -15.35862 0.29599282 1 23
-4.8428345 -13.690928 -0.9307102 6 9
-3.312628 -6.2617497 -0.4125545 0 10
-6.0634408 -14.798907 0.93138719 1 27
-7.2051263 -15.395285 0.69251233 1 26
-5.6459966 -13.78006 -0.69368601 11 12
-6.4900727 -13.86742 -0.80241495 8 11
-7.2386456 -17.667204 2.3442788 3 29
-8.3464737 -17.834017 1.6074367 2 28
-4.8434157 -13.692571 -0.59172106 13 13
-4.8659072 -9.1978617 -0.36337358 5 14
-5.5884347 -13.63957 3.949579 9 31
-3.9449027 -8.4291229 1.6968293 1 30
-5.639976 -13.765367 -0.34615555 11 16
-1.5042231 -3.1865261 -1.64314 0 0
-4.8880663 -13.674398 -0.25347877 14 17
-6.531981 -13.837261 -0.44531789 9 15
-2.1435251 -5.1826015 -1.570007 4 1
-2.1967838 -4.6536374 -1.0292236 15 2
-5.829309 -14.094066 0 1 20
-7.4285383 -13.929967 -0.18378943 5 18
-2.0393453 -4.9307156 -0.83012819 2 3
-2.4069903 -5.0989361 -0.71770865 0 4
-5.4097795 -15.133895 0.093409084 2 21
-6.6558695 -14.099705 -0.09061937 1 19
-2.3164887 -5.6007915 -0.65286362 0 5
-2.9291437 -5.4927187 -0.58108634 0 6
-5.8369017 -14.112423 0.35536775 1 24
-8.0552683 -15.105209 0.19929536 2 22
-5.7037787 -13.790559 -1.0435569 4 8
-2.9782832 -6.3091555 -0.56955135 0 7
-5.4223857 -15.169161 0.46882308 2 25
-7.2456865 -15.349166 0.29627207 1 23
-4.8935819 -13.689828 -0.93173355 6 9
-5.8347106 -14.107126 0.88906199 1 27
-7.2459016 -15.349622 0.69153535 1 26
-5.6992965 -13.779722 -0.69461662 9 12
-6.5530734 -13.881944 -0.80450839 8 11
-5.8313799 -14.099072 1.8733757 2 29
-8.4242868 -17.845896 1.6110168 2 28
-4.8955212 -13.695252 -0.59253526 13 13
-4.9227161 -9.2310581 -0.36532792 7 14
-5.6454468 -13.649525 3.9578609 14 31
-4.0114684 -8.4978409 1.7133313 1 30
-5.699347 -13.779844 -0.346993 12 16
-1.5122192 -3.17471 -1.6397589 0 0
-4.9398475 -13.668535 -0.25368819 14 17
-6.5939984 -13.843254 -0.4462488 9 15
-2.161603 -5.1750875 -1.570007 4 1
-2.2180753 -4.6565647 -1.031577 10 2
-5.8491788 -14.003503 0 1 20
-2.0565443 -4.9235668 -0.83012819 2 3
-2.423068 -5.0869207 -0.71720356 0 4
-5.4748111 -15.148777 0.093618318 2 21
-6.7102075 -14.087219 -0.090689108 1 19
-2.3252954 -5.5669832 -0.64986497 0 5
-2.9671624 -5.5175371 -0.58480412 0 6
-5.7626476 -13.796339 -1.0455101 4 8
-3.0157187 -6.3311143 -0.57248044 0 7
-5.4739451 -15.14638 0.4687067 1 25
-7.3095407 -15.345443 0.29669091 1 23
-4.9535503 -13.70645 -0.93403602 6 9
-5.8562145 -14.020347 0.88487595 1 27
-7.2908444 -15.306192 0.69072121 1 26
-5.7612224 -13.792926 -0.69629174 8 12
-6.6117988 -13.880623 -0.8057645 8 11
-5.8637276 -14.038334 1.8680135 2 29
-8.5053902 -17.855974 1.6145968 2 28
-4.951448 -13.700633 -0.59351224 13 13
-5.7049718 -13.658257 3.9661431 8 31
-3.9869556 -8.3701019 1.6903722 1 30
-5.7597437 -13.789386 -0.34773743 12 16
-1.521721 -3.1661448 -1.6380684 0 0
-4.9998803 -13.685018 -0.25431648 14 17
-6.6544027 -13.845379 -0.44706333 9 15
-2.1811507 -5.1710601 -1.5710852 4 1
-2.2360148 -4.6523294 -1.0323615 8 2
-5.8824778 -13.946146 0 1 20
-4.9802084 -9.1838694 -0.12162605 18 18
-2.0691097 -4.9054341 -0.82828355 2 3
-2.4356527 -5.0677023 -0.71568829 0 4
-5.505692 -15.069459 0.093246348 2 21
-6.778398 -14.103368 -0.090944834 1 19
-2.3524413 -5.5771551 -0.65200686 0 5
-5.8200746 -13.798202 -1.0471842 4 8
-5.5295248 -15.13469 0.46893942 1 25
-7.3440027 -15.280184 0.29592302 1 23
-5.0095816 -13.711571 -0.93557096 6 9
-5.8927026 -13.970387 0.88301551 1 27
-7.3390336 -15.269846 0.69023275 1 26
-5.8186493 -13.794823 -0.6974085 9 12
-6.6775131 -13.893463 -0.80785793 10 11
-5.880291 -13.940962 1.8577764 2 29
-8.5866613 -17.865702 1.6181767 2 28
-5.0115843 -13.717052 -0.59497768 13 13
-4.9832287 -9.1894379 -0.36504874 19 14
-5.7661266 -13.670301 3.9754608 8 31
-3.9956915 -8.3135729 1.6817625 1 30
-5.8187203 -13.794991 -0.34838879 12 16
-1.540673 -3.1771233 -1.6465209 0 0
-5.0559349 -13.689991 -0.25473532 14 17
-6.7201395 -13.858042 -0.44822696 9 15
-2.1991885 -5.1634145 -1.5710852 4 1
-2.25053 -4.6409664 -1.031577 7 2
-6.3041716 -14.801392 0 1 20
-5.0160742 -9.1734457 -0.12171917 12 18
-2.0831232 -4.8909078 -0.82705367 2 3
-2.4481339 -5.0484586 -0.71417308 0 4
-5.5471768 -15.02013 0.093060374 2 21
-6.8363152 -14.097616 -0.091061071 1 19
-2.3641036 -5.5506139 -0.64986497 0 5
-6.5124426 -15.290386 0.38672644 1 24
-5.0122371 -9.1664286 0.12162605 16 22
-5.8760233 -13.796155 -1.0485793 8 8
-5.5864782 -15.126548 0.46928847 1 25
-7.3868275 -15.232863 0.29550415 1 23
-5.0684791 -13.723958 -0.9376176 6 9
-6.3498392 -14.908614 0.94371265 1 27
-7.3783412 -15.215364 0.68893009 1 26
-5.8777289 -13.800159 -0.69871134 9 12
-6.7381716 -13.895227 -0.80932331 10 11
-4.3280649 -10.161745 1.3561622 1 29
-8.6715879 -17.882254 1.6224077 2 28
-5.0663595 -13.718219 -0.59579182 13 13
-5.8365216 -13.70341 3.9909899 19 31
-4.1912389 -8.6430302 1.7513577 2 30
-5.8793755 -13.804026 -0.34913322 11 16
-1.5533466 -3.1749825 -1.6482112 0 0
-5.1162777 -13.70598 -0.25536361 14 17
-6.7895555 -13.877598 -0.44962329 8 15
-2.2232854 -5.1698613 -1.5753984 4 1
-2.2718871 -4.6436524 -1.0339304 6 2
-6.3716006 -14.816042 0 1 20
-2.0986211 -4.8799763 -0.82643878 1 3
-2.4657409 -5.0398827 -0.71417308 0 4
-5.6471324 -15.128086 0.093850791 2 21
-6.9065757 -14.116783 -0.091340043 1 19
-2.3803217 -5.5350218 -0.64900815 0 5
-7.701673 -17.908892 0.45363122 2 24
-5.9367552 -13.804886 -1.0508115 9 8
-5.656024 -15.151905 0.47068483 1 25
-7.4452257 -15.217763 0.29571357 1 23
-5.1247287 -13.72862 -0.9391526 6 9
-6.398685 -14.879023 0.94324756 1 27
-7.4384322 -15.203876 0.68958139 1 26
-5.9384913 -13.808923 -0.70020032 9 12
-6.8024321 -13.903916 -0.81120741 10 11
-7.6259456 -17.732801 2.3701153 4 29
-8.7444668 -17.873362 1.6243604 2 28
-5.1226001 -13.722917 -0.5967688 13 13
-3.4471927 -6.252315 -0.24932201 0 14
-5.8812656 -13.675855 3.9889193 9 31
-5.9354234 -13.801788 -0.34959847 11 16
-1.5612111 -3.1630392 -1.6448303 0 0
-5.1725602 -13.710491 -0.25578249 15 17
-6.8503451 -13.878911 -0.45043784 8 15
-2.239784 -5.1585355 -1.5743201 3 1
-2.2915549 -4.6427274 -1.0354993 6 2
-6.4232802 -14.793711 0 1 20
-7.7657442 -13.969497 -0.18607108 5 18
-2.1109204 -4.8617444 -0.82459402 1 3
-2.47805 -5.0205693 -0.71265787 0 4
-5.6928453 -15.089569 0.093734547 2 21
-6.9752855 -14.132042 -0.091595769 1 19
-2.3996284 -5.526679 -0.64900815 0 5
-3.1561453 -5.6774678 -0.60636711 0 6
-7.7832532 -17.925919 0.45474786 2 24
-8.0922318 -14.556802 0.19389388 2 22
-6.002389 -13.82434 -1.0538808 4 8
-5.7371063 -15.206888 0.47301206 2 25
-7.496531 -15.188094 0.29564378 1 23
-5.1810741 -13.733058 -0.9406876 6 9
-6.5221515 -15.021425 0.95371258 1 27
-7.4720006 -15.138394 0.68779027 1 26
-5.9993896 -13.817431 -0.70168936 9 12
-6.866837 -13.912323 -0.81309152 10 11
-7.7083545 -17.753416 2.3764522 4 29
-8.8262148 -17.882053 1.6279405 2 28
-5.1775241 -13.723649 -0.59758294 13 13
-3.4903619 -6.278677 -0.25085759 0 14
-5.9366622 -13.672962 3.9940958 8 31
-5.9931207 -13.802994 -0.35015681 11 16
-1.5738586 -3.1608155 -1.6465209 0 0
-5.2289362 -13.714773 -0.25620133 15 17
-6.9130073 -13.883548 -0.45136872 8 15
-2.2577772 -5.1506858 -1.5743201 4 1
-2.3112435 -4.6417227 -1.0370682 5 2
-6.4941516 -14.815162 0 1 20
-7.8320603 -13.973707 -0.18649016 5 18
-2.1262915 -4.8507266 -0.82397914 1 3
-2.492023 -5.0047855 -0.71164775 0 4
-5.6941853 -14.935057 0.092897639 2 21
-7.0334878 -14.125512 -0.091712005 1 19
-2.4205019 -5.5219111 -0.64943653 0 5
-3.1623137 -5.642097 -0.60376471 0 6
-6.6994963 -15.283617 0.38830835 1 24
-8.1566839 -14.552891 0.19421983 2 22
-6.0634241 -13.832541 -1.056113 4 8
-5.7958522 -15.201715 0.47347754 2 25
-7.1056242 -14.270385 0.27826118 1 23
-5.2360907 -13.733539 -0.94196671 6 9
-6.6386728 -15.144859 0.96301484 1 27
-7.1079416 -14.275039 0.64968824 1 26
-6.0604181 -13.825682 -0.70317835 9 12
-6.9278221 -13.913301 -0.8145569 10 11
-7.7862177 -17.762764 2.3813272 4 29
-7.0920281 -14.243079 1.2989025 1 28
-5.2325168 -13.724166 -0.59839708 14 13
-3.5493934 -6.3327122 -0.25350994 0 14
-5.9936609 -13.673388 4.0003071 4 31
-6.0557151 -13.814953 -0.35099426 12 16
-1.5848823 -3.1553023 -1.6465209 0 0
-5.283967 -13.715097 -0.25655037 13 17
-6.9704013 -13.877196 -0.45195055 8 15
-2.2741842 -5.1392512 -1.5732419 2 1
-2.3344746 -4.6476464 -1.0402062 4 2
-6.5668688 -14.839954 0 1 20
-7.9004679 -13.981104 -0.18695581 5 18
-2.1432109 -4.8432746 -0.82397914 1 3
-2.5148208 -5.0066934 -0.71316296 0 4
-5.7505975 -14.926286 0.092967376 2 21
-7.0989108 -14.133042 -0.091921233 1 19
-2.4268875 -5.4843335 -0.64600945 0 5
-3.2094204 -5.6795678 -0.60896963 0 6
-6.7689867 -15.296704 0.38923886 1 24
-8.2330151 -14.569598 0.19482517 2 22
-6.1229749 -13.836833 -1.0580662 4 8
-5.7381988 -14.894104 0.46451765 1 25
-5.2926083 -13.737526 -0.94350171 6 9
-6.7997642 -15.366256 0.97859609 1 27
-7.1200552 -14.175138 0.64626884 1 26
-6.1183429 -13.826365 -0.7042951 9 12
-6.9924822 -13.921157 -0.816441 10 11
-7.8481736 -17.735476 2.3813272 4 29
-7.1059136 -14.146984 1.2923934 1 28
-5.2904496 -13.731923 -0.5995369 13 13
-6.0569882 -13.687715 4.0106602 3 31
-6.116847 -13.822985 -0.35173869 11 16
-1.599164 -3.1562188 -1.6499019 0 0
-5.3405151 -13.718932 -0.25696924 13 17
-7.0477133 -13.909846 -0.45381233 8 15
-2.2936807 -5.134798 -1.5743201 4 1
-2.3506842 -4.6394701 -1.0402062 4 2
-6.8192949 -15.266161 0 1 20
-7.9690218 -13.988194 -0.18742144 5 18
-2.153656 -4.8213286 -0.82151949 1 3
-2.5233154 -4.9801869 -0.71063757 0 4
-5.8070188 -14.917305 0.093037128 2 21
-7.1572413 -14.126019 -0.092037469 1 19
-2.4443953 -5.472198 -0.64558107 0 5
-3.2016258 -5.6198821 -0.60376471 0 6
-6.8500686 -15.335053 0.39082077 1 24
-8.3036222 -14.575524 0.19529082 2 22
-6.1793752 -13.833591 -1.0594614 5 8
-5.8626771 -15.060283 0.47033578 1 25
-5.3492184 -13.741288 -0.94503671 6 9
-6.8680196 -15.37524 0.98068905 1 27
-7.1423979 -14.096723 0.64382643 1 26
-6.1796069 -13.83411 -0.70578414 9 12
-7.0572834 -13.928734 -0.8183251 10 11
-7.1372352 -14.086533 1.2891388 1 28
-5.35285 -13.750617 -0.60116518 14 13
-6.1110349 -13.6806 4.0148015 4 31
-6.1781096 -13.830758 -0.35248309 11 16
-1.606872 -3.144161 -1.6465209 0 0
-5.3956904 -13.718816 -0.25731829 13 17
-7.1107817 -13.913643 -0.45474324 6 15
-2.313174 -5.1302719 -1.5753984 4 1
-2.3740041 -4.645206 -1.043344 4 2
-6.9333749 -15.377182 0 1 20
-8.0397139 -13.998444 -0.18793365 5 18
-2.1655989 -4.8029723 -0.81967479 1 3
-2.5442958 -4.978415 -0.71164775 0 4
-5.8780875 -14.945335 0.093339346 2 21
-7.2338114 -14.154374 -0.092386186 1 19
-2.4634819 -5.4636321 -0.64558107 0 5
-3.2212238 -5.6086721 -0.60376471 0 6
-6.941361 -15.394894 0.39296097 1 24
-8.5197868 -14.834328 0.19915567 2 22
-6.2407465 -13.841037 -1.0616935 5 8
-5.9869199 -15.222047 0.4760375 2 25
-7.6405201 -14.95018 0.29306084 1 23
-5.4103012 -13.755964 -0.94733912 6 9
-6.9593987 -15.434899 0.98603785 1 27
-7.5334964 -14.740767 0.6744383 1 26
-6.2377133 -13.83431 -0.70690084 7 12
-7.122221 -13.936027 -0.82020921 10 11
-8.0044384 -17.752638 2.3910768 4 29
-7.5782471 -14.82833 1.3594377 1 28
-5.4081302 -13.750445 -0.60197932 13 13
-6.1682806 -13.680318 4.0210128 4 31
-7.0987043 -13.890012 2.8440728 7 30
-6.2395 -13.838272 -0.35322753 11 16
-1.6095316 -3.1224215 -1.6380684 0 0
-5.4568329 -13.733348 -0.25794658 13 17
-7.1757913 -13.920723 -0.45579052 6 15
-2.3310668 -5.1221666 -1.5753984 4 1
-2.3920009 -4.640378 -1.0441285 4 2
-7.0135164 -15.411141 0 1 20
-8.1105709 -14.008372 -0.18844588 5 18
-2.1872616 -4.8061762 -0.82151949 1 3
-2.5634751 -4.9730306 -0.71215284 0 4
-6.0306544 -15.177499 0.094920181 2 21
-7.296001 -14.153925 -0.092548922 1 19
-2.4792426 -5.4477606 -0.64472431 0 5
-3.853416 -6.6555223 -0.71790004 0 6
-7.031496 -15.450648 0.39500815 1 24
-8.6376476 -14.918725 0.2006923 2 22
-6.303896 -13.851857 -1.0642047 5 8
-6.0547791 -15.238214 0.47720113 2 25
-7.6981535 -14.934084 0.29327023 1 23
-5.4686007 -13.762964 -0.94913 6 9
-7.0396957 -15.468666 0.98975873 1 27
-7.6215267 -14.785431 0.67769486 1 26
-6.3008595 -13.845184 -0.70857596 9 12
-7.1891232 -13.946587 -0.82230264 10 11
-8.0976 -17.793251 2.4003389 4 29
-7.6390924 -14.819508 1.361065 1 28
-5.4678988 -13.761197 -0.60328197 13 13
-6.2223954 -13.672771 4.0251541 1 31
-4.9023924 -9.5104284 1.9508157 2 30
-6.2993588 -13.841887 -0.35387889 11 16
-1.6237658 -3.1232173 -1.6414495 0 0
-5.5136781 -13.736486 -0.25836542 13 17
-7.2372508 -13.920424 -0.45660505 6 15
-2.3521478 -5.1209989 -1.5775551 4 1
-7.0956511 -15.448358 0 1 20
-8.1755495 -14.007611 -0.18881838 5 18
-2.2073245 -4.8056955 -0.82274932 1 3
-2.5863099 -4.9746141 -0.71366805 0 4
-6.0835981 -15.156355 0.094920181 2 21
-7.3601241 -14.156764 -0.092734903 1 19
-2.4882839 -5.4173889 -0.64215398 0 5
-3.80636 -6.5216422 -0.70488787 0 6
-7.0670252 -15.386035 0.39398456 1 24
-8.6150742 -14.760672 0.19896941 2 22
-6.3705306 -13.869656 -1.0672741 5 8
-6.1168714 -15.23925 0.47789931 2 25
-7.9587054 -15.308099 0.30115873 1 23
-5.527019 -13.769723 -0.95092082 6 9
-8.2153664 -17.886156 1.1462691 2 27
-7.7062769 -14.822568 0.6806258 1 26
-6.3641596 -13.855784 -0.71025109 7 12
-8.1729174 -17.793737 2.4042385 4 29
-7.709166 -14.828125 1.3643197 1 28
-5.5248346 -13.764281 -0.60425895 14 13
-6.2845979 -13.682567 4.0344715 4 31
-7.2245421 -13.895979 2.8555524 7 30
-6.3593216 -13.845252 -0.35453027 11 16
-1.635252 -3.1213117 -1.64314 0 0
-5.5688167 -13.748752 -0.25892389 13 17
-7.2920804 -13.918867 -0.45730323 6 15
-2.3633683 -5.1030979 -1.5743201 4 1
-2.4300051 -4.6383085 -1.0472664 14 2
-7.1676836 -15.476805 0 1 20
-8.2418118 -14.019785 -0.18933058 5 18
-2.2224114 -4.798737 -0.82274932 1 3
-2.5927186 -4.9488902 -0.71114266 0 4
-6.1837397 -15.266925 0.095733844 2 21
-2.5136476 -5.4275885 -0.64429587 0 5
-3.8147192 -6.4890518 -0.70265722 0 6
-7.1287723 -15.392786 0.39472896 1 24
-6.4241333 -13.871296 -1.0689481 5 8
-6.1797261 -15.257016 0.47906291 2 25
-7.7432079 -14.779963 0.29124579 1 23
-5.5822387 -13.78189 -0.95296741 6 9
-8.2782297 -17.87475 1.1471992 2 27
-7.7509513 -14.794744 0.68046302 1 26
-6.4210911 -13.864727 -0.71174008 7 12
-3.2903757 -6.2805538 -0.37158534 0 11
-7.6761565 -14.651978 1.3503249 1 28
-5.581553 -13.780196 -0.60572439 14 13
-6.3454137 -13.701321 4.0458593 3 31
-4.8064833 -9.1744461 1.8883954 3 30
-6.4111896 -13.843348 -0.35499555 11 16
-1.6449871 -3.1120925 -1.6414495 0 0
-5.6312914 -13.757859 -0.25948238 13 17
-7.3673363 -13.938001 -0.4588159 4 15
-2.386951 -5.1048694 -1.5775551 2 1
-2.4524882 -4.6397748 -1.0496198 10 2
-7.2209721 -15.443183 0 1 20
-8.3196573 -14.03421 -0.18993591 5 18
-2.2366364 -4.7833986 -0.82151949 1 3
-2.6089852 -4.9358463 -0.71063757 0 4
-5.8032732 -14.178029 0.089038521 2 21
-7.4955688 -14.180599 -0.093223102 1 19
-2.5234168 -5.3967233 -0.64172554 0 5
-3.8506632 -6.4955821 -0.70488787 0 6
-7.1682038 -15.33033 0.39379847 1 24
-6.4867625 -13.872961 -1.0709014 5 8
-5.8069735 -14.18707 0.44613242 1 25
-7.8347058 -14.822201 0.29264197 1 23
-5.6432996 -13.787197 -0.95475823 6 9
-8.3639851 -17.887697 1.14999 2 27
-7.7864466 -14.730901 0.67883468 1 26
-6.4887891 -13.877295 -0.71360129 7 12
-3.3171062 -6.2755151 -0.372004 0 11
-7.8453164 -14.842274 1.3705032 2 28
-5.6426206 -13.785538 -0.60686421 14 13
-4.6657686 -9.9784794 2.9515724 2 31
-4.8786945 -9.2298279 1.9034624 6 30
-6.4822106 -13.863226 -0.35611215 11 16
-1.6524299 -3.0999329 -1.6380684 0 0
-5.6930323 -13.771381 -0.26011065 13 17
-7.4309916 -13.940425 -0.45974681 4 15
-2.4080431 -5.1034732 -1.5797117 4 1
-2.4686692 -4.6311855 -1.0496198 8 2
-7.2645936 -15.396177 0 1 20
-8.3870611 -14.035986 -0.190355 7 18
-2.2465734 -4.7612634 -0.81905985 1 3
-2.6336648 -4.9407144 -0.71265787 0 4
-5.8206382 -14.080059 0.088550329 2 21
-2.5490282 -5.4022689 -0.64343911 0 5
-3.8794422 -6.4923568 -0.70600319 0 6
-7.2284985 -15.319679 0.39417064 1 24
-8.5163126 -14.252293 0.19328855 2 22
-6.5521765 -13.88632 -1.0736917 5 8
-5.7020669 -13.793237 -0.95654905 6 9
-8.4280787 -17.862003 1.1502224 2 27
-7.8453412 -14.717738 0.67948604 1 26
-6.5491257 -13.879855 -0.71490419 7 12
-7.878325 -14.779616 1.3672487 2 28
-5.6983414 -13.784225 -0.60767835 14 13
-4.5093174 -9.556798 2.8314805 0 31
-7.4209318 -13.921554 2.8763592 18 30
-6.5459213 -13.873063 -0.35694963 11 16
-1.6729959 -3.1135967 -1.6482112 0 0
-5.7463698 -13.770882 -0.26045972 13 17
-2.4249539 -5.0954599 -1.5797117 4 1
-7.2967029 -15.332273 0 1 20
-8.4480019 -14.032082 -0.19068095 9 18
-2.2606521 -4.7502193 -0.81844497 1 3
-2.6425223 -4.9179726 -0.71063757 0 4
-5.8426518 -14.001616 0.088178359 1 21
-2.5515478 -5.3614669 -0.63958359 0 5
-3.9132762 -6.4999294 -0.70823383 0 6
-7.3033195 -15.346177 0.39547336 1 24
-9.0008869 -14.950421 0.2031602 3 22
-6.6084781 -13.886134 -1.0753658 5 8
-5.8464365 -14.010686 0.44182703 2 25
-5.7554626 -13.792672 -0.95782822 6 9
-7.2980876 -15.335184 0.98906112 1 27
-6.6054201 -13.879709 -0.71602094 7 12
-4.5142903 -9.4856997 1.2898653 1 29
-5.7563338 -13.79476 -0.60898101 14 13
-4.9078813 -9.1340103 1.8905479 5 30
-6.6107936 -13.891 -0.35797322 11 16
-1.6734915 -3.088614 -1.6380684 0 0
-5.8006139 -13.765483 -0.26073894 13 17
-4.9714227 -9.1753111 -0.30370519 19 15
-2.4427247 -5.0869646 -1.5797117 4 1
-2.5113459 -4.6349669 -1.0543267 1 2
-7.3363223 -15.277864 0 1 20
-8.5239019 -14.046963 -0.1912863 5 18
-2.2806406 -4.7494254 -0.81967479 1 3
-2.6747947 -4.9366298 -0.71467817 0 4
-5.8852754 -13.966393 0.088085376 1 21
-4.9829712 -9.1966257 -0.060792617 22 19
-2.5616386 -5.3346024 -0.63744169 0 5
-3.9545345 -6.5168743 -0.7115798 0 6
-7.3499165 -15.306172 0.39510119 1 24
-11.731777 -19.33338 0.26327476 4 22
-6.6759067 -13.90255 -1.0784351 5 8
-6.4495907 -15.305575 0.48336834 1 25
-4.9746752 -9.1813145 0.18227293 20 23
-5.8190713 -13.809284 -0.96038651 6 9
-8.4993353 -17.699833 1.1434784 2 27
-6.671123 -13.892588 -0.71788216 9 12
-4.5301867 -9.4340963 1.2849904 1 29
-4.941844 -9.1207199 0.84684151 11 28
-5.8184166 -13.807731 -0.61044645 14 13
-4.8234634 -10.044844 2.9857366 2 31
-4.9322343 -9.1029844 1.8876778 9 30
-6.674818 -13.900283 -0.35881069 11 16
-1.6877397 -3.0891159 -1.6414495 0 0
-5.8611603 -13.77459 -0.26129743 13 17
-5.0072575 -9.1649189 -0.30393791 14 15
-2.4604678 -5.0784063 -1.5797117 4 1
-2.5801673 -4.7225504 -1.0762918 1 2
-7.3791475 -15.230562 0 1 20
-8.6041908 -14.068301 -0.19198476 5 18
-2.2937598 -4.7343206 -0.81844497 1 3
-2.6748893 -4.8959227 -0.71013248 0 4
-6.3881669 -15.013134 0.09482719 2 21
-5.0246348 -9.1967258 -0.060908861 6 19
-2.5802455 -5.3256273 -0.63744169 0 5
-3.2333426 -5.286684 -0.57848394 0 6
-7.3980732 -15.269625 0.394822 1 24
-11.788763 -19.275244 0.26304191 4 22
-6.741797 -13.91507 -1.0812254 3 8
-6.5061131 -15.290325 0.48360103 1 25
-5.0182014 -9.1849508 0.1826918 3 23
-5.8766208 -13.810925 -0.96192151 8 9
-7.4136753 -15.301827 0.99022394 1 27
-5.0013924 -9.1541843 0.42498407 11 26
-6.7335172 -13.897982 -0.7193712 9 12
-5.0004139 -9.1523933 0.85139793 4 28
-5.8806663 -13.820433 -0.61191189 14 13
-4.388485 -9.0578346 2.6968944 0 31
-4.9639821 -9.0857115 1.8876778 2 30
-6.7320204 -13.894892 -0.35927597 11 16
-1.706049 -3.0956089 -1.6482112 0 0
-5.9321356 -13.800783 -0.26220497 15 17
-7.6982388 -13.968379 -0.46416855 5 15
-2.4807558 -5.0728154 -1.5807899 2 1
-2.5974579 -4.7130623 -1.0762918 1 2
-7.4278874 -15.189042 0 1 20
-8.6787853 -14.074121 -0.19249697 5 18
-2.3110952 -4.7258825 -0.81844497 1 3
-2.6966453 -4.8930364 -0.71114266 0 4
-6.4478855 -15.000647 0.094896935 2 21
-2.6067348 -5.3304262 -0.63915527 0 5
-3.290324 -5.3358183 -0.58517593 0 6
-7.4416881 -15.217262 0.39417064 1 24
-3.0799637 -6.2981162 -0.4902485 1 8
-7.7163181 -17.951584 0.56866175 1 25
-5.9413853 -13.822302 -0.96422398 6 9
-7.4433908 -15.220743 0.98673552 1 27
-6.8037157 -13.912694 -0.72141856 9 12
-4.59409 -9.3943033 1.2840155 2 29
-5.9423261 -13.824491 -0.61305171 14 13
-4.5262032 -8.2127514 1.709744 1 30
-6.7969527 -13.898865 -0.36002037 11 16
-1.7110243 -3.0804274 -1.64314 0 0
-5.9858265 -13.79938 -0.26255399 13 17
-7.7697573 -13.988214 -0.46568128 7 15
-2.4992681 -5.0680156 -1.5818683 4 1
-2.6187866 -4.7147093 -1.0786452 1 2
-7.4799852 -15.167913 0 1 20
-8.7465162 -14.07924 -0.1929626 5 18
-2.3267546 -4.7181926 -0.81844497 1 3
-2.7205634 -4.8979421 -0.71316296 0 4
-6.5771823 -15.162659 0.096059315 2 21
-7.9088731 -14.23867 -0.094664454 1 19
-2.6261561 -5.3253193 -0.63958359 0 5
-3.3080006 -5.3248777 -0.58517593 0 6
-7.4956484 -15.199676 0.39435679 1 24
-3.107892 -6.3021832 -0.4913646 0 8
-6.6365633 -15.299552 0.48534647 1 25
-8.1155958 -14.610842 0.29173443 1 23
-5.9983091 -13.828157 -0.9660148 6 9
-7.4814615 -15.170907 0.9851076 1 27
-8.2614765 -14.873477 0.69316363 1 26
-6.8674879 -13.925892 -0.72327977 9 12
-4.547956 -9.2223444 1.2625666 1 29
-8.2525311 -14.857371 1.3874271 2 28
-5.9944997 -13.819375 -0.61370301 10 13
-7.7597194 -13.970142 2.9136679 5 30
-6.8553872 -13.901354 -0.36067173 11 16
-1.728852 -3.0870879 -1.6499019 0 0
-6.0467939 -13.807712 -0.26311249 13 17
-7.8361211 -13.992403 -0.46672854 7 15
-2.520375 -5.0661583 -1.5840249 6 1
-2.6371448 -4.7089615 -1.0794296 1 2
-7.1035042 -14.278619 0 1 20
-8.8147116 -14.079136 -0.1933817 5 18
-2.3449702 -4.7135801 -0.81905985 2 3
-2.7279499 -4.8711057 -0.71063757 0 4
-6.6958575 -15.289833 0.097012475 2 21
-7.9741645 -14.238897 -0.094850443 1 19
-2.6411862 -5.3089981 -0.63872683 0 5
-3.3413615 -5.3369284 -0.58777833 0 6
-7.2244835 -14.521797 0.3774212 1 24
-6.7155919 -15.334895 0.48720828 1 25
-8.2095404 -14.659191 0.29327023 1 23
-6.0545487 -13.825418 -0.96729392 6 9
-7.137733 -14.347422 0.93324757 1 27
-8.328969 -14.872446 0.69446629 1 26
-6.9231758 -13.916144 -0.7240243 9 12
-8.329668 -14.873694 1.3916579 2 28
-6.0523214 -13.820333 -0.61467999 12 13
-5.2265487 -10.505786 3.144134 2 31
-6.9252448 -13.920303 -0.36178836 11 16
-1.7307056 -3.0652504 -1.6414495 0 0
-6.1030412 -13.804808 -0.26346153 13 17
-7.8986769 -13.989336 -0.46754307 9 15
-2.5380442 -5.0573292 -1.5840249 4 1
-2.6554947 -4.7031431 -1.0802141 1 2
-7.1353621 -14.217985 0 1 20
-8.8872805 -14.085487 -0.19389388 1 18
-2.3667283 -4.7159638 -0.82090455 2 3
-2.7429857 -4.858098 -0.71013248 0 4
-6.770215 -15.313926 0.097314693 2 21
-8.0415182 -14.242321 -0.095059671 1 19
-2.6525669 -5.2855282 -0.63701332 0 5
-3.3450947 -5.3016539 -0.58517593 0 6
-9.1796827 -14.548916 0.2002732 2 22
-6.7965641 -15.373526 0.48918641 1 25
-6.115685 -13.833407 -0.96934056 6 9
-3.5734315 -5.6635461 -0.38999656 0 10
-7.1250834 -14.197504 0.92510813 1 27
-8.3867273 -14.853722 0.69495475 1 26
-6.9896326 -13.927604 -0.72588551 7 12
-8.3736963 -14.830642 1.3903563 2 28
-6.1134558 -13.828364 -0.61598265 12 13
-7.8860817 -13.967029 2.9244299 22 30
-6.9881434 -13.924637 -0.36253279 11 16
-1.7498252 -3.0752482 -1.6499019 0 0
-6.1585622 -13.806409 -0.2638804 11 17
-7.9608436 -13.990867 -0.46847394 9 15
-2.553062 -5.0454483 -1.5829465 4 1
-2.6749561 -4.701129 -1.0817831 1 2
-7.1626058 -14.154985 0 1 20
-3.9348822 -6.1908245 -0.085398994 0 18
-2.3787854 -4.7010365 -0.81967479 2 3
-2.7610433 -4.8524241 -0.71063757 0 4
-6.8388853 -15.331573 0.097570412 2 21
-8.1203547 -14.2712 -0.095431626 1 19
-2.6611021 -5.2589607 -0.63487136 0 5
-3.3242021 -5.2300301 -0.57848394 0 6
-7.1534452 -14.136883 0.36867425 4 24
-9.1720934 -14.430629 0.19906253 2 22
-6.8703117 -15.402026 0.49081552 1 25
-8.449564 -14.849772 0.29822674 2 23
-6.1777864 -13.849506 -0.97189885 6 9
-3.6093292 -5.6786261 -0.39185703 0 10
-7.1486869 -14.127479 0.92208493 1 27
-8.4418697 -14.83625 0.69544327 1 26
-7.0466046 -13.92574 -0.72700226 9 12
-7.1486526 -14.127411 1.94406 2 29
-8.4287453 -14.813186 1.3913325 4 28
-6.1771884 -13.848166 -0.61777377 12 13
-7.9557085 -13.981841 2.9330397 27 30
-7.0523367 -13.937068 -0.36346331 11 16
-1.7533331 -3.0565436 -1.64314 0 0
-6.2198501 -13.814001 -0.26443887 13 17
-8.0255451 -13.990741 -0.46940488 4 15
-2.5706573 -5.0365057 -1.5829465 2 1
-2.6913486 -4.6917634 -1.0817831 1 2
-7.1974216 -14.101396 0 1 20
-3.9952981 -6.2376781 -0.086237147 0 18
-2.3951795 -4.6927047 -0.81967479 2 3
-2.7898097 -4.8634086 -0.71366805 0 4
-6.9022098 -15.329491 0.097709894 2 21
-8.180069 -14.260118 -0.09554787 1 19
-2.6902897 -5.2708931 -0.63744169 0 5
-3.3617699 -5.248579 -0.58182991 0 6
-7.2118354 -14.129636 0.36913952 1 24
-9.1835756 -14.337901 0.19822437 2 22
-6.9535766 -15.443574 0.49291 1 25
-8.5073137 -14.830596 0.29843614 2 23
-6.2375617 -13.853337 -0.97368968 6 9
-4.1288061 -6.4461184 -0.44581005 0 10
-7.2941694 -14.290947 0.93441039 1 27
-8.4975786 -14.813626 0.69576889 1 26
-7.118783 -13.947325 -0.72942191 9 12
-7.1852856 -14.077619 1.9406476 2 29
-8.4823818 -14.787133 1.3916579 2 28
-6.235332 -13.848386 -0.61875075 12 13
-5.3502593 -10.482382 3.1534514 1 31
-5.0184531 -8.7485495 1.8388896 4 30
-7.1136656 -13.937299 -0.36411467 10 16
-1.7694368 -3.059819 -1.6482112 0 0
-6.2829289 -13.824975 -0.26506716 13 17
-3.6108336 -6.2440758 -0.20991731 1 15
-2.5952759 -5.0412002 -1.5872599 2 1
-2.7136014 -4.6925263 -1.0841365 1 2
-7.8416381 -15.232011 0 1 20
-4.0083723 -6.2102499 -0.08605089 0 18
-2.4079282 -4.6772866 -0.81844497 2 3
-2.8067706 -4.8536401 -0.71366805 1 4
-6.9606476 -15.316228 0.097779647 2 21
-8.2438154 -14.255713 -0.095710598 1 19
-2.6941106 -5.233182 -0.63401455 0 5
-3.3995099 -5.2669272 -0.58517593 0 6
-7.6821036 -14.922122 0.39054158 1 24
-7.0355692 -15.481086 0.49488819 1 25
-8.5530281 -14.790422 0.29822674 2 23
-6.3024006 -13.86782 -0.97624797 6 9
-4.1642771 -6.4517961 -0.44720539 0 10
-7.6126962 -14.787301 0.9685961 1 27
-8.5452394 -14.776954 0.69544327 1 26
-7.1857176 -13.957915 -0.73128313 9 12
-7.9939861 -15.527939 2.1444132 3 29
-8.5159883 -14.726371 1.388729 2 28
-6.2985206 -13.859282 -0.62021619 12 13
-7.2313542 -14.046562 4.2332444 1 31
-5.0686626 -8.7650433 1.8460643 3 30
-7.1805797 -13.947935 -0.36504519 11 16
-1.7782805 -3.0504923 -1.6465209 0 0
-6.3511543 -13.846581 -0.26590487 15 17
-3.6144836 -6.200346 -0.20887004 1 15
-2.6110811 -5.0286918 -1.5861815 3 1
-2.7339146 -4.6898031 -1.0857054 1 2
-7.9187198 -15.250695 0 1 20
-4.0540128 -6.2331033 -0.086563103 0 18
-2.4278824 -4.6758685 -0.81967479 2 3
-2.8276916 -4.8506699 -0.71467817 1 4
-7.0374122 -15.342739 0.09810511 2 21
-8.3217278 -14.275231 -0.096036069 1 19
-2.7178586 -5.2343349 -0.63529974 0 5
-3.4178731 -5.2550292 -0.58517593 0 6
-7.76547 -14.955551 0.39212349 1 24
-9.2507381 -14.223144 0.1975259 14 22
-7.059556 -15.391016 0.49279365 1 25
-8.427352 -14.456422 0.29208347 1 23
-6.3624163 -13.871134 -0.97803879 6 9
-4.2303152 -6.5041709 -0.45185649 0 10
-7.6679454 -14.767727 0.96906132 1 27
-8.5363808 -14.643451 0.69055837 1 26
-7.2435999 -13.950479 -0.7322138 7 12
-8.3926592 -14.396909 1.3604141 1 28
-6.3601871 -13.866274 -0.62151879 10 13
-4.631001 -8.9188633 2.6927533 0 31
-8.1710482 -14.016753 2.9581513 8 30
-7.2494917 -13.961826 -0.36606878 11 16
-1.7870821 -3.0411406 -1.6448303 0 0
-6.409534 -13.846104 -0.26632375 13 17
-3.6077468 -6.13943 -0.20724097 0 15
-2.6143241 -4.9922481 -1.5775551 3 1
-2.7542441 -4.6869941 -1.0872743 1 2
-4.0867095 -6.2356396 -0.086795919 0 18
-2.4496913 -4.6778688 -0.82151949 3 3
-2.8446078 -4.8407693 -0.71467817 1 4
-7.1480603 -15.441495 0.098895527 2 21
-8.3938017 -14.284028 -0.096291795 1 19
-2.7342699 -5.221293 -0.63487136 0 5
-3.3838024 -5.1631203 -0.57625324 0 6
-7.9845948 -15.247183 0.40049824 1 24
-9.27841 -14.157312 0.19706027 20 22
-7.1014853 -15.340881 0.49197912 1 25
-6.4242153 -13.877819 -0.98008537 6 9
-7.728714 -14.758558 0.97022408 1 27
-7.3163528 -13.971125 -0.73463339 3 12
-8.4085302 -14.309092 1.3548813 1 28
-6.4219861 -13.873003 -0.62282145 8 13
-8.2179365 -13.984752 2.9574337 23 30
-7.3074627 -13.954147 -0.36653405 11 16
-1.7945195 -3.0283332 -1.6414495 0 0
-6.4720898 -13.847882 -0.26681238 13 17
-3.589457 -6.0573716 -0.20491372 0 15
-2.5390313 -4.8055334 -1.5214833 1 1
-2.7754023 -4.6836171 -1.0888432 1 2
-4.1183543 -6.2339692 -0.086982176 0 18
-2.4723582 -4.6793437 -0.82336426 4 3
-2.8704209 -4.8439655 -0.71669847 1 4
-7.2012177 -15.407948 0.098849036 2 21
-8.464448 -14.28414 -0.096501015 1 19
-2.7496712 -5.2042036 -0.63401455 0 5
-3.3895307 -5.1307464 -0.57402259 0 6
-7.7882242 -14.740492 0.38793615 1 24
-9.3544846 -14.159921 0.19757247 20 22
-7.1712041 -15.34373 0.49291 1 25
-8.4592247 -14.275325 0.28964013 2 23
-6.486865 -13.879497 -0.98187625 6 9
-7.7958102 -14.75485 0.971852 1 27
-8.4514627 -14.262227 0.67541528 1 26
-3.3169649 -6.2779002 -0.33074322 0 12
-8.4446554 -14.250739 1.3522776 1 28
-6.484632 -13.87472 -0.62396127 8 13
-4.2849779 -8.1100235 2.4577458 1 31
-8.3112631 -14.025633 2.9725008 31 30
-4.872077 -9.2212048 -0.24268107 5 16
-1.8008351 -3.01614 -1.6380684 0 0
-6.5282078 -13.848048 -0.26723126 12 17
-3.593127 -6.0179715 -0.20398283 1 15
-2.5368459 -4.7630892 -1.5107003 1 1
-2.7909186 -4.6743875 -1.0888432 1 2
-8.0479031 -15.11045 0 1 20
-9.4412727 -14.188759 -0.19841063 2 18
-2.4915781 -4.6780963 -0.82459402 4 3
-2.8885028 -4.8378272 -0.71720356 1 4
-7.2488613 -15.376744 0.098802537 2 21
-8.5322752 -14.290336 -0.096733503 1 19
-2.7743924 -5.2090974 -0.63572812 0 5
-3.4881599 -5.2421594 -0.58777833 0 6
-7.961133 -14.947533 0.3940776 1 24
-9.4257631 -14.16545 0.19808468 20 22
-7.2408013 -15.359647 0.49419001 1 25
-8.7668991 -14.683295 0.29850596 2 23
-6.5481758 -13.890405 -0.98417866 6 9
-7.8615909 -14.760636 0.97394496 1 27
-3.337765 -6.2668657 -0.33074322 0 12
-4.4680071 -8.3889666 1.1670209 1 29
-8.7473383 -14.650535 1.3929598 2 28
-6.5459456 -13.885674 -0.62542671 14 13
-4.3154812 -8.1025896 2.4598165 1 31
-8.3779011 -14.031781 2.9796755 28 30
-7.4385366 -13.966325 -0.368209 3 16
-1.8169605 -3.0191541 -1.64314 0 0
-6.591969 -13.85768 -0.26785952 12 17
-2.5461667 -4.7406311 -1.5063872 2 1
-2.8092411 -4.6679778 -1.0896277 1 2
-3.864455 -5.7639461 -0.080789126 0 18
-2.5135033 -4.6798162 -0.82643878 5 3
-2.9135568 -4.8413143 -0.7192238 1 4
-7.29562 -15.3369 0.098709553 2 21
-8.610981 -14.308446 -0.097058967 1 19
-2.7756226 -5.1678481 -0.63187259 0 5
-3.4509907 -5.1472521 -0.57848394 0 6
-9.4996548 -14.169008 0.19859689 20 22
-3.905843 -6.4901476 -0.61837006 0 7
-7.3029604 -15.352331 0.49477184 1 25
-8.8201637 -14.656034 0.29857579 2 23
-6.6154847 -13.907115 -0.98699284 6 9
-8.8121338 -14.64269 0.69625735 3 26
-3.3539486 -6.2446156 -0.33018485 0 12
-8.0665197 -15.01881 2.0932281 3 29
-8.7943144 -14.613081 1.3923091 2 28
-6.6081109 -13.891614 -0.62672937 10 13
-4.3967552 -8.1861868 2.4898393 1 31
-8.4450932 -14.032797 2.9861329 27 30
-1.8307216 -3.0193119 -1.6465209 0 0
-6.6534572 -13.868197 -0.26848781 14 17
-3.5987656 -5.9352527 -0.20200467 1 15
-2.5692084 -4.7457113 -1.5107003 1 1
-2.8308063 -4.6686983 -1.0919812 1 2
-9.5376339 -14.124166 -0.19841063 2 18
-2.53089 -4.674931 -0.82705367 4 3
-2.9275382 -4.8282332 -0.71871877 1 4
-7.3343282 -15.287378 0.098546818 2 21
-8.6915655 -14.334537 -0.097430922 1 19
-2.798425 -5.1691084 -0.63315779 0 5
-4.2392116 -6.2777972 -0.70711851 0 6
-9.580164 -14.187148 0.19929536 20 22
-3.9232101 -6.4703417 -0.61771911 0 7
-7.3451838 -15.310005 0.49419001 1 25
-8.866642 -14.623281 0.29850596 2 23
-6.6684737 -13.899498 -0.98801619 6 9
-8.8564997 -14.606553 0.69593173 3 26
-8.8344574 -14.570201 1.3910071 2 28
-6.6679716 -13.898451 -0.62803197 13 13
-4.4349141 -8.1919479 2.4960508 1 31
-8.5119839 -14.038363 2.9933078 27 30
-4.9765949 -9.1925125 -0.2432394 22 16
-1.8347354 -2.9998894 -1.6397589 0 0
-6.7223525 -13.874941 -0.2691161 14 17
-3.6110978 -5.9043355 -0.20142286 1 15
-2.5874116 -4.7358108 -1.5107003 1 1
-2.8507578 -4.66114 -1.0927656 1 2
-5.0112939 -9.1723089 0 15 20
-4.1329589 -6.0700636 -0.085492119 0 18
-2.5582967 -4.6825209 -0.83012819 5 3
-2.9543364 -4.8304958 -0.72073907 1 4
-7.3859963 -15.244702 0.098453827 2 21
-8.7590637 -14.321531 -0.097570412 1 19
-2.827786 -5.1757746 -0.63529974 0 5
-3.3779027 -4.9611149 -0.56026691 0 6
-5.0099378 -9.1698265 0.24314635 13 24
-9.6683331 -14.19985 0.19999382 20 22
-3.9667461 -6.4858394 -0.62064826 0 7
-7.3969417 -15.267293 0.49372452 1 25
-8.9248133 -14.592541 0.29857579 2 23
-6.7409401 -13.913305 -0.9908303 6 9
-4.9951591 -9.1427765 0.60673887 14 27
-8.9208593 -14.586077 0.69658309 1 26
-3.4943357 -6.3957791 -0.3394911 0 12
-8.9132175 -14.573582 1.3945872 2 28
-6.7369723 -13.905116 -0.62949747 11 13
-3.6920009 -5.4224296 -0.22908029 0 14
-4.5552559 -8.3376102 2.5457442 2 31
-8.592515 -14.049216 3.002635 27 30
-5.0195241 -9.1873732 -0.2436116 10 16
-1.8432938 -2.9903808 -1.6380684 0 0
-6.7865515 -13.883729 -0.2697444 14 17
-3.6190979 -5.871273 -0.20072468 0 15
-2.6057858 -4.7301245 -1.5117787 1 1
-2.8731859 -4.6611776 -1.095119 1 2
-4.2287879 -6.1644425 -0.087028742 0 18
-2.5784409 -4.6804867 -0.83135808 5 3
-2.9753447 -4.82691 -0.72174919 1 4
-7.4303827 -15.20086 0.098337583 2 21
-8.8257933 -14.31811 -0.097756401 1 19
-2.8343222 -5.1449728 -0.63272941 0 5
-3.377176 -4.9230199 -0.5572927 1 6
-9.7404671 -14.198997 0.20045947 17 22
-4.0060978 -6.4991035 -0.62325191 0 7
-7.4378996 -15.216237 0.49291 1 25
-8.9777966 -14.564705 0.29864559 2 23
-6.8017368 -13.914794 -0.99262106 4 9
-4.3032422 -6.2729769 -0.44301936 0 10
-8.9696245 -14.551448 0.69642025 1 26
-4.9865317 -9.0517473 1.2689037 3 29
-5.4934797 -8.9120874 0.85465252 1 28
-6.8012662 -13.913832 -0.63096291 9 13
-3.6995995 -5.3930268 -0.2283823 0 14
-8.6642179 -14.055985 3.0105269 27 30
-7.7162728 -14.006881 -0.37211719 11 16
-1.8518081 -2.9808488 -1.636378 0 0
-6.850893 -13.892236 -0.27037269 12 17
-3.6226919 -5.8314338 -0.1997938 0 15
-2.6278923 -4.7311015 -1.5150136 2 1
-2.8894389 -4.6511192 -1.095119 1 2
-8.0546808 -14.501169 0 1 20
-2.6005206 -4.6818233 -0.83320272 4 3
-2.9963639 -4.823236 -0.72275937 1 4
-7.4833984 -15.174829 0.098337583 2 21
-8.8968277 -14.321191 -0.097988874 1 19
-2.8464711 -5.1246176 -0.63144428 0 5
-8.1146374 -14.609112 0.38886666 1 24
-9.8081646 -14.191232 0.20083198 5 22
-7.4838953 -15.175837 0.49244457 1 25
-9.039134 -14.550261 0.2989946 1 23
-3.1302898 -6.347599 -0.45358691 0 9
-4.3092203 -6.2349219 -0.4413915 0 10
-8.2504683 -14.853654 0.98952621 1 27
-9.0351267 -14.543811 0.69756007 1 26
-9.0273676 -14.531321 1.3965399 2 28
-6.8639345 -13.91868 -0.63226551 9 13
-3.7138567 -5.3735027 -0.22810312 0 14
-5.0054588 -9.0115309 2.7621171 5 31
-5.1602426 -8.3064241 1.7829266 2 30
-7.7845378 -14.014819 -0.37304774 11 16
-1.8707762 -2.9903834 -1.6448303 0 0
-6.9069619 -13.895716 -0.27086136 12 17
-3.6261482 -5.7962966 -0.19897924 0 15
-2.6408608 -4.7194614 -1.5139352 2 1
-2.9123569 -4.6553211 -1.0982569 1 2
-8.117774 -14.50721 0 1 20
-2.6113553 -4.6667323 -0.83197296 5 3
-3.0136046 -4.8171625 -0.7232644 1 4
-7.1126418 -14.30951 0.092874385 2 21
-8.9735918 -14.344035 -0.098337583 1 19
-2.8606133 -5.1121793 -0.63101584 0 5
-3.4233994 -4.9201288 -0.55952334 4 6
-8.1780653 -14.614955 0.38970414 1 24
-12.619127 -18.136278 0.25722137 13 22
-4.0427685 -6.4622526 -0.62227553 0 7
-7.1044126 -14.292955 0.46451765 1 25
-9.1293411 -14.592996 0.30046064 1 23
-4.2877326 -6.162353 -0.43720546 0 10
-8.3204889 -14.869479 0.9923169 1 27
-9.0744104 -14.505192 0.69707155 1 26
-9.0941143 -14.536688 1.3997945 2 28
-6.9218569 -13.925682 -0.63356817 9 13
-3.7124531 -5.3355579 -0.22698632 1 14
-8.8094234 -14.081616 3.0284638 21 30
-7.8441467 -14.018212 -0.37379214 11 16
-1.8817241 -2.9835067 -1.6448303 0 0
-6.9739857 -13.902482 -0.27148965 12 17
-3.6345713 -5.7626767 -0.19828108 0 15
-2.6676073 -4.7265229 -1.5193268 2 1
-2.9419544 -4.6645207 -1.1029637 1 2
-8.1984167 -14.526128 0 1 20
-2.6381559 -4.6743402 -0.83504748 5 3
-3.0354741 -4.8127975 -0.72427452 1 4
-7.1309648 -14.215416 0.092432678 2 21
-9.0538464 -14.355033 -0.098639801 1 19
-2.8871505 -5.1155143 -0.63272941 0 5
-3.4459834 -4.9140706 -0.56026691 2 6
-12.724555 -18.145578 0.25801298 13 22
-4.0834413 -6.4743681 -0.62487918 0 7
-3.1483645 -6.2761931 -0.45000529 0 9
-4.3171687 -6.156405 -0.43790314 0 10
-9.1467037 -14.50226 0.69853705 1 26
-5.0072737 -8.8719931 1.2508671 2 29
-9.1366997 -14.486399 1.3981671 4 28
-6.9871869 -13.928798 -0.63487083 13 13
-3.7388699 -5.3317351 -0.22740512 2 14
-5.2907691 -9.3742962 2.8842795 2 31
-8.8777704 -14.075862 3.0342035 31 30
-7.9151306 -14.024196 -0.37472269 12 16
-1.8901825 -2.9738607 -1.64314 0 0
-7.038723 -13.91017 -0.27211791 14 17
-3.6482303 -5.7398314 -0.197932 0 15
-2.6878994 -4.7238779 -1.5214833 5 1
-3.0550029 -4.8064947 -1.1390493 0 2
-8.2668762 -14.528711 0 1 20
-2.6603203 -4.6754088 -0.83689225 4 3
-3.0565128 -4.8088703 -0.72528476 1 4
-7.1534524 -14.136902 0.092083968 2 21
-9.1210661 -14.350349 -0.09882579 1 19
-2.9069562 -5.1088614 -0.63315779 0 5
-3.4723074 -4.9150229 -0.56175399 3 6
-8.4485617 -14.848017 0.39752057 3 24
-12.822435 -18.150053 0.25871146 13 22
-4.0910468 -6.4365225 -0.62260097 0 7
-9.1305561 -14.365281 0.29710975 1 23
-4.3063745 -6.0956378 -0.43464735 0 10
-8.4326038 -14.81997 0.99301451 1 27
-9.1543922 -14.402782 0.69528037 1 26
-8.4447966 -14.841398 2.0966403 3 29
-9.114501 -14.340019 1.3871017 2 28
-7.0556135 -13.94355 -0.63666189 11 13
-3.7366991 -5.2892671 -0.22614875 2 14
-5.0139112 -8.8117523 2.7165647 1 31
-8.9542923 -14.087961 3.0435307 18 30
-7.9818344 -14.027761 -0.37556016 11 16
-1.9044625 -2.9733496 -1.6465209 0 0
-7.1072373 -13.924698 -0.27288583 12 17
-3.6596184 -5.7135935 -0.19746654 0 15
-2.7043729 -4.7144661 -1.5214833 7 1
-3.1352286 -4.8948884 -1.1625835 0 2
-8.379241 -14.607324 0 1 20
-2.680558 -4.6729503 -0.83812201 3 3
-3.081841 -4.8115363 -0.727305 1 4
-7.204576 -14.115407 0.092107214 2 21
-2.9346662 -5.115931 -0.63529974 0 5
-3.4894435 -4.9028716 -0.56175399 1 6
-8.4983511 -14.814965 0.3974275 3 24
-12.922823 -18.15732 0.25945646 9 22
-4.1199408 -6.4322739 -0.62357736 0 7
-7.2361846 -14.177335 0.46323767 1 25
-4.3183651 -6.067555 -0.43371713 0 10
-8.4882593 -14.797373 0.99347967 1 27
-7.1224141 -13.954432 -0.63829023 11 13
-3.7597759 -5.2827048 -0.22642794 2 14
-9.0373735 -14.109635 3.0550106 18 30
-8.0566196 -14.044906 -0.37676984 11 16
-1.9064505 -2.954833 -1.6397589 0 0
-7.1680145 -13.929503 -0.27344432 12 17
-3.6720424 -5.6913476 -0.19711746 0 15
-2.725775 -4.715477 -1.5247183 8 1
-3.1386847 -4.8646894 -1.1578766 0 2
-8.6218119 -14.915374 0 1 20
-2.7019737 -4.6743011 -0.83996677 2 3
-3.1128385 -4.8246298 -0.7308405 1 4
-7.9395099 -15.42874 0.10084834 2 21
-9.2185354 -14.28793 -0.09882579 11 19
-2.9396739 -5.0855131 -0.63272941 0 5
-3.5288839 -4.9236441 -0.56547171 0 6
-8.555438 -14.80055 0.3977997 3 24
-13.029565 -18.179386 0.26038778 13 22
-4.0958591 -6.3482261 -0.61674273 0 7
-7.6764965 -14.91763 0.48825553 1 25
-9.2086134 -14.272552 0.29648149 9 23
-3.6475649 -5.0892324 -0.36464795 0 10
-8.5512724 -14.793344 0.99510759 1 27
-9.2175484 -14.286402 0.69267517 12 26
-4.162324 -6.4512415 -0.40235886 0 11
-5.2573175 -9.0949392 1.2898653 3 29
-7.18328 -13.959168 -0.63959289 9 13
-3.7749445 -5.2669578 -0.22628833 1 14
-9.1033144 -14.109348 3.0614676 22 30
-8.1231632 -14.052733 -0.37770033 6 16
-1.9231974 -2.9569426 -1.6448303 0 0
-7.2356081 -13.935081 -0.27407259 12 17
-3.6623578 -5.6309257 -0.19548839 0 15
-2.7430398 -4.7054548 -1.5247183 9 1
-3.1479394 -4.8400006 -1.1547388 1 2
-8.6421757 -14.824927 0 1 20
-13.210864 -18.290386 -0.26266941 2 18
-2.723069 -4.671196 -0.8411966 2 3
-3.1348279 -4.8198409 -0.73185068 1 4
-4.8164048 -9.2759295 0.060746126 1 21
-9.2512121 -14.223866 -0.098616555 16 19
-2.966305 -5.0884476 -0.63444299 0 5
-3.5539024 -4.9203629 -0.56658709 0 6
-8.5975428 -14.748364 0.39724138 3 24
-13.13358 -18.183388 0.26113281 13 22
-4.1430092 -6.3699336 -0.62032282 0 7
-7.8379879 -15.095206 0.49500453 1 25
-9.2368755 -14.201824 0.29571357 11 23
-3.6498265 -5.0531697 -0.36302009 0 10
-8.5551577 -14.675654 0.98929363 1 27
-9.2371635 -14.202267 0.69023275 10 26
-4.1314931 -6.3522277 -0.39712527 0 11
-5.3226089 -9.1304893 1.2976649 3 29
-9.2120008 -14.163578 1.3792907 12 28
-7.2491293 -13.961122 -0.64089549 13 13
-3.7918832 -5.2498465 -0.22614875 1 14
-5.4133573 -9.2861605 2.8801384 2 31
-9.1828585 -14.118772 3.0707948 6 30
-3.6553154 -6.2703872 -0.1688904 1 16
-1.9369649 -2.9566138 -1.6482112 1 0
-7.2947578 -13.935815 -0.27456126 10 17
-3.7073019 -5.6588845 -0.19688474 0 15
-2.7683825 -4.7129402 -1.5301098 12 1
-3.1252811 -4.7704787 -1.1406183 1 2
-8.446147 -14.37886 0 1 20
-13.271439 -18.246479 -0.26266941 2 18
-2.7425468 -4.6689572 -0.84242648 2 3
-3.1464434 -4.8027811 -0.7308405 1 4
-8.0117788 -15.305603 0.10040663 2 21
-9.296134 -14.189767 -0.09859331 14 19
-2.9912186 -5.0922999 -0.6361565 0 5
-3.5795689 -4.9214354 -0.56807423 0 6
-13.238502 -18.201195 0.26201752 13 22
-4.168478 -6.3628306 -0.62097371 0 7
-7.7526364 -14.81054 0.4865101 1 25
-9.2817249 -14.167772 0.29564378 13 23
-8.4399509 -14.368312 0.97045666 1 27
-9.2710648 -14.1515 0.68925577 13 26
-4.2225819 -6.445416 -0.4038243 0 11
-9.2589149 -14.132955 1.3792907 14 28
-7.3139176 -13.972417 -0.64252377 11 13
-3.7951612 -5.2178469 -0.22531116 1 14
-5.4441195 -9.2681589 2.8801384 1 31
-3.6801381 -6.2651277 -0.1690765 1 16
-1.9392855 -2.9377325 -1.6414495 0 0
-4.8675685 -9.220458 -0.18199369 4 17
-3.7160201 -5.6292238 -0.19630292 0 15
-2.7848179 -4.7032471 -1.5301098 6 1
-8.4697971 -14.304542 0 1 20
-13.391791 -18.277472 -0.26378697 3 18
-2.7688978 -4.6763597 -0.84550101 2 3
-3.1763065 -4.8116369 -0.73387092 1 4
-7.8877611 -14.9415 0.098198093 2 21
-9.369853 -14.19395 -0.098849036 8 19
-2.982636 -5.0373392 -0.63058752 0 5
-13.344513 -18.212944 0.26285568 13 22
-7.828558 -14.829353 0.4880228 1 25
-9.3619728 -14.182013 0.29662108 13 23
-3.6770573 -5.0185452 -0.36232242 1 10
-8.4514008 -14.273474 0.96603805 1 27
-9.3446302 -14.15574 0.69104689 13 26
-5.0427847 -8.5167007 1.2152811 0 29
-9.3389444 -14.147126 1.3838471 8 28
-4.8642745 -9.2142191 -0.42449555 2 13
-3.8228042 -5.2174644 -0.22586954 1 14
-8.3937969 -14.176187 4.4144182 2 31
-9.3329468 -14.138042 3.0887318 19 30
-3.6775377 -6.2109509 -0.16795987 0 16
-1.9550381 -2.9403422 -1.6465209 0 0
-7.4232664 -13.949389 -0.27581784 12 17
-3.7213838 -5.5968943 -0.19560476 0 15
-2.7944777 -4.6840625 -1.5268748 4 1
-3.155509 -4.7458286 -1.1398338 1 2
-8.5069361 -14.259202 0 1 20
-13.452325 -18.232965 -0.26378697 3 18
-2.7904637 -4.6773348 -0.84734565 2 3
-3.1966386 -4.8076868 -0.7348811 1 4
-8.0537663 -15.134188 0.09963946 2 21
-3.0196991 -5.0615754 -0.63487136 0 5
-13.442825 -18.220091 0.26360071 13 22
-4.9399905 -9.2829542 0.30603242 0 25
-9.4333076 -14.187526 0.297389 13 23
-3.7126443 -5.0320315 -0.36418286 1 10
-8.6991835 -14.581445 0.9888286 1 27
-9.4136477 -14.157956 0.69267517 13 26
-9.4145002 -14.15924 1.3880781 14 28
-4.9135771 -9.2333202 -0.42612386 7 13
-3.8377106 -5.2015433 -0.22572996 1 14
-4.8419542 -8.1160135 2.5322857 0 31
-9.4015656 -14.139786 3.0959065 13 30
-3.6591852 -6.1334729 -0.16619188 0 16
-1.963784 -2.930145 -1.6448303 0 0
-4.9545221 -9.2285357 -0.18283142 8 17
-3.7374215 -5.5765738 -0.19537203 0 15
-2.8215563 -4.6902928 -1.5322665 2 1
-3.1816173 -4.7472634 -1.1429716 1 2
-8.9467907 -14.872313 0 2 20
-13.698047 -18.424271 -0.2672793 3 18
-2.8116643 -4.6738496 -0.84857553 2 3
-3.2297022 -4.8190107 -0.73841655 1 4
-9.5221615 -14.207934 -0.099406973 1 19
-3.0443814 -5.0606966 -0.6361565 0 5
-3.5786331 -4.813365 -0.5598951 1 6
-8.81038 -14.645556 0.39770666 3 24
-13.554862 -18.231682 0.26448542 14 22
-9.5186453 -14.202688 0.29843614 13 23
-3.7382119 -5.0280032 -0.36488053 2 10
-9.4944038 -14.166517 0.69479191 13 26
