# .PCD v0.7 - Point Cloud Data file format
VERSION 0.7
FIELDS x y z intensity ring
SIZE 4 4 4 4 2
TYPE F F F F U
COUNT 1 1 1 1 1
WIDTH 1350
HEIGHT 1
VIEWPOINT 0 0 0 1 0 0 0
POINTS 1350
DATA ascii
7.0952592 19.557764 3.7932928 5 30
6.041049 19.588066 -0.47698745 6 16
5.0705519 19.55007 -0.35253862 6 17
7.182127 19.583717 -0.60706133 2 15
1.6899003 5.4123368 -1.5872599 2 1
2.7239883 7.4275789 -1.5822746 1 2
6.1074605 19.560701 0 5 20
8.3061476 19.625181 -0.24809477 2 18
2.9355609 9.4018831 -1.5323552 18 3
3.8459568 10.486884 -1.4217802 7 4
5.0692306 19.544973 0.11735417 6 21
7.1974416 19.625477 -0.12149225 2 19
3.2738214 10.485249 -1.1832082 7 5
6.8115735 16.093906 -1.6313543 1 6
6.108192 19.563044 0.47689441 5 24
8.2983532 19.606764 0.24786197 4 22
3.6034603 11.541001 -0.84544849 1 8
4.2278976 11.528333 -1.0024104 1 7
5.0711856 19.552513 0.58786148 5 25
7.190958 19.607798 0.36454585 2 23
2.9794414 11.487563 -0.7605831 1 9
8.3097811 19.633764 -1.241617 7 10
6.107841 19.56192 1.193478 12 27
7.1819644 19.583275 0.8498053 2 26
3.5964382 11.518512 -0.562096 1 12
7.2014523 19.636412 -1.0961243 3 11
7.180563 19.579453 1.7024704 2 28
2.9770591 11.478378 -0.48311406 2 13
8.3203478 19.658731 -0.74545324 3 14
6.0789943 19.46953 5.4652233 28 31
7.1770315 19.569824 3.8004675 5 30
6.1165347 19.589764 -0.47754577 4 16
5.144875 19.555456 -0.35295746 6 17
7.2615666 19.58852 -0.60799217 4 15
1.7099448 5.4100776 -1.588338 2 1
2.7526271 7.4253798 -1.5838434 1 2
6.1829405 19.562145 0 2 20
8.3856096 19.621809 -0.24842072 2 18
2.9635994 9.376503 -1.5298955 18 3
3.8866801 10.484557 -1.4232955 10 4
5.1415009 19.542631 0.11744716 6 21
7.2714696 19.615232 -0.12158523 2 19
3.3128014 10.481339 -1.1840651 7 5
6.8755407 16.088341 -1.6332133 1 6
6.1860886 19.572105 0.47763881 5 24
8.3918962 19.63652 0.24860698 4 22
3.6365116 11.505524 -0.84377432 1 8
7.2765837 19.629028 -1.7089796 2 7
5.1383944 19.530825 0.58774513 3 25
7.2760453 19.627577 0.3653836 2 23
8.3908234 19.634008 -1.2434775 3 10
6.1821094 19.559515 1.1946406 5 27
7.2613974 19.588064 0.8511079 2 26
6.1715527 19.526115 2.5144086 4 29
7.2654972 19.599123 1.7063758 2 28
5.149529 19.573145 -0.82456672 6 13
4.9375262 11.553507 -0.43875647 1 14
6.1527457 19.466612 5.4703999 28 31
7.2576146 19.577858 3.8069248 5 30
6.1933198 19.594984 -0.47819713 4 16
5.2240496 19.551016 -0.35323673 6 17
7.3493595 19.594187 -0.60903943 4 15
1.7307042 5.4034719 -1.588338 2 1
2.7811162 7.4147563 -1.5838434 1 2
6.2763057 19.595402 0 5 20
8.4719877 19.615173 -0.24874669 2 18
3.0019896 9.3725824 -1.5311253 20 3
3.9296935 10.476987 -1.4243057 10 4
5.219594 19.53434 0.11751691 6 21
7.3621802 19.628368 -0.12184097 2 19
3.3590856 10.48748 -1.1862069 7 5
4.9838367 11.539066 -1.173326 1 6
6.2721682 19.582481 0.47847629 5 24
8.4767447 19.626188 0.24888638 4 22
6.1149592 19.091658 -1.401826 2 8
7.3672957 19.642006 -1.7125595 2 7
5.2216015 19.541853 0.58867604 3 25
7.3583746 19.618221 0.36573264 2 23
5.2275438 19.564093 -1.2978265 8 9
8.4883137 19.652973 -1.2467332 7 10
6.27178 19.58127 1.1974313 5 27
7.3435698 19.578751 0.85192209 2 26
6.2780395 19.600815 -0.95872724 5 12
7.3620343 19.627979 -1.0986365 3 11
6.256166 19.532522 2.5183084 9 29
7.3518949 19.600946 1.7089796 2 28
5.2308311 19.576397 -0.8255437 6 13
8.4880056 19.65226 -0.74754721 7 14
6.233335 19.461241 5.4755759 28 31
7.3410215 19.571957 3.8112297 5 30
6.2758274 19.593908 -0.47875544 4 16
5.296443 19.548103 -0.35351595 6 17
7.427628 19.594585 -0.60985398 2 15
1.7519296 5.404727 -1.5904946 2 1
2.8069801 7.405004 -1.5838434 1 2
8.5595846 19.629478 -0.24930544 2 18
3.0371237 9.3695679 -1.5323552 23 3
3.9718647 10.478048 -1.4263259 12 4
5.2929764 19.535309 0.11763315 6 21
7.4405713 19.628731 -0.1220037 2 19
3.3981237 10.483258 -1.1870638 6 5
6.9694028 15.982753 -1.6276367 1 6
8.5595846 19.629478 0.24930544 4 22
6.1778693 19.058811 -1.4009891 2 8
4.3735905 11.537827 -1.0072923 1 7
5.2970996 19.550526 0.58949059 3 25
7.4353113 19.614857 0.36615151 2 23
5.2978878 19.553434 -1.2983382 4 9
7.4260297 19.59037 0.85355031 2 26
6.3501134 19.590185 -0.95928568 2 12
4.3623037 11.508053 -0.64498836 1 11
7.42168 19.578896 1.709305 2 28
3.113631 11.491784 -0.48506799 1 13
8.5725269 19.659159 -0.74894321 7 14
6.3071823 19.457743 5.480752 28 31
7.4176607 19.568293 3.8155346 5 30
6.3540454 19.602318 -0.47949988 4 16
5.3641829 19.554506 -0.35393479 6 17
7.492013 19.578621 -0.61008668 2 15
1.7641048 5.3845539 -1.5861815 2 1
2.835839 7.4108014 -1.5869812 1 2
6.4198289 19.595158 0 31 20
8.6405392 19.646423 -0.24986422 2 18
3.0739298 9.382515 -1.5360447 29 3
4.0118566 10.484048 -1.4288514 9 4
5.3638515 19.553299 0.11784237 3 21
7.5079246 19.620201 -0.1220967 2 19
3.4335203 10.480088 -1.1879206 6 5
5.0570507 11.498467 -1.1725824 1 6
8.6357088 19.635441 0.24972454 4 22
3.7667322 11.497148 -0.84600651 1 8
7.5159287 19.641119 -1.7167904 2 7
5.3616714 19.545353 0.5898397 3 25
7.5069079 19.617546 0.36664015 2 23
5.3687997 19.571337 -1.3006406 4 9
6.4077263 19.558218 1.1985941 27 27
7.4946856 19.585606 0.85436451 2 26
6.4402428 19.657469 -0.96356648 2 12
7.5177479 19.645874 -1.1024047 6 11
6.3966975 19.524555 2.5226955 41 29
7.5002556 19.600161 1.7132106 2 28
5.37747 19.602943 -0.82814902 6 13
5.0807705 11.5524 -0.44071084 1 14
6.3779082 19.467205 5.4890342 29 31
7.4959822 19.588993 3.8241444 5 30
6.4218268 19.601257 -0.47996515 4 16
5.4390392 19.546272 -0.35414425 6 17
7.58248 19.599504 -0.61159939 4 15
1.7850425 5.3817077 -1.5872599 2 1
2.8573229 7.385725 -1.5838434 1 2
6.4903512 19.567699 0 28 20
8.7238598 19.640205 -0.25019017 2 18
3.1107888 9.3786879 -1.5372744 15 3
4.0574164 10.487776 -1.4313766 10 4
5.4397759 19.54892 0.11793537 3 21
7.5956659 19.633587 -0.12235242 2 19
3.4769197 10.482533 -1.1896341 6 5
5.1234145 11.53445 -1.1781591 2 6
6.4923716 19.57379 0.47987205 27 24
8.7238598 19.640205 0.25019017 4 22
6.3175139 19.046614 -1.4032212 2 8
6.5867028 17.025579 -1.4902717 2 7
5.4407806 19.55253 0.59065419 3 25
7.5989656 19.642117 0.36761749 2 23
5.4512024 19.589983 -1.3031989 8 9
8.722662 19.637508 -1.2513844 3 10
6.4894295 19.56492 1.2004546 32 27
7.5808454 19.59528 0.85599279 2 26
7.5940309 19.62936 -1.1030327 3 11
6.4744706 19.519821 2.5251331 37 29
7.5778008 19.58741 1.7145122 2 28
8.7434788 19.684374 -0.75215399 3 14
6.4553032 19.462032 5.4942107 29 31
6.6178622 17.106121 3.3441532 4 30
6.5049615 19.611748 -0.4808026 4 16
5.5114179 19.555075 -0.35463291 6 17
6.684226 17.10885 -0.53456765 1 15
1.8028778 5.3757591 -1.5872599 2 1
2.8860798 7.3871694 -1.5861968 1 2
6.5653749 19.576408 0 26 20
8.7987518 19.633072 -0.25046957 2 18
3.1368434 9.3533316 -1.5348148 11 3
4.0950589 10.481655 -1.4323869 9 4
5.5078235 19.542322 0.1180051 3 21
3.5167174 10.486027 -1.1913477 5 5
7.1031499 15.849596 -1.6213164 1 6
6.5661407 19.578691 0.48052341 32 24
8.7987518 19.633072 0.25046957 4 22
6.3679476 18.987726 -1.4004309 2 8
4.5090251 11.541237 -1.0115231 3 7
5.5120935 19.557472 0.5913524 3 25
5.5182977 19.579485 -1.3037106 8 9
8.813859 19.666782 -1.2551053 7 10
6.5656977 19.57737 1.2025477 30 27
6.5785918 19.615818 -0.96375269 2 12
4.4989276 11.515391 -0.64791918 1 11
6.5467348 19.520828 2.5280578 37 29
5.5152779 19.568771 -0.82831186 3 13
8.8185101 19.67716 -0.7529915 7 14
6.5296297 19.469826 5.5024929 29 31
6.5775847 19.612816 -0.48136091 4 16
5.5862298 19.558792 -0.35505179 6 17
1.8228682 5.3730812 -1.588338 2 1
2.914727 7.3843474 -1.5877658 1 2
6.6465168 19.591253 0 26 20
8.8870077 19.645971 -0.25102833 2 18
3.1694717 9.3423252 -1.5348148 8 3
4.1345329 10.474679 -1.4333969 9 4
5.5814939 19.54221 0.11812135 3 21
6.7583923 17.122126 -0.10698572 11 19
3.5571303 10.484987 -1.1926328 5 5
7.1748443 15.860995 -1.6250342 1 6
6.6460028 19.589737 0.48136091 32 24
8.8837109 19.638683 0.2509352 4 22
3.9010215 11.49864 -0.84907579 1 8
6.7639093 17.136103 -1.5039411 4 7
5.5902061 19.572714 0.5923996 3 25
6.7530723 17.108646 0.32105449 4 23
3.2789512 11.480431 -0.7651881 1 9
8.8890343 19.650452 -1.2560354 3 10
6.6416879 19.577021 1.2039429 32 27
3.9088788 11.5218 -0.5667491 2 12
6.6237602 19.524178 2.5314703 37 29
3.2763689 11.47139 -0.48604497 1 13
5.2327681 11.567764 -0.44336322 1 14
6.6049962 19.468868 5.5087047 29 31
6.6537113 19.612461 -0.48191923 4 16
5.6623335 19.553551 -0.355331 6 17
1.840049 5.3590779 -1.5861815 2 1
2.9403207 7.3699713 -1.5869812 1 2
6.7221799 19.57811 0 18 20
8.9672689 19.631456 -0.25126114 2 18
3.2024109 9.3269081 -1.5342 8 3
4.1831923 10.485253 -1.4369324 6 4
5.6608753 19.548515 0.11828408 3 21
3.5981219 10.479402 -1.1934896 6 5
5.2737036 11.545375 -1.1848511 2 6
6.7203608 19.572811 0.481547 15 24
8.9739161 19.646008 0.25144741 4 22
6.5010676 18.93413 -1.3998729 2 8
7.8475003 19.669912 -1.7288325 2 7
5.6630235 19.555935 0.59251601 3 25
5.6726975 19.589342 -1.3070364 8 9
6.7198868 19.571432 1.2051057 27 27
6.7068844 19.533564 2.5358574 41 29
7.8209081 19.60326 1.7229742 2 28
8.9873266 19.675367 -0.75536472 3 14
6.6876073 19.477419 5.5180225 29 31
7.810071 19.576096 3.8427987 5 30
6.7333474 19.610636 -0.48247755 4 16
5.7339005 19.55769 -0.35574985 6 17
7.9027877 19.619192 -0.6155557 2 15
1.8565487 5.3493066 -1.5851032 3 1
2.9676776 7.3674555 -1.5885502 2 2
9.0574331 19.656097 -0.25195962 2 18
3.2333248 9.3162355 -1.5342 4 3
4.2238731 10.486045 -1.4389528 7 4
5.730176 19.544987 0.11837706 6 21
7.9194508 19.660561 -0.12318933 2 19
3.6406794 10.489954 -1.1960599 6 5
7.2554054 15.745405 -1.6183422 1 6
9.04739 19.634302 0.25168023 4 22
6.5625162 18.908693 -1.3995939 2 8
5.7345972 19.560066 0.59321415 1 25
7.9094124 19.635639 0.36950234 4 23
5.7432475 19.589573 -1.3083155 8 9
9.0377121 19.613298 -1.2576635 10 10
6.7978487 19.586761 1.2074313 30 27
7.8995805 19.611231 0.86136615 2 26
6.8033013 19.602472 -0.96654451 5 12
4.6491218 11.541752 -0.65210611 1 11
6.7794385 19.533716 2.5387824 41 29
7.8933263 19.595705 1.7246015 2 28
5.7457628 19.59815 -0.83205688 6 13
9.0675859 19.678129 -0.75662106 3 14
6.7610331 19.480684 5.5252695 29 31
7.8881831 19.582935 3.8492558 5 30
6.8049021 19.607084 -0.48294279 4 16
5.8112302 19.568233 -0.35630831 6 17
7.9757295 19.602604 -0.61590481 2 15
1.876482 5.3464293 -1.5861815 2 1
2.9904151 7.3497877 -1.5869812 2 2
6.8738246 19.584742 0 5 20
9.1344099 19.642502 -0.25219244 2 18
3.2592738 9.2862473 -1.5311253 2 3
4.2679205 10.489617 -1.4414781 7 4
5.8040466 19.544043 0.1184933 3 21
7.9940467 19.647623 -0.12328233 4 19
3.6825354 10.492195 -1.1977736 6 5
7.3220677 15.745268 -1.6209446 1 6
6.8799105 19.602083 0.48340806 2 24
4.0436821 11.521166 -0.85381925 1 8
7.9962234 19.652973 -1.732087 2 7
5.8096557 19.562931 0.5939123 1 25
7.9884419 19.633848 0.369991 4 23
3.4148998 11.499038 -0.76876968 1 9
9.11621 19.603363 -1.2590587 3 10
6.870132 19.574221 1.2081289 27 27
7.9845428 19.624266 0.86315721 2 26
4.0438728 11.521709 -0.56879646 1 12
7.9952693 19.650629 -1.1118252 6 11
6.8567734 19.536161 2.5421946 37 29
7.9796963 19.612352 1.728507 2 28
3.4156563 11.501584 -0.48881307 2 13
5.3704715 11.548584 -0.44475919 1 14
6.8366561 19.478844 5.5314808 26 31
7.9698257 19.588093 3.8557129 5 30
6.8865323 19.620949 -0.48387334 4 16
5.8864174 19.570807 -0.35672718 6 17
8.05931 19.611626 -0.61706841 2 15
1.8951343 5.3398461 -1.5861815 2 1
3.0175452 7.3429317 -1.5877658 1 2
6.9488401 19.579475 0 2 20
9.2199163 19.646704 -0.25265807 2 18
3.291671 9.2748137 -1.5311253 1 3
4.3135619 10.496675 -1.4445086 6 4
5.8883662 19.577288 0.11881877 3 21
8.0762691 19.652893 -0.12349156 4 19
3.7257907 10.498015 -1.1999154 6 5
5.421072 11.551752 -1.1911713 2 6
6.9549847 19.59679 0.48387334 2 24
9.2216158 19.650324 0.25270465 35 22
4.0905495 11.525782 -0.85521436 1 8
8.0829649 19.669188 -1.7359924 3 7
5.8836708 19.561676 0.59449416 3 25
8.0645342 19.624338 0.37034008 4 23
5.4201617 11.549813 -0.74301672 2 10
6.9477711 19.576464 1.2097569 27 27
8.0636339 19.622147 0.86429703 4 26
6.9680414 19.633579 -0.97045314 7 12
8.0729284 19.644764 -1.1130812 6 11
6.9342251 19.538296 2.5456071 38 29
8.0572052 19.606503 1.7304598 2 28
5.8927951 19.59201 -0.83352238 6 13
9.2386999 19.686729 -0.759413 3 14
6.9149508 19.483988 5.539763 26 31
8.0516195 19.592911 3.8621705 5 30
6.9643474 19.623171 -0.4845247 4 16
5.9628491 19.576921 -0.35721585 6 17
8.1415091 19.61661 -0.61811566 2 15
1.9137614 5.3331985 -1.5861815 2 1
3.0446606 7.3359766 -1.5885502 1 2
7.0347023 19.604044 0 2 20
9.3141146 19.668625 -0.25335655 2 18
3.3266947 9.2707081 -1.5323552 2 3
4.3516951 10.485219 -1.4450135 4 4
5.9578295 19.560442 0.11884203 3 21
8.158618 19.657831 -0.12370078 4 19
3.7664406 10.496176 -1.2012006 6 5
7.4198809 15.66857 -1.6183422 1 6
7.0355 19.606268 0.48471078 2 24
9.3072662 19.654163 0.25317028 35 22
6.7574573 18.831429 -1.3990359 2 8
4.7925248 11.547379 -1.0206361 3 7
5.9623985 19.575441 0.59554142 3 25
8.1483145 19.633007 0.37103814 4 23
5.9689937 19.597095 -1.3129206 12 9
9.2733536 19.582548 -1.2618494 3 10
7.0241513 19.574642 1.2111522 27 27
8.147397 19.630796 0.86592537 2 26
7.0446272 19.631702 -0.9715699 5 12
4.789628 11.5404 -0.65482759 1 11
7.0144496 19.547606 2.5499945 38 29
8.1393452 19.611397 1.7333889 2 28
5.9669652 19.590437 -0.83433646 6 13
9.3210478 19.683266 -0.76052988 3 14
6.9907465 19.48155 5.5459747 29 31
8.1275015 19.582859 3.8657579 5 30
7.042253 19.625088 -0.48517606 4 16
6.0348091 19.579971 -0.35763472 6 17
8.2235146 19.630068 -0.61939567 2 15
1.9301249 5.3232012 -1.5851032 2 1
3.0704885 7.3294568 -1.5893346 1 2
7.1064959 19.599411 0 2 20
9.3913593 19.662893 -0.25368249 2 18
3.3574216 9.2596245 -1.5323552 2 3
4.3910437 10.481709 -1.4465288 4 4
6.0273795 19.555864 0.11893501 3 21
8.229948 19.645426 -0.12379377 4 19
3.8066521 10.498583 -1.2029141 5 5
7.4597883 15.618721 -1.6157398 1 6
7.1100249 19.609144 0.48536214 2 24
9.3896341 19.659281 0.25363591 35 22
4.1961122 11.572697 -0.86079484 1 8
8.2505522 19.694611 -1.7431526 3 7
6.0308189 19.567024 0.59589052 4 25
8.2288332 19.642763 0.37173626 4 23
6.0398316 19.596266 -1.3141996 8 9
5.5502844 11.62075 -0.74999344 2 10
7.0971975 19.573765 1.2125475 30 27
8.2186317 19.618412 0.86657661 2 26
4.18682 11.54707 -0.57214671 1 12
8.2357855 19.659361 -1.1170588 3 11
7.0860047 19.542896 2.5524316 38 29
8.213582 19.606359 1.7353417 2 28
3.5480397 11.511634 -0.49076703 1 13
5.52529 11.56842 -0.44769076 1 14
7.0645361 19.483686 5.5532217 29 31
8.2106466 19.599352 3.8743672 6 30
7.1141148 19.620422 -0.48564133 4 16
6.1102629 19.581694 -0.35805357 3 17
8.302886 19.62702 -0.62021023 4 15
1.9486934 5.3164315 -1.5851032 3 1
3.0975809 7.3223076 -1.5901192 1 2
7.1831231 19.597019 0 2 20
9.4807701 19.673229 -0.25424126 2 18
3.3910816 9.2515593 -1.5329701 2 3
4.4322405 10.477282 -1.4480441 4 4
6.1051331 19.565254 0.11912099 3 21
8.3187275 19.664469 -0.12409599 4 19
3.848748 10.500167 -1.2046276 6 5
5.5622115 11.54196 -1.1960044 1 6
7.1811795 19.591717 0.48554829 2 24
9.4772968 19.666023 0.25414813 35 22
4.2131348 11.494288 -0.85605145 1 8
8.3223505 19.673033 -1.7438035 3 7
6.1109891 19.584021 0.59705412 4 25
8.3098097 19.643389 0.37229472 4 23
6.121274 19.616982 -1.3170137 4 9
5.5734763 11.565334 -0.74766785 2 10
7.1764698 19.578867 1.2144079 31 27
8.3026304 19.626415 0.86820495 2 26
8.3152485 19.656244 -1.1185242 3 11
7.1623731 19.540409 2.5553565 33 29
8.2990522 19.61796 1.7389216 2 28
6.1311288 19.648563 -0.83857006 6 13
9.4912567 19.694988 -0.76346141 3 14
7.1431375 19.48793 5.5615039 27 31
8.2866726 19.588694 3.8779547 6 30
7.1908131 19.618 -0.48619965 4 16
6.1882119 19.590755 -0.35861203 3 17
8.3807659 19.61998 -0.62090838 2 15
1.9672384 5.3095975 -1.5851032 2 1
3.1215792 7.3078437 -1.5893346 2 2
7.268158 19.616837 0 5 20
9.5563765 19.654406 -0.25442752 2 18
3.4260995 9.2470798 -1.5342 2 3
4.4859295 10.501886 -1.4535998 4 4
6.1854358 19.581966 0.11935347 6 21
8.3967419 19.657383 -0.12423548 2 19
3.8936658 10.509046 -1.207198 5 5
7.5703793 15.569845 -1.6161115 1 6
7.263413 19.604029 0.48647881 2 24
9.5563765 19.654406 0.25442752 35 22
6.9205093 18.678528 -1.3928972 2 8
4.9424963 11.570743 -1.0271451 1 7
6.1841269 19.577824 0.59751958 4 25
8.3877497 19.636332 0.3727136 4 23
9.471014 19.478842 -1.2613842 3 10
7.2600265 19.594891 1.216966 31 27
8.3789339 19.615694 0.86901915 2 26
7.2727804 19.629313 -0.97510624 5 12
4.9317431 11.545569 -0.65796769 1 11
7.2401896 19.541349 2.5587687 42 29
8.3878365 19.636534 1.7431526 2 28
6.196063 19.61561 -0.8380816 6 13
9.5739269 19.6905 -0.76457816 3 14
7.2245398 19.499109 5.571857 27 31
7.271749 19.62653 -0.48703712 4 16
6.2660718 19.586988 -0.35896111 3 17
8.4684658 19.625841 -0.62207198 4 15
1.9866871 5.3023515 -1.5851032 3 1
3.1514528 7.303556 -1.5909036 1 2
7.3512411 19.620033 0 5 20
9.6477385 19.658743 -0.25493973 2 18
3.459971 9.2344599 -1.5342 2 3
4.5306821 10.499947 -1.4556202 4 4
8.4814167 19.655855 -0.12442145 2 19
3.9349501 10.502151 -1.2080548 6 5
5.6709809 11.555491 -1.201581 1 6
7.3408337 19.592255 0.48685101 2 24
9.6459761 19.655153 0.25489318 35 22
6.9973278 18.675459 -1.3945714 2 8
8.4771309 19.645922 -1.7467326 3 7
8.4739294 19.638504 0.37334186 4 23
6.2675748 19.591686 -1.318293 8 9
5.6807232 11.575342 -0.75092363 2 10
7.343009 19.598063 1.2188265 31 27
8.4666128 19.621546 0.87064737 2 26
7.3544941 19.628716 -0.97640914 2 12
8.4936743 19.684263 -1.1235484 3 11
7.3215194 19.540707 2.5621812 38 29
8.4581766 19.601995 1.7428271 2 28
6.2727914 19.607994 -0.83873284 3 13
5.6851206 11.584304 -0.45062232 1 14
7.3081636 19.505062 5.5811744 27 31
7.3506551 19.618467 -0.4875024 4 16
6.3430238 19.591633 -0.35944977 3 17
8.5480947 19.62182 -0.62288654 4 15
2.0065465 5.2989869 -1.5861815 2 1
3.1769261 7.292511 -1.5909036 1 2
7.4310107 19.624178 0 2 20
9.7642126 19.721729 -0.25619698 2 18
3.492182 9.2223263 -1.5342 2 3
4.5720577 10.494982 -1.4571354 4 4
6.3401871 19.58287 0.11963245 28 21
8.5675449 19.666468 -0.12467719 2 19
3.9772167 10.50323 -1.2097683 5 5
5.7236495 11.560611 -1.2041835 1 6
7.4289999 19.618868 0.48815376 2 24
9.7287197 19.65004 0.25526568 17 22
4.356462 11.504759 -0.86023682 1 8
7.1763101 16.472942 -1.466839 2 7
6.3400736 19.58252 0.59903228 30 25
8.5552034 19.638138 0.37390038 2 23
3.728024 11.514709 -0.77567708 1 9
5.7246351 11.562601 -0.75138879 2 10
7.4198551 19.594719 1.2202219 28 27
8.5494146 19.624851 0.87211287 2 26
7.4569211 19.692604 -0.98087615 2 12
8.5687103 19.669144 -1.1243858 6 11
7.4023337 19.548449 2.5665686 38 29
8.5536127 19.634487 1.7483599 2 28
3.7214968 11.494549 -0.4922325 1 13
7.3803043 19.490271 5.5842795 27 31
8.5450392 19.614807 3.900914 36 30
7.4332476 19.630087 -0.48843288 4 16
6.4116969 19.581894 -0.35965919 3 17
8.622776 19.615328 -0.62358469 4 15
2.0241091 5.2923036 -1.5861815 3 1
3.2010937 7.2819357 -1.5909036 2 2
7.5060539 19.62558 0 2 20
10.036803 20.104353 -0.26159844 2 18
3.5269837 9.2217693 -1.5360447 2 3
4.6132255 10.494292 -1.4591557 4 4
6.4100752 19.576942 0.11972543 25 21
8.6472073 19.670904 -0.12488641 2 19
4.0148697 10.497413 -1.2106252 5 5
7.7134452 15.45052 -1.6120222 1 6
7.5011659 19.612799 0.48861903 2 24
7.1228604 18.623669 -1.3942924 2 8
5.0842519 11.565797 -1.0313761 1 7
6.4112039 19.580387 0.59961408 26 25
8.6379881 19.649933 0.37466824 2 23
9.6976662 19.425039 -1.2644075 3 10
7.491931 19.588654 1.2213846 28 27
8.6273184 19.625662 0.87341553 2 26
5.0780993 11.5518 -0.66131723 1 11
7.4756336 19.546041 2.5694935 23 29
8.6250992 19.620613 1.7496618 2 28
10.022441 20.075584 -0.78356355 4 14
7.4545631 19.49095 5.5915265 27 31
8.619544 19.607977 3.9052188 42 30
7.5083079 19.631474 -0.48908424 4 16
6.4913359 19.593559 -0.36028749 3 17
8.71066 19.628962 -0.62498105 4 15
2.0370173 5.2708335 -1.5818683 2 1
3.2296765 7.2778869 -1.5924727 1 2
7.5831709 19.621643 0 2 20
3.5605793 9.213088 -1.5366596 2 3
4.6594892 10.499886 -1.4621861 4 4
6.4846673 19.573431 0.11984167 28 21
8.7223129 19.655222 -0.12497941 2 19
4.0557914 10.494461 -1.2119104 6 5
5.8255005 11.567622 -1.2090166 1 6
7.5825601 19.620064 0.48945647 2 24
7.1950226 18.6173 -1.3956876 2 8
7.3270888 16.511166 -1.4746498 2 7
6.4858046 19.576864 0.60019594 28 25
8.7178869 19.645248 0.37515691 2 23
6.4966073 19.60947 -1.3239212 8 9
5.8283577 11.573296 -0.75464451 2 10
7.5689044 19.584728 1.22278 28 27
8.7119884 19.631954 0.87504375 2 26
7.5951223 19.652567 -0.98143446 2 12
8.7380505 19.690683 -1.1289914 3 11
7.5624266 19.567968 2.5758307 14 29
8.7129459 19.634113 1.7535673 2 28
6.4969983 19.610651 -0.84166378 6 13
5.8238883 11.564421 -0.45215788 1 14
7.5337019 19.493641 5.5998092 30 31
8.7023067 19.610138 3.9116762 49 30
7.585443 19.627523 -0.48964256 4 16
6.5749297 19.616289 -0.3611252 3 17
8.7954559 19.63493 -0.62614465 2 15
2.0596035 5.274456 -1.5851032 3 1
3.2518494 7.2594113 -1.5909036 2 2
7.6632433 19.624866 0 2 20
3.5955865 9.2079687 -1.5378895 2 3
4.696105 10.48356 -1.4621861 4 4
6.563108 19.581018 0.12002765 28 21
8.8072071 19.661163 -0.12521188 2 19
4.0981784 10.49506 -1.2136239 6 5
5.8712468 11.557874 -1.2101319 1 6
6.6895237 17.131258 0.42794877 2 24
4.4964681 11.515043 -0.8644222 1 8
6.5617123 19.576853 0.60089403 28 25
8.8076506 19.662153 0.37606445 2 23
3.8616183 11.52113 -0.77874708 1 9
9.8583508 19.406708 -1.2676632 3 10
7.6502805 19.591669 1.2248729 5 27
8.8000565 19.645201 0.87699771 2 26
8.8132486 19.67465 -1.1298287 3 11
7.6306725 19.541454 2.5758307 14 29
8.7928238 19.629053 1.7558455 2 28
3.8599827 11.51625 -0.49483773 1 13
12.271574 24.15727 -0.94619519 5 14
7.6171474 19.506819 5.611197 30 31
8.7835617 19.608377 3.9174159 61 30
6.650651 19.603416 -0.36133462 3 17
8.8805618 19.631701 -0.62707555 2 15
2.0803394 5.2704535 -1.5861815 3 1
3.2816734 7.2545896 -1.5924727 1 2
3.6278667 9.1910486 -1.5372744 2 3
4.7426825 10.48435 -1.4647114 3 4
6.6425562 19.579556 0.12016714 28 21
8.8973598 19.668835 -0.1254676 2 19
4.1453857 10.502162 -1.2161943 6 5
7.8829541 15.378152 -1.6131374 1 6
5.2333913 11.569129 -1.0365834 1 7
6.6385727 19.567814 0.60135955 18 25
8.8895617 19.651596 0.37648329 2 23
9.9385376 19.388206 -1.2688261 3 10
6.7382846 17.071163 1.0688279 12 27
8.8786049 19.627375 0.87764907 2 26
6.757061 17.118732 -0.85728949 12 12
5.2304335 11.562591 -0.66508538 1 11
6.7300014 17.050179 2.2506831 10 29
8.8729382 19.614847 1.7574728 2 28
6.6577072 19.624214 -0.8442691 6 13
12.327228 24.048088 -0.94368237 5 14
7.7013736 19.511108 5.6205149 27 31
8.8683615 19.604731 3.9231558 49 30
6.758153 17.121498 -0.42832094 8 16
6.7281132 19.606565 -0.36182329 3 17
8.9589853 19.62241 -0.62777376 2 15
2.0972939 5.259583 -1.5851032 3 1
3.3037136 7.2359557 -1.5909036 2 2
3.6599212 9.1783323 -1.5372744 2 3
4.7841873 10.478562 -1.4662267 3 4
6.716042 19.571388 0.12026013 6 21
8.9775782 19.663134 -0.12563033 2 19
4.183486 10.491325 -1.2166226 6 5
5.9995317 11.60401 -1.2194263 1 6
19.833584 38.361176 0.50275517 16 22
7.5206604 16.47212 -1.4782299 7 7
8.9747009 19.656832 0.37718141 2 23
6.7088833 19.550528 -1.3246887 8 9
5.9879127 11.581536 -0.75929564 2 10
7.8124661 19.592064 1.2283612 26 27
8.9653082 19.636259 0.87944013 2 26
6.8478441 17.172989 -0.86119807 2 12
8.9803562 19.669218 -1.1331782 3 11
7.8056054 19.574858 2.5875301 43 29
8.9578981 19.620029 1.7607274 2 28
6.7274523 19.604639 -0.84443194 6 13
5.9852252 11.576338 -0.45508945 1 14
7.778007 19.505648 5.6267266 27 31
8.9579744 19.620195 3.932483 49 30
7.8354354 19.649666 -0.49224809 2 16
6.7983413 19.599258 -0.36210254 3 17
9.0424099 19.632536 -0.62905371 2 15
2.1147249 5.2525983 -1.5851032 3 1
3.3293333 7.2285218 -1.591688 2 2
7.8937325 19.606621 0 2 20
3.6918159 9.1698103 -1.5378895 2 3
4.8272119 10.480659 -1.468752 3 4
6.7953296 19.590576 0.12051585 3 21
4.2301378 10.506907 -1.2200496 5 5
6.0324593 11.573454 -1.218311 1 6
7.9035444 19.630991 0.49243417 2 24
19.77767 37.944054 0.49814528 15 22
4.6495934 11.548759 -0.87056077 1 8
6.7978101 19.597727 0.60368675 2 25
6.7736831 19.52817 -1.3246887 4 9
10.114567 19.4051 -1.2744075 3 10
7.89082 19.599384 1.2304543 26 27
4.6499295 11.549594 -0.57996392 1 12
9.06392 19.679239 -1.135481 3 11
7.873446 19.556231 2.5885053 34 29
4.0013261 11.535611 -0.49744302 1 13
12.523879 24.027439 -0.94619519 5 14
7.8541956 19.508417 5.6350083 27 31
9.0378094 19.622547 3.9389403 49 30
7.9184785 19.668085 -0.49336466 4 16
6.8794079 19.600624 -0.36259121 3 17
9.1210566 19.613766 -0.62951916 2 15
2.1325123 5.2412443 -1.5840249 4 1
3.357461 7.2198277 -1.5924727 1 2
7.9836369 19.622017 0 2 20
3.7268922 9.1598778 -1.5385042 2 3
4.8672695 10.466495 -1.4692571 3 4
6.8776903 19.595732 0.12070183 3 21
9.1551237 19.687023 -0.12618828 30 19
4.2776151 10.513433 -1.22262 5 5
8.0046272 15.220738 -1.6053301 1 6
7.9739408 19.598185 0.49234113 2 24
19.883106 37.807579 0.49730709 15 22
7.5040231 18.44323 -1.3923392 2 8
5.3828301 11.575147 -1.0421163 1 7
6.8748956 19.587769 0.60415226 4 25
9.1538839 19.684357 0.37892666 25 23
6.8491831 19.514509 -1.3254561 8 9
10.198638 19.392635 -1.2760354 3 10
7.9746466 19.59992 1.2323148 28 27
9.1510601 19.678284 0.88416225 30 26
5.3764915 11.561517 -0.66822553 1 11
7.9600372 19.564013 2.5933797 39 29
9.1282854 19.629311 1.7672365 31 28
6.8932829 19.640158 -0.84801412 3 13
12.624891 24.006136 -0.94717234 5 14
7.935843 19.504549 5.6422553 28 31
9.1262684 19.624973 3.946115 50 30
7.9950399 19.650042 -0.49364385 2 16
6.95506 19.607859 -0.36314967 3 17
9.2115126 19.637709 -0.63126457 2 15
2.1498802 5.2341437 -1.5840249 3 1
3.3780513 7.2015519 -1.5909036 2 2
8.0562563 19.613932 0 5 20
3.7557435 9.1438122 -1.5378895 2 3
4.9070039 10.461073 -1.4707724 3 4
6.9533277 19.602974 0.12088782 3 21
9.2356415 19.689148 -0.12639751 30 19
4.3200088 10.517585 -1.224762 6 5
6.1429577 11.587358 -1.2242594 1 6
8.0555954 19.612324 0.49336466 2 24
20.004618 37.734371 0.49721396 15 22
7.5514936 18.385027 -1.3898281 2 8
6.9531751 19.602545 0.6053158 2 25
9.2326927 19.682861 0.37948513 25 23
6.9285331 19.533073 -1.3282703 8 9
6.1386533 11.579238 -0.7632491 2 10
8.0502157 19.599224 1.2339426 28 27
9.2230501 19.662304 0.88481361 28 26
8.0718203 19.651825 -0.98962396 2 12
9.2384071 19.695044 -1.1400865 3 11
8.0339174 19.559546 2.5963047 34 29
9.2085609 19.631416 1.7701656 31 28
6.9637146 19.632257 -0.84866548 3 13
6.1359468 11.574133 -0.45746261 1 14
8.0136862 19.51029 5.6515727 28 31
9.208004 19.630228 3.9532897 50 30
8.0738277 19.656712 -0.4944813 4 16
7.0342684 19.613577 -0.36370814 3 17
9.2988281 19.645185 -0.63254458 2 15
2.1696148 5.2301645 -1.5851032 4 1
3.4048488 7.1932602 -1.591688 2 2
8.1384726 19.618942 0 5 20
12.894877 24.119549 -0.31840691 4 18
3.7906694 9.1379461 -1.5391191 2 3
4.946888 10.451052 -1.4717824 3 4
7.0271196 19.593643 0.12098081 3 21
9.3197193 19.689323 -0.12660673 27 19
4.3597455 10.509786 -1.2256187 6 5
6.2059035 11.607988 -1.2287207 1 6
8.1362705 19.613634 0.49410912 2 24
20.173941 37.734856 0.49814528 15 22
4.7855678 11.536291 -0.87335104 1 8
7.8101764 16.500185 -1.4902717 7 7
7.0269642 19.59321 0.60578132 2 25
9.3167467 19.683043 0.38011342 27 23
7.0007224 19.520041 -1.3290378 4 9
10.385002 19.424889 -1.2827795 3 10
8.130825 19.600508 1.2358031 28 27
9.310442 19.669724 0.88660467 28 26
4.7859335 11.537172 -0.5818252 1 12
9.3241949 19.698778 -1.1421801 6 11
8.1143188 19.560717 2.6002045 35 29
9.2923889 19.631582 1.7730948 31 28
4.140799 11.545747 -0.49972263 1 13
12.767272 23.880865 -0.94563675 5 14
8.0935898 19.510748 5.6598554 28 31
9.2882595 19.62286 3.958312 50 30
8.1577215 19.665346 -0.49541184 4 16
7.103354 19.601425 -0.36391759 3 17
9.3794212 19.646717 -0.63359183 2 15
2.1884334 5.2264948 -1.5861815 4 1
3.4253027 7.1748519 -1.5901192 2 2
8.2142963 19.617678 0 5 20
3.8209491 9.1253281 -1.5391191 2 3
4.9798055 10.43101 -1.4712774 1 4
7.0947766 19.577757 0.12102731 3 21
9.4021893 19.69441 -0.12683922 27 19
4.4022517 10.513616 -1.2277607 5 5
8.1715155 15.163474 -1.6079326 1 6
8.2120733 19.61237 0.49476048 2 24
7.6780019 18.33688 -1.390107 2 8
5.5323591 11.588423 -1.0482999 1 7
7.1027918 19.599874 0.60671216 2 25
9.3940239 19.677307 0.38060206 27 23
4.1726036 11.514135 -0.78488696 1 9
10.441778 19.376287 -1.2818491 3 10
8.2081127 19.602909 1.2376635 28 27
9.3893881 19.667597 0.88790727 28 26
5.5259461 11.57499 -0.67220312 1 11
8.1914034 19.563004 2.6041045 35 29
9.3797617 19.647432 1.7773257 31 28
7.1162496 19.637011 -0.85094512 3 13
6.256309 11.609521 -0.46053377 1 14
8.1716719 19.515879 5.6691728 28 31
9.3719254 19.631016 3.9662044 50 30
8.2367859 19.671387 -0.49624932 4 16
7.1820278 19.594038 -0.36426663 3 17
9.4669847 19.644629 -0.63463914 2 15
2.2015707 5.2042494 -1.5818683 3 1
3.4532778 7.1657834 -1.5909036 2 2
8.293931 19.605858 0 5 20
3.8574471 9.1185436 -1.540349 2 3
5.033505 10.444861 -1.475823 1 4
7.1788702 19.585423 0.12123653 3 21
9.4881973 19.688646 -0.1270252 27 19
4.4469519 10.512061 -1.2294742 5 5
6.2924924 11.574882 -1.229836 1 6
8.3041506 19.630018 0.49597016 5 24
7.7467089 18.312292 -1.3903861 2 8
7.185585 19.603743 0.60764307 2 25
9.4799662 19.671568 0.38116056 27 23
7.1533031 19.515671 -1.3321078 4 9
6.2996225 11.587997 -0.76813281 2 10
8.2954588 19.609472 1.2399892 33 27
9.4770231 19.665459 0.88937277 28 26
8.3176394 19.661901 -0.99446321 2 12
9.5013657 19.715971 -1.1469949 3 11
8.2754192 19.562101 2.6080043 35 29
9.4672823 19.645248 1.7802548 31 28
7.2046766 19.655828 -0.85289907 7 13
6.2873592 11.56544 -0.45969617 1 14
8.2566891 19.517824 5.6784902 28 31
9.4608917 19.631987 3.9733789 50 30
8.3244047 19.677896 -0.49717987 4 16
7.2642789 19.606346 -0.36496472 3 17
9.5564842 19.654608 -0.63603544 2 15
2.2182121 5.1929898 -1.5807899 4 1
3.4799871 7.1572118 -1.591688 2 2
8.3748941 19.606215 0 5 20
3.8908091 9.1086569 -1.5409639 2 3
5.0751424 10.437932 -1.4773383 1 4
7.2638736 19.605251 0.1215155 3 21
9.5743618 19.691376 -0.12725767 27 19
4.4883089 10.507445 -1.2307594 5 5
8.2644987 15.076672 -1.6049584 1 6
8.3836241 19.62665 0.49662155 5 24
4.9390264 11.562606 -0.87921065 1 8
8.034831 16.525057 -1.5000355 7 7
7.262311 19.601034 0.60834122 2 25
9.5713158 19.685112 0.38206807 29 23
7.2199998 19.486837 -1.331852 4 9
10.605118 19.34659 -1.2848724 3 10
8.3764143 19.609772 1.2418495 33 27
9.5630913 19.668196 0.89100105 28 26
4.9394455 11.563587 -0.58573377 1 12
9.5858555 19.715015 -1.1488791 3 11
8.360815 19.573254 2.6133664 35 29
9.5532389 19.647932 1.7835095 28 28
7.2690835 19.619314 -0.8524105 3 13
13.133859 23.959696 -0.95415229 5 14
8.3353996 19.513754 5.6857367 24 31
9.5482969 19.637768 3.9812713 31 30
8.4040451 19.674458 -0.49783123 4 16
7.3466959 19.618326 -0.36566284 3 17
9.6479206 19.667797 -0.63754815 2 15
2.2393751 5.1922894 -1.5829465 3 1
3.5032206 7.1415005 -1.5909036 2 2
8.463871 19.624611 0 2 20
19.899734 36.003761 -0.4789142 9 18
3.9241438 9.09865 -1.5415789 2 3
5.1220298 10.441528 -1.4803687 1 4
7.3392744 19.598507 0.12163174 3 21
9.6641741 19.70093 -0.12753664 27 19
4.5312567 10.506321 -1.2324729 6 5
8.3074389 15.030304 -1.6030995 1 6
8.4663305 19.630314 0.49745899 2 24
4.9682927 11.519648 -0.87725741 1 8
5.6747313 11.56824 -1.05188 1 7
7.3419003 19.60552 0.60927212 2 25
9.6540594 19.680311 0.38262656 20 23
4.318747 11.532611 -0.78923607 1 9
10.672581 19.309456 -1.2848724 3 10
8.4606237 19.617083 1.2441752 27 27
9.6475267 19.666994 0.89246655 26 26
5.6822877 11.583644 -0.67618066 1 11
8.4432344 19.576761 2.6177537 35 29
9.635807 19.643103 1.7861131 15 28
4.3086023 11.505522 -0.50053674 1 13
6.4162927 11.608731 -0.46318612 1 14
8.4157009 19.512924 5.6940193 28 31
8.4869184 19.678051 -0.49866867 4 16
7.4187827 19.61256 -0.36601186 3 17
9.8832722 19.979744 -0.64871889 2 15
2.2565801 5.1848354 -1.5829465 4 1
3.5268817 7.1298447 -1.5909036 2 2
8.5496492 19.644117 0 2 20
19.97035 35.850224 -0.47775006 9 18
3.9495606 9.0747156 -1.5397341 2 3
5.1548648 10.42093 -1.4798636 1 4
4.5724182 10.505825 -1.2341864 6 5
6.4559231 11.589497 -1.2383869 1 6
8.5441437 19.631468 0.4982034 2 24
21.015583 37.726597 0.50275517 16 22
7.9316783 18.224236 -1.3898281 2 8
7.4153581 19.603506 0.60997033 2 25
7.3595281 19.455912 -1.3331311 4 9
6.4497042 11.578332 -0.77185374 2 10
8.5367813 19.614552 1.245803 27 27
8.5595236 19.666803 -0.99911624 5 12
9.7906637 19.79253 -1.1572528 3 11
8.5207777 19.57778 2.6216536 35 29
7.4293165 19.640408 -0.85550427 3 13
6.4314065 11.545485 -0.46151096 1 14
8.494235 19.516794 5.7033367 28 31
18.941238 38.291073 7.7889137 22 30
8.5728683 19.697468 -0.49987838 4 16
7.4992037 19.607645 -0.36643073 3 17
10.033243 20.097202 -0.65372247 2 15
2.277122 5.1800542 -1.5840249 4 1
3.5547473 7.1203766 -1.591688 1 2
8.6312637 19.634613 0 2 20
20.150621 35.863949 -0.4789142 9 18
3.9875731 9.0710306 -1.5415789 2 3
5.1983495 10.412613 -1.4813788 1 4
7.4973612 19.602829 0.12198045 3 21
4.6205034 10.510837 -1.2367568 6 5
8.3731585 14.902494 -1.5956639 1 6
8.6369734 19.647602 0.4994131 2 24
5.0807147 11.557736 -0.88283789 1 8
8.2626457 16.550587 -1.5101248 4 7
7.5028849 19.617271 0.61125028 2 25
22.78546 45.640671 0.89042181 12 23
7.4308028 19.428802 -1.3331311 4 9
10.840388 19.293655 -1.2888259 3 10
8.6230917 19.616024 1.2478961 30 27
22.737907 45.545422 2.0739548 13 26
5.079565 11.555121 -0.58796728 1 12
10.744559 21.522011 -1.2606686 4 11
8.6052723 19.575487 2.6255534 30 29
26.137739 52.355492 4.777071 40 28
7.5155454 19.650373 -0.85713261 3 13
8.5797186 19.517357 5.7126541 24 31
8.6530676 19.684214 -0.50034362 4 16
7.5771494 19.616247 -0.36705902 3 17
5.7905931 11.503305 -0.37480244 1 15
2.2927244 5.1689539 -1.5829465 4 1
3.5783384 7.1085501 -1.591688 1 2
8.7141628 19.646105 0 2 20
12.427713 21.948027 -0.29363468 3 18
4.0208344 9.0649834 -1.5428087 2 3
5.2542582 10.437849 -1.4874398 1 4
7.5695276 19.596516 0.1220967 3 21
4.6601686 10.506364 -1.238042 6 5
6.5778918 11.61692 -1.2461942 1 6
8.7150478 19.648102 0.50015754 2 24
12.41983 21.934105 0.29344845 5 22
5.1141582 11.529884 -0.88200086 1 8
5.8258219 11.573289 -1.0577383 1 7
7.5765371 19.61466 0.61194849 2 25
4.4545364 11.532211 -0.79230607 1 9
6.5736704 11.609464 -0.77696991 2 10
8.7026615 19.620176 1.2499892 30 27
25.451378 50.560448 2.3061492 23 26
8.7419863 19.708834 -1.0043278 5 12
5.8264151 11.574468 -0.67911142 1 11
8.683013 19.57588 2.6294532 35 29
26.139118 51.926678 4.7458272 38 28
4.4527755 11.527652 -0.50346774 1 13
6.5650401 11.594223 -0.46528009 1 14
8.6584883 19.520586 5.721972 25 31
8.729641 19.681 -0.50099498 4 16
5.8596725 11.540065 -0.37666425 1 15
2.3091786 5.1574044 -1.5818683 4 1
3.6031287 7.0960174 -1.591688 1 2
8.7941256 19.641125 0 2 20
12.516144 21.925358 -0.29391408 3 18
4.047606 9.0400724 -1.5409639 1 3
5.2960482 10.43006 -1.488955 1 4
4.7098145 10.519073 -1.2414691 6 5
6.6184001 11.593889 -1.2461942 1 6
8.7884779 19.628511 0.50043666 2 24
12.508211 21.911461 0.29372782 5 22
8.1106749 18.114681 -1.3878748 2 8
10.985314 19.243702 -1.2904538 3 10
8.7874098 19.626123 1.2523146 30 27
24.846004 48.931828 2.2358069 20 26
8.8058281 19.667259 -1.0037694 5 12
10.932392 21.5303 -1.2654835 4 11
8.765892 19.578066 2.6338406 35 29
26.195662 51.589848 4.7233706 38 28
15.145212 26.53087 -1.0668079 6 14
8.7392035 19.518457 5.7302542 18 31
20.189236 39.760769 8.1304321 24 30
8.8129902 19.683256 -0.50183249 4 16
6.7485728 17.114721 -0.32112429 18 17
5.8926315 11.505302 -0.37619877 1 15
2.325582 5.1458015 -1.5807899 4 1
3.6243024 7.0764136 -1.5901192 1 2
8.8774633 19.643112 0 3 20
21.416611 37.214546 -0.49986815 9 18
4.0823946 9.0330906 -1.5421938 2 3
5.3306174 10.407976 -1.4884498 1 4
6.7392163 17.090992 0.10677649 7 21
4.7546954 10.520687 -1.243611 5 5
8.5380859 14.836195 -1.5978945 1 6
8.875061 19.637796 0.50146025 2 24
21.143291 36.739616 0.49348882 15 22
5.22575 11.562986 -0.88730234 1 8
8.4962397 16.58882 -1.5215157 4 7
6.7379441 17.087767 0.53456765 3 25
6.7577462 17.137985 -1.1806563 6 9
11.064376 19.226 -1.2918491 3 10
8.8690252 19.624439 1.2541751 30 27
26.073378 50.908001 2.3302479 24 26
5.2246089 11.560462 -0.5909453 1 12
11.009307 21.49556 -1.2656929 4 11
8.8472633 19.576288 2.6377404 35 29
25.37604 49.546455 4.5443687 31 28
15.173931 26.366964 -1.0623406 6 14
8.82479 19.526562 5.741642 14 31
20.600578 40.22242 8.2394876 25 30
8.8964701 19.685169 -0.50266999 4 16
5.9474354 11.513085 -0.3771297 1 15
2.3451276 5.1411576 -1.5818683 4 1
3.6507804 7.0672054 -1.5909036 1 2
8.9592533 19.641119 0 6 20
21.144953 36.447632 -0.49055529 9 18
4.1138992 9.0187864 -1.5421938 1 3
5.3669138 10.389308 -1.4884498 1 4
4.8029418 10.529355 -1.2466097 5 5
6.7291579 11.599074 -1.2517707 1 6
8.9568291 19.635805 0.50220472 2 24
23.256439 40.087208 0.53954095 17 22
5.266078 11.544676 -0.88730234 1 8
5.9814591 11.578948 -1.0639219 3 7
4.6031213 11.555393 -0.79716682 1 9
6.7349577 11.609072 -0.78162104 2 10
8.94907 19.618795 1.2558029 30 27
27.06535 52.393284 2.402544 28 26
8.9926634 19.714365 -1.0093532 2 12
5.9802985 11.576702 -0.68287963 1 11
8.9336643 19.585022 2.6431026 35 29
26.921139 52.11412 4.7884622 40 28
4.5909929 11.524947 -0.50542164 1 13
6.7282176 11.597453 -0.46821165 1 14
8.9009094 19.513214 5.7468181 10 31
20.083443 38.877663 7.9783273 23 30
8.9800625 19.686741 -0.50350744 4 16
7.9015002 19.625893 -0.36929294 3 17
6.0006843 11.512482 -0.37782788 1 15
2.3655677 5.1360259 -1.5829465 4 1
3.673034 7.0468192 -1.5893346 2 2
19.763569 33.780666 -0.45563203 8 18
4.1469293 9.0036469 -1.5421938 1 3
5.399457 10.35901 -1.4869347 1 4
7.8951006 19.609997 0.12286387 3 21
4.8481593 10.52613 -1.2483232 5 5
6.7796721 11.588081 -1.2532579 1 6
23.330503 39.877411 0.53786463 16 22
8.2897205 17.998308 -1.3856425 2 8
8.6681671 16.630121 -1.530954 4 7
7.9008522 19.624283 0.61567211 2 25
7.771729 19.303564 -1.3336427 4 9
11.20772 19.156673 -1.2925467 3 10
9.0359564 19.618505 1.2578959 30 27
27.327408 52.428402 2.4087315 28 26
9.0648651 19.681273 -1.0093532 2 12
11.231157 21.547291 -1.2734386 4 11
9.020339 19.584599 2.6474898 35 29
40.274544 77.267845 7.1132083 56 28
7.9140649 19.657101 -0.86332005 7 13
15.412686 26.343969 -1.0658306 6 14
8.9739904 19.483967 5.7478533 10 31
20.616867 39.554039 8.1325846 24 30
9.065546 19.682751 -0.50425184 4 16
7.9729681 19.6056 -0.36943254 3 17
6.0538535 11.51624 -0.37864241 1 15
2.3786092 5.1172585 -1.5797117 3 1
3.6994333 7.0374284 -1.5901192 2 2
19.767576 33.518543 -0.45302439 8 18
4.1799965 8.9927015 -1.5428087 1 3
5.4429665 10.354149 -1.488955 1 4
7.9725413 19.604551 0.12300336 6 21
13.404295 25.498978 -0.16742961 4 19
4.8932524 10.527175 -1.2504653 5 5
8.651041 14.668984 -1.5897154 1 6
9.1173363 19.614725 0.50332135 27 24
19.907772 33.756264 0.45623735 14 22
5.3721023 11.557357 -0.89120871 1 8
8.7391462 16.624468 -1.5332323 2 7
7.9813514 19.626215 0.61660296 2 25
7.8390598 19.27632 -1.3336427 4 9
11.288717 19.141514 -1.2941747 3 10
9.1212101 19.623058 1.2602215 35 27
25.012688 47.581612 2.190052 18 26
5.3844399 11.583899 -0.59504002 1 12
11.306298 21.507959 -1.2734386 4 11
9.1020308 19.581797 2.6513896 36 29
25.588573 48.67712 4.4893665 28 28
7.9961791 19.662676 -0.86478555 3 13
6.8638334 11.638538 -0.47184119 1 14
9.0549717 19.480556 5.7561359 10 31
9.1476765 19.679998 -0.50499624 4 16
8.055028 19.610945 -0.37006083 3 17
6.0977597 11.502103 -0.37887511 1 15
2.3948207 5.1054373 -1.5786334 4 1
3.725812 7.0279374 -1.5909036 1 2
9.2154102 19.646023 0 33 20
19.784302 33.280872 -0.45074275 8 18
4.2214308 8.999526 -1.5464982 1 3
5.4846501 10.345605 -1.4904702 1 4
8.0576382 19.6173 0.12325907 6 21
13.586894 25.628735 -0.16859201 4 19
4.9384117 10.528033 -1.2526071 4 5
6.8929639 11.595246 -1.2592063 1 6
9.2129164 19.640705 0.50481015 41 24
5.4141045 11.542147 -0.89148772 1 8
6.1361361 11.574492 -1.0694548 1 7
8.0619602 19.627823 0.61753386 2 25
4.7607641 11.590659 -0.80305094 1 9
6.9030585 11.612227 -0.78673726 2 10
9.2099972 19.634481 1.2630122 38 27
9.2359724 19.689857 -1.0130757 2 12
6.1350136 11.572374 -0.68643844 1 11
9.1855001 19.582256 2.655777 42 29
25.748989 48.569893 4.4877391 28 28
4.739244 11.538265 -0.50818974 1 13
6.8819447 11.576711 -0.47030562 1 14
9.1409607 19.487307 5.7675238 10 31
20.855621 39.339611 8.1182346 24 30
9.2315979 19.680531 -0.50583375 4 16
8.1399345 19.632151 -0.37096834 3 17
6.1452937 11.49945 -0.37945694 1 15
2.4133863 5.1009488 -1.5797117 3 1
3.7454011 7.0086241 -1.5893346 1 2
9.2924881 19.640663 0 30 20
19.779474 33.022926 -0.44813517 8 18
4.2478728 8.9783306 -1.5452683 1 3
5.5338907 10.355355 -1.4945108 1 4
8.1318445 19.61264 0.12339856 3 21
13.651076 25.544729 -0.16833627 4 19
4.9784021 10.522382 -1.2538923 5 5
8.6954336 14.517508 -1.5796775 1 6
9.3002357 19.657038 0.50601983 38 24
8.4746113 17.911991 -1.3856425 2 8
8.8896837 16.63492 -1.5397415 2 7
8.1377287 19.626833 0.61834836 2 25
7.9869065 19.263075 -1.3364569 4 9
11.449527 19.115618 -1.2976631 3 10
9.290432 19.636316 1.2651051 37 27
25.158918 47.078911 2.174746 17 26
9.3268538 19.713297 -1.0158675 2 12
11.475028 21.472776 -1.2759508 4 11
9.2656727 19.583984 2.6601644 42 29
48.858494 91.42701 8.4625568 63 28
8.1573877 19.674248 -0.86771649 3 13
15.631784 26.098127 -1.0623406 6 14
9.2253675 19.498796 5.7799473 10 31
9.3104973 19.678726 -0.50657815 4 16
8.2207661 19.633133 -0.37152681 3 17
6.2024655 11.509608 -0.38050419 1 15
2.4328358 5.0959706 -1.5807899 4 1
3.7698414 6.9955087 -1.5893346 1 2
9.374773 19.636988 0 30 20
19.826399 32.840687 -0.44659856 8 18
4.2740769 8.9527502 -1.5434237 1 3
5.5662374 10.328992 -1.4935007 1 4
8.2157011 19.621035 0.12363104 3 21
19.732616 36.61684 -0.24175237 8 19
5.0236669 10.522887 -1.2560343 4 5
7.0087819 11.609431 -1.2658983 1 6
9.3842955 19.656935 0.50685728 37 24
5.5303645 11.584249 -0.89762634 1 8
8.9836264 16.670471 -1.545925 2 7
8.2169952 19.624126 0.61916292 2 25
8.0402184 19.201942 -1.3341544 4 9
7.0170259 11.623087 -0.79069072 2 10
9.3726788 19.632601 1.2669656 34 27
25.417892 47.166729 2.1828876 17 26
5.5309777 11.585533 -0.59801799 1 12
11.553698 21.439625 -1.2763693 4 11
9.3579187 19.601685 2.6669888 42 29
49.130039 91.168182 8.4544201 63 28
8.2337275 19.664087 -0.86853063 7 13
7.0163693 11.622 -0.47407478 1 14
9.3050232 19.490885 5.7871938 10 31
20.079367 37.260288 7.7171659 21 30
9.4015245 19.693024 -0.50778782 4 16
8.3001575 19.630102 -0.37201551 3 17
6.2616978 11.523017 -0.38166782 1 15
2.4522824 5.0909171 -1.5818683 4 1
3.7961125 6.9857521 -1.5901192 1 2
9.4658337 19.65099 0 36 20
19.814098 32.562851 -0.44375813 8 18
4.3087344 8.9448957 -1.5446534 1 3
5.5889988 10.28509 -1.4899651 1 4
8.2950506 19.618025 0.12379377 3 21
19.764833 36.372005 -0.24059001 8 19
5.0690002 10.5232 -1.2581762 5 5
7.0616889 11.605308 -1.268129 1 6
9.4667435 19.652878 0.50760174 34 24
8.6098452 17.873962 -1.3873167 2 8
6.2835531 11.563235 -1.0743365 1 7
8.2963505 19.621099 0.61997747 2 25
4.9016314 11.592493 -0.80663258 1 9
11.605533 19.072744 -1.3002211 3 10
9.4550219 19.628544 1.2688261 34 27
25.687349 47.270847 2.191843 18 26
9.4989319 19.7197 -1.01959 2 12
6.2939086 11.582293 -0.6908347 1 11
9.440074 19.597511 2.6708887 36 29
49.377567 90.866501 8.442378 63 28
4.8858252 11.555112 -0.51112068 1 13
7.0714445 11.62134 -0.47505194 1 14
9.3847446 19.482649 5.7944407 7 31
9.4858332 19.692507 -0.50862527 4 16
8.3827677 19.634111 -0.3726438 3 17
6.3134131 11.522125 -0.382366 1 15
2.4683557 5.0788612 -1.5807899 4 1
3.8204761 6.9724579 -1.5901192 1 2
9.5536098 19.6574 0 33 20
19.82519 32.326412 -0.44147649 8 18
4.3399343 8.9298 -1.5446534 1 3
5.6267767 10.268998 -1.4904702 1 4
8.3791904 19.625732 0.12402625 3 21
19.747526 36.039692 -0.23884642 8 19
5.114397 10.523326 -1.2603182 5 5
8.8261662 14.391705 -1.5759598 1 6
9.5545197 19.659273 0.50862527 37 24
8.6721888 17.8438 -1.3873167 2 8
9.1534395 16.705238 -1.555038 2 7
8.3820658 19.632469 0.62125742 2 25
4.9295306 11.545942 -0.80458593 1 9
11.680393 19.045731 -1.3011514 3 10
9.5444317 19.638517 1.2716168 37 27
9.5694599 19.690014 -1.0197761 2 12
11.753011 21.449518 -1.2818123 4 11
9.5223141 19.593006 2.6747887 36 29
8.4006348 19.675959 -0.87162435 3 13
7.0827117 11.548876 -0.47309759 1 14
9.4712772 19.487995 5.805829 7 31
9.5650082 19.680855 -0.50918359 4 16
8.4670706 19.64146 -0.37334186 3 17
6.3632541 11.51752 -0.3829478 1 15
2.4843698 5.0667562 -1.5797117 4 1
3.8409925 6.9522152 -1.5885502 2 2
9.6397657 19.659853 0 30 20
11.965676 19.358976 -0.26495105 3 18
4.3745532 8.9216976 -1.5458833 1 3
5.6683373 10.259718 -1.4919854 1 4
8.4618845 19.629431 0.12423548 3 21
19.795811 35.830513 -0.23791651 8 19
5.1633487 10.530409 -1.2633169 4 5
7.180223 11.616708 -1.2748209 1 6
9.6406775 19.661713 0.50955582 40 24
11.986707 19.393 0.26541671 4 22
5.6759615 11.575859 -0.90153265 1 8
6.4007516 11.585391 -1.0805203 1 7
8.4616108 19.628796 0.62207198 2 25
8.2392731 19.113029 -1.3338985 4 9
7.174046 11.606714 -0.79464418 2 10
9.6322498 19.644524 1.2741748 31 27
5.6801405 11.584382 -0.60099602 1 12
6.4016528 11.587022 -0.69376552 1 11
9.6081133 19.595301 2.6796634 37 29
12.186491 22.057608 2.0572195 3 28
8.4787455 19.668543 -0.87260133 7 13
7.1713152 11.602296 -0.47630835 1 14
9.5562429 19.489511 5.8161817 7 31
20.786242 37.623196 7.8369842 22 30
9.6530018 19.686846 -0.51020718 4 16
8.5451622 19.633787 -0.37376073 3 17
6.4073138 11.502223 -0.38318053 1 15
2.5020421 5.058053 -1.5797117 4 1
3.8614211 6.931911 -1.5869812 2 2
9.7242985 19.65835 0 18 20
12.041643 19.330669 -0.26513731 3 18
4.4039187 8.9028292 -1.5452683 1 3
5.7021875 10.236402 -1.4914802 1 4
8.5479155 19.640114 0.12449119 3 21
19.876001 35.68082 -0.23738182 8 19
5.2124205 10.537272 -1.2663156 4 5
7.2544241 11.645659 -1.2807693 1 6
9.7198944 19.649446 0.51011413 14 24
12.069136 19.374804 0.26574266 4 22
8.8124657 17.815014 -1.3898281 2 8
6.4430966 11.56646 -1.0808457 1 7
8.5476341 19.639467 0.62335199 2 25
8.3107243 19.095131 -1.3346661 4 9
11.821509 18.977285 -1.3020817 3 10
9.8519516 19.91641 -1.0350384 3 12
6.4381757 11.557626 -0.69334686 1 11
12.191635 21.886068 2.0451775 3 28
5.0352674 11.56928 -0.51405156 1 13
12.054145 19.350739 -0.79612732 4 14
22.91791 46.330154 13.849925 35 31
9.9042921 20.022219 -0.51979166 7 16
8.6265116 19.633135 -0.37431923 3 17
6.4767909 11.532079 -0.38492593 1 15
2.5214019 5.0527358 -1.5807899 4 1
3.8875139 6.9218106 -1.5877658 2 2
19.854237 31.625854 -0.43472463 7 18
4.4384961 8.8944769 -1.5464982 1 3
8.6244612 19.628468 0.12460744 3 21
5.2598233 10.540366 -1.268886 4 5
8.9679089 14.285 -1.5744727 1 6
8.8603392 17.755581 -1.3875958 2 8
9.3610477 16.667568 -1.5605707 2 7
8.6306076 19.642456 0.62439924 2 25
12.338223 21.968498 0.43980065 2 23
5.0710344 11.541202 -0.80791175 1 9
11.891923 18.942669 -1.3025467 3 10
22.71744 45.524364 2.9629972 18 27
9.9624434 19.96413 -1.0393192 3 12
12.074771 21.499414 -1.2922796 4 11
25.069902 50.23856 6.8939052 30 29
12.295283 21.892042 2.0497339 3 28
8.6496124 19.685711 -0.87602073 3 13
7.2840214 11.602733 -0.47840229 1 14
23.120888 46.332851 13.874772 35 31
20.880747 37.178665 7.7745638 22 30
10.050898 20.141388 -0.52379286 2 16
8.7112122 19.639458 -0.37501732 3 17
6.5229197 11.519837 -0.38527504 1 15
2.537293 5.040462 -1.5797117 4 1
3.9097209 6.9047837 -1.5869812 1 2
19.881119 31.42453 -0.43290865 7 18
4.4712958 8.8824577 -1.5471129 1 3
5.785243 10.217059 -1.4945108 3 4
8.7042828 19.623835 0.12477017 3 21
5.3055277 10.539701 -1.2710279 4 5
7.3398085 11.601461 -1.281513 1 6
22.959129 45.609486 1.1881882 16 24
5.8219914 11.565683 -0.90543902 1 8
6.566905 11.597518 -1.0880058 1 7
8.7104721 19.637791 0.62521374 2 25
8.4357386 19.0184 -1.3333869 4 9
7.3507085 11.61869 -0.80069065 2 10
24.533453 48.736954 3.1776466 29 27
5.8298864 11.581367 -0.60397398 1 12
6.5639753 11.592343 -0.69816172 1 11
12.383419 21.869804 2.0516868 7 28
8.7247629 19.67001 -0.87667209 7 13
7.3330312 11.590749 -0.47896072 1 14
20.730486 41.182167 12.353951 26 31
12.172708 24.181705 -0.62996584 3 16
8.7878914 19.62718 -0.37536636 3 17
6.5769696 11.521302 -0.38608956 1 15
2.5531297 5.0281396 -1.5786334 4 1
3.9338009 6.8910928 -1.5869812 2 2
19.865984 31.159323 -0.43020788 7 18
4.5022769 8.8667946 -1.5471129 1 3
5.8248086 10.203693 -1.4955209 4 4
8.7841768 19.618885 0.1249329 3 21
5.3458896 10.528208 -1.2718847 4 5
9.0181818 14.144802 -1.5659218 1 6
25.287182 49.800636 1.2996652 31 24
20.048754 31.445993 0.43416587 13 22
5.8695574 11.559519 -0.90655512 1 8
9.4218483 16.50486 -1.5514579 2 7
8.790411 19.632809 0.6260283 2 25
23.830629 41.745647 0.83904195 10 23
8.5086031 19.003408 -1.3344102 4 9
12.051796 18.902954 -1.30557 3 10
