# .PCD v0.7 - Point Cloud Data file format
VERSION 0.7
FIELDS x y z intensity ring
SIZE 4 4 4 4 2
TYPE F F F F U
COUNT 1 1 1 1 1
WIDTH 1268
HEIGHT 1
VIEWPOINT 0 0 0 1 0 0 0
POINTS 1268
DATA ascii
-40.87376 -31.522522 2.1029384 14 26
-40.032318 -34.118401 -2.4501429 45 12
-8.8725319 -6.8426433 -0.58720946 1 11
-40.332993 -34.374653 6.5068483 30 29
-40.847805 -31.502504 4.2111001 18 28
-28.014906 -26.34458 -1.5667421 13 13
-41.357037 -28.786734 -1.7596326 23 14
-44.531952 -34.343781 10.253442 30 30
-40.086185 -34.16431 -1.2255952 16 16
-2.8031857 -2.1470764 -1.6465209 0 0
-28.135756 -26.282959 -0.67205727 11 17
-40.743946 -31.207481 -1.4936243 20 15
-4.4363217 -3.7556238 -1.627157 2 1
-6.5048738 -4.9823527 -1.6387562 2 2
-40.161293 -33.999046 0 48 20
-41.678726 -28.805943 -0.58983046 12 18
-6.7512422 -5.7153482 -1.3761681 14 3
-7.5697393 -5.7979779 -1.2136902 11 4
-28.174644 -26.319286 0.22408417 12 21
-8.0649815 -6.8275113 -1.1382275 1 5
-41.802547 -28.89152 -4.743494 13 6
-40.229782 -34.057026 1.2265258 21 24
-41.714916 -28.830956 0.59034264 18 22
-8.0705576 -6.8322315 -0.73941863 2 8
-28.268377 -26.406847 1.1258037 7 25
-40.824841 -31.269442 0.89761221 12 23
-41.653751 -28.788679 -2.9488113 18 10
-40.230511 -34.05764 3.0697405 47 27
-40.870193 -31.304178 2.0974021 14 26
-40.0751 -33.926079 -2.4458621 45 12
-8.9744539 -6.8739071 -0.59244311 1 11
-40.380096 -34.184277 6.4961238 30 29
-40.872921 -31.306267 4.2029634 17 28
-39.664806 -37.052799 -2.2113824 32 13
-41.827164 -28.908535 -1.7755469 24 14
-44.558125 -34.128918 10.233352 30 30
-40.132114 -33.974342 -1.2235481 16 16
-2.8023779 -2.1302061 -1.6414495 0 0
-39.487118 -36.616714 -0.93998665 28 17
-40.791206 -31.00712 -1.4911808 20 15
-4.444159 -3.7343826 -1.6250004 2 1
-40.221329 -33.797581 0 48 20
-42.173264 -28.919903 -0.59532505 13 18
-6.8054299 -5.7185354 -1.3829321 14 3
-7.6288471 -5.7990093 -1.2197511 6 4
-39.671379 -36.787582 0.31444782 26 21
-53.074013 -40.343803 -0.38746873 24 19
-8.0960407 -6.8030229 -1.1390843 1 5
-9.9950247 -6.8539906 -1.1313154 2 6
-40.237999 -33.811588 1.2229898 20 24
-42.199654 -28.938 0.59569752 19 22
-8.1077633 -6.8128734 -0.74053472 1 8
-8.9281034 -6.7866287 -0.91551316 1 7
-39.540916 -36.666603 1.5693761 19 25
-40.888229 -31.080872 0.89649522 12 23
-7.3936429 -6.8561835 -0.646227 1 9
-10.054431 -6.8947277 -0.70999378 2 10
-40.284752 -33.850876 3.0643919 46 27
-40.917831 -31.103374 2.0939827 13 26
-40.131874 -33.722416 -2.4417672 22 12
-8.993227 -6.8361325 -0.59202439 1 11
-40.42305 -33.967087 6.4829621 30 29
-40.974693 -31.146597 4.2016616 17 28
-39.571758 -36.695202 -2.1986818 31 13
-42.262524 -28.981113 -1.7895066 25 14
-40.173706 -33.757565 -1.2210357 16 16
-2.8155842 -2.1247785 -1.6448303 0 0
-39.547024 -36.41634 -0.93838096 28 17
-40.838558 -30.818787 -1.4889699 20 15
-4.460125 -3.7213144 -1.6260786 2 1
-6.5497518 -4.9427652 -1.6411096 9 2
-40.262272 -33.592911 0 47 20
-42.760017 -29.103336 -0.60216999 14 18
-6.8496294 -5.7150021 -1.3878515 12 3
-7.6838827 -5.7986364 -1.2253069 10 4
-39.770123 -36.62178 0.31421533 26 21
-53.15704 -40.114922 -0.38705021 24 19
-8.2327251 -6.8689909 -1.1549346 1 5
-42.749012 -29.095848 -4.8271432 13 6
-40.31279 -33.635059 1.2216871 20 24
-42.604607 -28.997564 0.59998143 19 22
-8.2234116 -6.8612208 -0.74890548 1 8
-9.1076708 -6.8730969 -0.93146056 2 7
-39.606899 -36.471478 1.5669326 19 25
-40.932625 -30.889774 0.89509904 12 23
-7.4703875 -6.879005 -0.650832 1 9
-10.124653 -6.8910446 -0.71324956 2 10
-40.33828 -33.656326 3.0595081 46 27
-40.940022 -30.895355 2.0895863 13 26
-40.184917 -33.528366 -2.4378586 22 12
-9.141386 -6.8985405 -0.60018879 1 11
-40.477352 -33.772362 6.4727254 30 29
-41.038612 -30.969759 4.1971054 17 28
-39.708431 -36.564972 -2.1991704 31 13
-42.80957 -29.137066 -1.8083524 26 14
-40.220673 -33.558201 -1.2188956 15 16
-2.8284166 -2.1197782 -1.6482112 0 0
-39.590847 -36.214813 -0.93656594 27 17
-40.841351 -30.608856 -1.4853626 20 15
-4.4724412 -3.7065034 -1.6260786 2 1
-6.5535526 -4.9116092 -1.6379718 14 2
-40.305695 -33.403057 0 47 20
-43.187691 -29.185329 -0.60682642 15 18
-6.8989754 -5.7174759 -1.3940005 11 3
-7.731647 -5.7945409 -1.2298526 11 4
-39.909058 -36.50589 0.31435481 26 21
-53.257767 -39.914436 -0.38681772 24 19
-8.2370853 -6.8264251 -1.1523643 2 5
-10.160242 -6.8660765 -1.1446992 2 6
-40.365604 -33.452705 1.2199191 20 24
-43.64502 -29.494383 0.61325234 21 22
-8.2338295 -6.8237276 -0.74778938 1 8
-9.1463633 -6.8548107 -0.93308783 1 7
-39.636173 -36.256275 1.5633253 19 25
-40.958027 -30.696301 0.89342356 12 23
-10.197079 -6.8909702 -0.71673793 2 10
-40.378948 -33.463764 3.0541592 45 27
-40.991077 -30.721071 2.0869811 13 26
-40.240505 -33.34903 -2.4345086 21 12
-9.154623 -6.8610015 -0.59956074 1 11
-40.521873 -33.582211 6.4620004 30 29
-41.054951 -30.768942 4.1883178 17 28
-39.738049 -36.349464 -2.1941226 31 13
-43.319981 -29.274727 -1.8258021 27 14
-47.630592 -35.697105 10.852533 31 30
-40.245525 -33.353191 -1.2162901 15 16
-2.8212559 -2.0990727 -1.6397589 0 0
-39.62524 -35.993046 -0.93440181 27 17
-40.912651 -30.439857 -1.4840827 20 15
-4.4853511 -3.6908698 -1.6260786 2 1
-6.5800972 -4.8957286 -1.6403252 13 2
-40.357178 -33.208794 0 46 20
-43.870605 -29.424297 -0.61497515 16 18
-6.9463577 -5.7159634 -1.3995347 12 3
-7.7963943 -5.8006787 -1.2369236 13 4
-39.926689 -36.266861 0.31349465 25 21
-40.958164 -30.473721 -0.29670984 13 19
-8.2885008 -6.8203754 -1.1562198 1 5
-10.276758 -6.8926878 -1.1551089 1 6
-40.389488 -33.235382 1.2171276 20 24
-44.485134 -29.836464 0.62358958 22 22
-40.302006 -33.163395 -3.6496587 27 8
-9.253396 -6.8847179 -0.94154972 1 7
-39.679615 -36.042435 1.5600672 19 25
-41.010372 -30.512566 0.89223683 12 23
-7.5524955 -6.8602057 -0.65390199 1 9
-10.327192 -6.9265141 -0.72417969 2 10
-40.446171 -33.282024 3.0504384 45 27
-41.053169 -30.544407 2.0847015 13 26
-40.32272 -33.180439 -2.432461 21 12
-9.2842731 -6.9076915 -0.60646909 1 11
-40.565266 -33.380024 6.4503012 30 29
-41.104527 -30.582619 4.1824598 17 28
-44.002895 -29.513023 -1.8502318 29 14
-40.293762 -33.156609 -1.2142429 15 16
-2.8376803 -2.0951774 -1.6448303 0 0
-39.706406 -35.802029 -0.93321508 27 17
-40.966053 -30.246944 -1.4819882 19 15
-4.4988499 -3.6744044 -1.6260786 2 1
-6.5979981 -4.8715768 -1.6403252 8 2
-40.534397 -33.10619 0 47 20
-44.311153 -29.484865 -0.61963159 17 18
-6.9978743 -5.7154655 -1.4056838 14 3
-7.8591022 -5.8027024 -1.2434895 9 4
-39.964291 -36.034557 0.31275073 25 21
-8.378129 -6.8427792 -1.165216 1 5
-10.325165 -6.8704162 -1.1577114 2 6
-40.449093 -33.036518 1.2152665 19 24
-44.610847 -29.684282 0.62382239 22 22
-8.3628016 -6.8302603 -0.75504404 1 8
-9.275362 -6.8483863 -0.94122434 1 7
-39.752071 -35.843204 1.55774 19 25
-41.044724 -30.305029 0.8905614 12 23
-7.6250234 -6.875246 -0.65799522 1 9
-10.349188 -6.8864012 -0.72394717 2 10
-40.654491 -33.204277 3.0569499 22 27
-41.116623 -30.358116 2.0822592 13 26
-8.3493853 -6.8193026 -0.50216389 0 12
-9.2902498 -6.8593783 -0.60521305 1 11
-40.721172 -33.258739 6.4556637 30 29
-41.129753 -30.367809 4.1736722 16 28
-39.626106 -35.729626 -2.173769 30 13
-44.277184 -29.462259 -1.8572117 30 14
-40.362373 -32.965691 -1.212661 15 16
-2.8449767 -2.0852592 -1.6448303 0 0
-39.762608 -35.601849 -0.93160945 27 17
-41.019791 -30.065941 -1.4801264 19 15
-4.5146399 -3.6611044 -1.627157 2 1
-6.6339445 -4.8624282 -1.6450319 7 2
-40.699421 -33.004807 0 23 20
-44.997894 -29.715729 -0.62778038 18 18
-7.0423412 -5.7109199 -1.410603 14 3
-7.9209146 -5.805728 -1.2500554 10 4
-39.753098 -35.59333 0.31012374 25 21
-41.059048 -30.094715 -0.29587293 27 19
-8.3865185 -6.8009677 -1.163074 1 5
-10.435493 -6.8913951 -1.1673776 1 6
-40.508259 -32.849789 1.2135916 19 24
-45.468502 -30.026508 0.63434595 23 22
-8.4113865 -6.8211341 -0.7572763 1 8
-9.4021063 -6.8913856 -0.95163894 1 7
-39.820347 -35.653545 1.5555291 18 25
-41.118 -30.137926 0.88986331 12 23
-10.513116 -6.9426556 -0.73371452 2 10
-52.667774 -42.710434 3.9490352 52 27
-41.164318 -30.171875 2.0793281 13 26
-8.4321041 -6.8379345 -0.50570029 0 12
-41.02602 -30.070507 -2.6657844 20 11
-41.203358 -30.200487 4.1704178 16 28
-39.628513 -35.481781 -2.167093 29 13
-44.880127 -29.637959 -1.8781513 31 14
-40.418186 -32.776745 -1.210893 15 16
-2.8603053 -2.0827134 -1.6499019 0 0
-39.760712 -35.37574 -0.92895669 26 17
-41.062325 -29.899275 -1.4782646 19 15
-4.5261192 -3.646904 -1.627157 2 1
-52.651321 -42.423611 0 51 20
-45.468956 -29.822107 -0.6330421 19 18
-7.1002579 -5.7210069 -1.418597 15 3
-7.964776 -5.7995019 -1.254096 12 4
-41.088718 -29.918491 -0.29540798 27 19
-8.5286188 -6.8719039 -1.1797812 1 5
-10.480403 -6.8738694 -1.16998 1 6
-40.542751 -32.667175 1.2115444 19 24
-45.562607 -29.88353 0.63434595 23 22
-8.5259876 -6.8697839 -0.76564705 1 8
-9.4237099 -6.861815 -0.95163894 2 7
-39.863449 -35.467148 1.5528526 18 25
-41.147816 -29.961525 0.88846707 12 23
-39.724117 -35.343185 -3.4076581 30 9
-10.51484 -6.8964562 -0.73231918 2 10
-52.804798 -42.547272 3.9492676 52 27
-41.184589 -29.9883 2.075583 13 26
-8.4877682 -6.8389883 -0.50774765 0 12
-9.4517879 -6.8822608 -0.6127494 2 11
-40.863564 -32.925667 6.4434762 60 29
-41.220676 -30.014578 4.1626067 16 28
-39.703945 -35.325237 -2.1651392 59 13
-45.474422 -29.825693 -1.8990911 32 14
-52.330105 -38.103836 11.802471 39 30
-40.461792 -32.60194 -1.209125 15 16
-2.8653419 -2.0695925 -1.6482112 0 0
-39.842285 -35.175167 -0.9277001 26 17
-41.131447 -29.708611 -1.4766356 19 15
-4.5430975 -3.6319032 -1.6282352 2 1
-6.6518283 -4.8045135 -1.6411096 1 2
-52.810699 -42.218632 0 51 20
-45.874836 -29.837023 -0.63709325 20 18
-7.1499572 -5.7159138 -1.4241312 11 3
-8.0255852 -5.7967567 -1.2601569 9 4
-39.87167 -35.201111 0.30912408 50 21
-41.161133 -29.730053 -0.29510576 27 19
-8.5363035 -6.8242049 -1.1772108 2 5
-10.610216 -6.9008918 -1.1815051 1 6
-40.602295 -32.458824 1.2095903 19 24
-45.844654 -29.817394 0.63667417 23 22
-8.5211353 -6.8120794 -0.76285684 1 8
-9.5792618 -6.9189539 -0.96465731 1 7
-39.888439 -35.215916 1.5485473 18 25
-41.223644 -29.775206 0.88762939 12 23
-7.762435 -6.8531451 -0.66362351 1 9
-10.65171 -6.9278789 -0.73999351 2 10
-52.967777 -42.344204 3.9492676 3 27
-41.224911 -29.776119 2.0718379 12 26
-8.5514164 -6.836287 -0.50998116 0 12
-41.092464 -29.680456 -2.6565733 20 11
-40.921467 -32.713982 6.4327521 60 29
-41.30006 -29.8304 4.1590266 16 28
-39.761395 -35.103756 -2.1609056 58 13
-45.987389 -29.910229 -1.9157032 33 14
-40.496094 -32.373924 -1.2064264 14 16
-2.8688846 -2.0584671 -1.6465209 0 0
-39.856392 -34.965424 -0.92546624 26 17
-41.143368 -29.520973 -1.4737265 19 15
-4.5484529 -3.6128209 -1.6260786 2 1
-6.6541433 -4.774446 -1.6379718 1 2
-40.76207 -32.377174 0 22 20
-46.42527 -29.9879 -0.643426 21 18
-7.195734 -5.7155471 -1.4296652 13 3
-8.0888929 -5.8038998 -1.2672279 11 4
-39.915909 -35.017639 0.30861264 25 21
-41.202339 -29.563288 -0.29473379 26 19
-8.5545864 -6.7948794 -1.1767825 1 5
-10.645226 -6.8761678 -1.1829922 1 6
-40.619522 -32.26395 1.2070779 18 24
-46.455509 -30.007431 0.64384508 24 22
-8.6237326 -6.849802 -0.7701115 1 8
-9.5782785 -6.8725562 -0.9623791 2 7
-39.938766 -35.037689 1.5462202 18 25
-41.251999 -29.598921 0.88623321 11 23
-7.7689238 -6.8155622 -0.66234434 1 9
-10.68013 -6.8987136 -0.74045867 2 10
-40.82132 -32.424236 3.0360198 43 27
-41.298771 -29.632479 2.0708609 12 26
-8.5978823 -6.8292685 -0.51147014 1 12
-9.5904799 -6.8813109 -0.6186111 1 11
-40.971191 -32.543278 6.4244652 60 29
-41.374146 -29.686562 4.157074 16 28
-39.802383 -34.918041 -2.1571605 58 13
-46.685562 -30.156031 -1.9408308 35 14
-54.350136 -38.997025 12.196365 43 30
-40.51619 -32.181873 -1.2040071 14 16
-2.8671942 -2.0421312 -1.6414495 0 0
-39.932964 -34.786682 -0.92441905 25 17
-41.197311 -29.342382 -1.471981 18 15
-4.5670853 -3.6016924 -1.6282352 2 1
-6.6643796 -4.7466393 -1.6364028 1 2
-40.818298 -32.190109 0 22 20
-50.947598 -32.65757 -0.70451844 30 18
-7.2466755 -5.71487 -1.4358144 14 3
-8.1575832 -5.8101583 -1.2748041 10 4
-39.959488 -34.809788 0.30800819 50 21
-41.249893 -29.379833 -0.29433858 26 19
-8.6781807 -6.8437829 -1.1904908 1 5
-10.759694 -6.8969975 -1.1930301 1 6
-40.672237 -32.074921 1.2053099 18 24
-46.785587 -29.98971 0.64696491 24 22
-8.6726551 -6.8394251 -0.7723437 2 8
-9.6704025 -6.8876491 -0.96921366 1 7
-40.012592 -34.856045 1.5443583 18 25
-41.289917 -29.408339 0.88483697 11 23
-39.854267 -34.718124 -3.3874474 30 9
-10.794917 -6.9195757 -0.74673766 2 10
-40.9123 -32.26424 3.0343919 21 27
-41.333595 -29.439449 2.0674415 12 26
-8.6561794 -6.8264322 -0.5135175 1 12
-41.177792 -29.328478 -2.6494555 19 11
-41.006599 -32.338604 6.4122777 60 29
-41.386593 -29.477196 4.1479611 15 28
-39.857727 -34.721142 -2.1535783 57 13
-49.819496 -31.934452 -2.066469 43 14
-40.600014 -32.017963 -1.2031696 14 16
-2.8805802 -2.0357935 -1.6448303 0 0
-39.984558 -34.574696 -0.92267388 25 17
-41.2458 -29.149662 -1.4698865 18 15
-4.5802546 -3.5849299 -1.6282352 1 1
-6.6881366 -4.7267094 -1.6379718 1 2
-40.970654 -32.067413 0 22 20
-50.891434 -32.359028 -0.70209706 30 18
-7.298697 -5.7126336 -1.4419634 12 3
-8.2177067 -5.8077035 -1.2808648 11 4
-40.014179 -34.600307 0.30745026 25 21
-41.298496 -29.186903 -0.29392013 26 19
-8.6844149 -6.797225 -1.1879206 1 5
-10.83195 -6.887434 -1.198235 1 6
-40.745434 -31.891136 1.2040071 18 24
-50.351398 -32.015652 0.69464678 29 22
-8.7228012 -6.8272696 -0.77457583 1 8
-9.7248821 -6.8728695 -0.97214282 2 7
-40.058411 -34.638554 1.5412165 18 25
-41.341896 -29.217575 0.8836503 11 23
-10.867379 -6.9099612 -0.74999344 2 10
-41.061722 -32.138691 3.0367177 21 27
-41.398781 -29.257778 2.0653248 12 26
-8.7283382 -6.8316026 -0.51630938 1 12
-9.7438602 -6.8862824 -0.62531006 1 11
-41.068569 -32.144054 6.4035034 30 29
-41.419468 -29.272396 4.1404757 15 28
-39.90913 -34.509472 -2.1495073 57 13
-50.354496 -32.01762 -2.0837793 44 14
-40.647808 -31.814726 -1.2011225 14 16
-2.8873153 -2.0262301 -1.6448303 0 0
-40.068653 -34.415852 -0.92197573 25 17
-41.280052 -28.969086 -1.4676757 18 15
-4.5951586 -3.5720854 -1.6293135 1 1
-6.7005639 -4.7022524 -1.6371872 1 2
-41.029396 -31.894547 0 22 20
-51.039047 -32.21571 -0.70265585 30 18
-7.3550463 -5.7175074 -1.4493424 12 3
-8.2694006 -5.8032141 -1.2859156 7 4
-40.061943 -34.410088 0.30693883 25 21
-41.339397 -29.010733 -0.29352492 26 19
-8.8262234 -6.8611393 -1.2041993 1 5
-10.92209 -6.8939934 -1.2056706 1 6
-40.78466 -31.7043 1.202053 18 24
-50.964634 -32.168739 0.70163143 30 22
-8.8021002 -6.8423867 -0.77959836 1 8
-9.7998333 -6.8772254 -0.97735018 1 7
-40.085094 -34.42997 1.537842 17 25
-41.38945 -29.045858 0.88260311 11 23
-39.886723 -34.259586 -3.3697953 30 9
-10.954394 -6.9143844 -0.754412 2 10
-53.119995 -41.293274 3.9183378 52 27
-41.423599 -29.069824 2.0617425 12 26
-8.7887993 -6.832047 -0.51854283 1 12
-41.286705 -28.973757 -2.6433847 19 11
-41.099709 -31.949203 6.3918037 30 29
-41.480412 -29.109694 4.1368957 15 28
-39.959679 -34.32225 -2.1460879 57 13
-51.051983 -32.223873 -2.1082089 45 14
-40.667843 -31.613491 -1.1986101 14 16
-2.8973453 -2.0182111 -1.6465209 0 0
-40.109425 -34.208298 -0.92016071 25 17
-41.351398 -28.804249 -1.4666284 18 15
-4.6045504 -3.5536699 -1.6282352 2 1
-6.7233739 -4.6833177 -1.6387562 1 2
-41.156311 -31.76335 0 22 20
-51.486774 -32.24754 -0.70726573 30 18
-7.4062495 -5.7159467 -1.4554915 9 3
-8.331934 -5.8037963 -1.2924815 11 4
-40.105724 -34.205143 0.30635762 25 21
-41.45026 -28.873114 -0.29359466 13 19
-8.8406744 -6.822998 -1.2029141 1 5
-10.99334 -6.8854222 -1.2108754 1 6
-40.822269 -31.505543 1.1999128 17 24
-51.727448 -32.398277 0.71057177 31 22
-8.8417253 -6.8238091 -0.78099346 1 8
-40.156357 -34.248325 1.5359802 17 25
-41.490589 -28.901205 0.88260311 11 23
-8.0698538 -6.8825717 -0.67974079 1 9
-11.073221 -6.9354534 -0.76092356 2 10
-53.194263 -41.053921 3.9132216 52 27
-41.498589 -28.906776 2.0604398 12 26
-8.8505526 -6.8306217 -0.52077633 1 12
-9.9117832 -6.9042759 -0.63305581 1 11
-41.204697 -31.800692 6.3908291 30 29
-41.627571 -28.996622 4.1414518 15 28
-39.997135 -34.11253 -2.1416917 56 13
-52.017902 -32.5802 -2.1433876 46 14
-40.708298 -31.417585 -1.1965629 14 16
-2.9106877 -2.0117006 -1.6499019 0 0
-40.106335 -33.952526 -0.9172287 24 17
-41.66391 -28.795708 -1.4739592 19 15
-4.6083708 -3.529743 -1.6250004 1 1
-6.743721 -4.6608734 -1.6395407 1 2
-40.989834 -31.395821 0 21 20
-52.501564 -32.615822 -0.71955872 30 18
-7.45539 -5.7103939 -1.4610257 11 3
-8.3988504 -5.8048043 -1.2995527 11 4
-40.166714 -34.003643 0.30586943 49 21
-41.924343 -28.975704 -0.29619837 13 19
-8.9761276 -6.8751903 -1.2179078 1 5
-11.072633 -6.8787093 -1.2168238 1 6
-40.864452 -31.299788 1.1977726 17 24
-52.576305 -32.662254 0.72058308 33 22
-8.9838858 -6.8811326 -0.79131746 1 8
-9.911108 -6.8499904 -0.9835338 1 7
-40.190067 -34.023415 1.5324894 17 25
-41.954861 -28.996796 0.89021236 12 23
-8.0676069 -6.8297353 -0.67743832 1 9
-11.125703 -6.9116788 -0.762784 2 10
-41.939617 -28.986261 2.0770485 13 26
-8.9072495 -6.8224335 -0.52263761 1 12
-9.9205923 -6.856545 -0.63200903 1 11
-41.459656 -31.755678 6.4122777 30 29
-42.189442 -29.158926 4.1866903 17 28
-40.076141 -33.926968 -2.1392491 56 13
-52.653111 -32.709969 -2.1646063 47 14
-40.762863 -31.221973 -1.1947949 13 16
-2.9140043 -2.0004945 -1.6482112 0 0
-40.203621 -33.818634 -0.91701925 24 17
-42.123352 -28.918119 -1.4869918 20 15
-4.6255679 -3.5199127 -1.627157 2 1
-6.7583303 -4.6396642 -1.6395407 1 2
-41.050068 -31.237822 0 21 20
-53.179066 -32.805611 -0.72742802 30 18
-7.5110373 -5.7156649 -1.4684045 13 3
-8.4530296 -5.8030925 -1.3051084 10 4
-40.190701 -33.80777 0.30524173 24 21
-42.335037 -29.063444 -0.29845342 14 19
-8.9850235 -6.8373227 -1.2161943 1 5
-11.192486 -6.9045281 -1.2276053 1 6
-40.918034 -31.137346 1.1964699 17 24
-53.22332 -32.832912 0.72803342 34 22
-8.9705296 -6.8262935 -0.78824812 1 8
-10.027895 -6.8842545 -0.99297208 3 7
-40.232502 -33.84293 1.5300457 17 25
-42.411736 -29.116098 0.89796126 12 23
-40.069378 -33.705715 -3.3557246 30 9
-11.249319 -6.9395881 -0.76976073 2 10
-41.164944 -31.325237 3.0125318 20 27
-42.330315 -29.060204 2.091866 13 26
-8.9890547 -6.8403897 -0.52617395 1 12
-10.057344 -6.9044719 -0.63933611 1 11
-41.537106 -31.60844 6.4088655 30 29
-42.445179 -29.139057 4.2029634 17 28
-40.103012 -33.734005 -2.1350157 55 13
-53.364613 -32.920074 -2.1895945 47 14
-40.819382 -31.062275 -1.1935853 13 16
-2.9123285 -1.9836782 -1.64314 0 0
-40.256691 -33.612103 -0.91541368 24 17
-42.638828 -29.042641 -1.5014207 21 15
-4.6415119 -3.5052569 -1.6282352 1 1
-6.778532 -4.6170707 -1.6403252 1 2
-53.118397 -40.114868 0 50 20
-54.670486 -33.449646 -0.74614686 30 18
-7.5666308 -5.7142982 -1.4751686 6 3
-8.520155 -5.8033442 -1.3121794 11 4
-40.249859 -33.6064 0.30475351 49 21
-42.666077 -29.061203 -0.30003425 14 19
-41.651127 -31.454815 -5.6221671 40 5
-11.248293 -6.8821669 -1.2309513 1 6
-40.980824 -30.948605 1.1949811 17 24
-53.896008 -32.975792 0.73557681 35 22
-9.103754 -6.8751302 -0.79773504 1 8
-10.142025 -6.908051 -1.0017594 1 7
-40.279545 -33.631184 1.5271367 17 25
-42.9016 -29.221622 0.90605915 13 23
-8.2334099 -6.8744402 -0.68741566 1 9
-11.301929 -6.9149837 -0.77162111 2 10
-53.229301 -40.19862 3.8846171 51 27
-43.328415 -29.512341 2.1358297 15 26
-9.049139 -6.8338847 -0.52822131 1 12
-10.085884 -6.869812 -0.63954544 1 11
-41.620995 -31.43206 6.4039912 30 29
-42.963566 -29.263832 4.2436457 19 28
-40.146618 -33.520195 -2.1307821 55 13
-54.068016 -33.081032 -2.2134657 48 14
-40.869133 -30.864254 -1.1917242 13 16
-2.9309025 -1.9821329 -1.6499019 0 0
-40.275581 -33.401821 -0.91331929 24 17
-43.148907 -29.181068 -1.5159659 22 15
-4.6531096 -3.4898455 -1.6282352 2 1
-6.7938056 -4.5945663 -1.6403252 1 2
-53.260727 -39.945698 0 50 20
-54.767437 -33.259857 -0.74596065 30 18
-7.6203194 -5.7152615 -1.4819326 7 3
-8.5820827 -5.803956 -1.3187454 10 4
-40.281036 -33.406349 0.30414909 49 21
-43.663448 -29.529047 -0.30635762 15 19
-9.1343479 -6.8507872 -1.2299026 1 5
-11.376581 -6.9089136 -1.2424765 1 6
-40.98085 -30.735756 1.1920034 16 24
-54.630684 -33.176811 0.74409807 36 22
-9.1201172 -6.8401141 -0.79717696 1 8
-10.178087 -6.8833141 -1.0030613 3 7
-40.326225 -33.443821 1.5246931 17 25
-43.432255 -29.372694 0.91520423 13 23
-8.2254362 -6.8216162 -0.68485737 1 9
-11.396475 -6.9209948 -0.77650481 2 10
-43.836563 -29.646124 2.1560206 16 26
-9.1196995 -6.8398008 -0.53101319 1 12
-10.211186 -6.9056978 -0.64603513 1 11
-41.724995 -31.293867 6.4039912 30 29
-43.555744 -29.456207 4.2924647 21 28
-40.18988 -33.330746 -2.1271999 55 13
-54.795868 -33.277126 -2.2387328 49 14
-40.920071 -30.690168 -1.1902353 13 16
-2.9351368 -1.9693582 -1.6482112 0 0
-40.34832 -33.213322 -0.91220236 24 17
-43.713753 -29.33016 -1.5320239 24 15
-4.6720486 -3.4773684 -1.6303918 1 1
-6.8105993 -4.5696368 -1.6403252 1 2
-53.393936 -39.740681 0 50 20
-55.320667 -33.318928 -0.75182772 30 18
-7.6824331 -5.7179732 -1.4899265 5 3
-8.6560173 -5.8078375 -1.3268266 9 4
-40.384666 -33.243244 0.30400962 24 21
-44.45562 -29.827923 -0.31114665 16 19
-9.3316717 -6.9454885 -1.2530355 1 5
-11.483706 -6.9164886 -1.251399 1 6
-41.057934 -30.559092 1.1909797 16 24
-55.409756 -33.372585 0.75303847 38 22
-9.2059431 -6.8519101 -0.80247849 1 8
-10.289322 -6.9037189 -1.0115231 1 7
-40.380604 -33.239899 1.5221331 16 25
-43.93483 -29.478495 0.92351156 14 23
-8.3859873 -6.9030509 -0.69611394 1 9
-11.541487 -6.9512897 -0.78464425 2 10
-53.508633 -39.826046 3.8846171 51 27
-44.469303 -29.837105 2.1817474 17 26
-9.2088118 -6.8540444 -0.53473568 1 12
-10.256329 -6.8815823 -0.64729118 1 11
-41.775707 -31.093325 6.3942413 30 29
-44.04081 -29.549604 4.3295665 22 28
-55.550976 -33.457638 -2.2645586 49 14
-40.948868 -30.477913 -1.1878159 13 16
-2.9326003 -1.9535847 -1.64314 0 0
-40.374645 -33.01099 -0.91031754 23 17
-44.18346 -29.43331 -1.5450565 25 15
-4.668067 -3.4504085 -1.6250004 2 1
-6.8355083 -4.5535507 -1.6426785 1 2
-41.025444 -30.324015 0 20 20
-56.024784 -33.49033 -0.75988334 30 18
-7.7267804 -5.7112608 -1.4948457 7 3
-8.7115536 -5.8032994 -1.3323823 12 4
-40.550423 -33.154709 0.30442804 24 21
-44.590904 -29.704733 -0.31140235 16 19
-9.3354645 -6.900322 -1.2504653 2 5
-11.544182 -6.900847 -1.2554885 1 6
-41.088306 -30.37048 1.1889325 16 24
-56.083153 -33.525219 0.76067495 39 22
-9.283165 -6.8616648 -0.80722189 1 8
-10.335384 -6.8850327 -1.0138015 1 7
-40.419422 -33.0476 1.5194567 16 25
-44.528282 -29.663015 0.93391317 15 23
-8.3748388 -6.8474097 -0.69329977 1 9
-11.564475 -6.9129777 -0.78464425 2 10
-44.681091 -29.764812 2.1872838 18 26
-9.2636223 -6.8472199 -0.53659695 1 12
-10.348906 -6.8940396 -0.65168738 1 11
-41.246441 -30.487366 6.2977209 30 29
-44.589802 -29.703999 4.3738289 24 28
-40.573193 -33.173328 -2.1351786 27 13
-56.361599 -33.691669 -2.2930365 50 14
-40.991829 -30.29917 -1.186141 13 16
-2.9394019 -1.9433358 -1.64314 0 0
-40.396477 -32.794231 -0.90822321 23 17
-44.752876 -29.587606 -1.5613471 26 15
-4.6800828 -3.4340923 -1.6250004 2 1
-6.8513622 -4.5296621 -1.6426785 1 2
-58.408474 -34.639072 -0.79056931 30 18
-7.7912822 -5.716989 -1.5034544 8 3
-8.7714796 -5.7991152 -1.3384432 11 4
-52.448002 -42.57777 0.39262965 30 21
-9.2889528 -6.8159313 -1.2410407 1 5
-11.650415 -6.9092641 -1.2644112 1 6
-41.123138 -30.17482 1.1868855 16 24
-57.015171 -33.812775 0.77171069 40 22
-9.2877579 -6.8150544 -0.80554777 1 8
-10.465775 -6.91927 -1.0242161 1 7
-40.46624 -32.850864 1.5168967 16 25
-44.948498 -29.716938 0.94054508 15 23
-40.462471 -32.847809 -3.3401189 30 9
-11.715619 -6.9479332 -0.79324889 2 10
-41.174149 -30.21225 2.97416 37 27
-9.3615608 -6.8692083 -0.54087782 1 12
-10.452879 -6.9107437 -0.65671164 1 11
-45.108925 -29.823002 4.4145112 26 28
-52.405415 -42.543198 -2.7500212 52 13
-27.225109 -16.145817 -1.1053369 7 14
-41.055431 -30.125137 -1.1849313 13 16
-2.9401057 -1.9290853 -1.6397589 0 0
-40.470234 -32.620384 -0.90731573 23 17
-45.30719 -29.727308 -1.5770561 28 15
-6.8736916 -4.5100207 -1.6442475 1 2
-41.139156 -29.9662 0 39 20
-58.070538 -34.165211 -0.78437626 30 18
-7.8495288 -5.7176805 -1.5108333 7 3
-8.8513861 -5.8076415 -1.3475345 11 4
-52.621235 -42.414505 0.39281565 30 21
-45.573086 -29.901772 -0.31679583 17 19
-9.4284163 -6.8677588 -1.2564627 1 5
-11.749981 -6.912982 -1.2725903 1 6
-41.186203 -30.000469 1.1856757 15 24
-27.640818 -16.262194 0.37335286 9 22
-9.4243784 -6.8648176 -0.8153137 1 8
-10.489865 -6.8826928 -1.0242161 1 7
-40.484173 -32.631622 1.5132897 16 25
-45.533478 -29.875782 0.9505977 16 23
-8.5312176 -6.8764515 -0.70225382 1 9
-11.805194 -6.945466 -0.79766738 2 10
-41.21804 -30.023661 2.9697413 36 27
-45.622963 -29.934498 2.2231061 19 26
-9.4436178 -6.8788319 -0.54422802 1 12
-10.510337 -6.8961248 -0.65880507 1 11
-41.345963 -30.11684 6.2806592 60 29
-45.629414 -29.93873 4.4551935 27 28
-52.553608 -42.359997 -2.7500212 52 13
-57.949509 -34.094006 -2.3478985 52 14
-41.082771 -29.925129 -1.1826981 12 16
-2.9620109 -1.9287019 -1.6482112 0 0
-40.508904 -32.418945 -0.9056403 23 17
-45.829498 -29.8417 -1.5916013 29 15
-6.9058256 -4.4967017 -1.6481699 1 2
-41.185154 -29.780233 0 39 20
-28.326115 -16.532558 -0.38182756 5 18
-7.8982644 -5.711091 -1.5163676 8 3
-8.9148321 -5.8048582 -1.3541006 11 4
-52.800186 -42.255558 0.39304814 30 21
-46.099525 -30.017527 -0.31972501 17 19
-9.4394388 -6.8254862 -1.2547492 1 5
-11.849712 -6.9160933 -1.2807693 1 6
-41.232342 -29.814354 1.1840008 15 24
-26.636911 -15.546653 0.35905761 8 22
-9.4709167 -6.8482471 -0.81726682 1 8
-10.617393 -6.9134746 -1.0343053 1 7
-40.569729 -32.467621 1.5122423 16 25
-46.156963 -30.054926 0.96141815 16 23
-8.5302353 -6.8266773 -0.70020723 1 9
-11.874201 -6.9303856 -0.80069065 2 10
-41.270813 -29.842171 2.9660206 36 27
-46.055393 -29.988792 2.2390635 20 26
-9.4772844 -6.8528514 -0.54478639 1 12
-10.644809 -6.9313259 -0.66571343 1 11
-41.409008 -29.942099 6.2743216 60 29
-45.984207 -29.942438 4.4796028 28 28
-40.596951 -32.489407 -2.118407 27 13
-27.306091 -15.93722 -1.1040804 7 14
-41.13512 -29.744057 -1.1812092 12 16
-2.9565461 -1.9104806 -1.6414495 0 0
-40.562325 -32.230076 -0.90431386 22 17
-46.29607 -29.915901 -1.6041684 30 15
-4.7220459 -3.3893871 -1.627157 39 1
-6.9181862 -4.4704394 -1.6473854 1 2
-41.246613 -29.605967 0 39 20
-26.52487 -15.357381 -0.35682252 5 18
-7.9534717 -5.708838 -1.5231316 9 3
-8.9783649 -5.8016996 -1.3606665 8 4
-40.715008 -32.351395 0.30224279 24 21
-46.607174 -30.116934 -0.32251474 18 19
-9.5859804 -6.8806186 -1.2710279 1 5
-11.953055 -6.9205856 -1.2893202 1 6
-41.267941 -29.621275 1.1820468 15 24
-27.632523 -15.99869 0.37172309 8 22
-9.5855303 -6.8802958 -0.82507962 1 8
-10.628068 -6.8677158 -1.0330034 1 7
-40.601421 -32.261143 1.5092169 16 25
-46.765457 -30.219215 0.97188962 17 23
-8.6696491 -6.8887429 -0.70967293 1 9
-11.995082 -6.9449177 -0.80720222 2 10
-41.322826 -29.660671 2.9622996 35 27
-46.609608 -30.118505 2.2608826 21 26
-9.6050205 -6.8942857 -0.55074239 1 12
-10.68236 -6.9027982 -0.66655082 1 11
-41.458447 -29.758017 6.2660351 60 29
-46.671078 -30.158228 4.5362325 30 28
-40.656914 -32.305233 -2.115639 26 13
-59.763676 -34.601997 -2.4115553 53 14
-54.217007 -38.915848 17.882326 53 31
-41.193214 -29.56764 -1.1799065 12 16
-2.9628654 -1.9006659 -1.6414495 0 0
-40.577938 -32.023533 -0.90228939 22 17
-49.73011 -31.901659 -1.7194833 40 15
-4.7332592 -3.3737092 -1.627157 46 1
-6.9362741 -4.4495912 -1.6481699 1 2
-41.2729 -29.417946 0 38 20
-28.694624 -16.486818 -0.38527331 6 18
-8.0142002 -5.712254 -1.5311253 8 3
-9.050993 -5.8061743 -1.3687476 8 4
-40.834633 -32.226112 0.3023358 24 21
-9.5925512 -6.8372502 -1.268886 1 5
-12.062271 -6.9305129 -1.2986146 1 6
-41.343147 -29.468014 1.1813954 15 24
-26.57218 -15.267344 0.35677594 7 22
-9.5985451 -6.8415227 -0.82424253 1 8
-10.778297 -6.9142332 -1.0453708 3 7
-40.657967 -32.086693 1.5073551 16 25
-50.04319 -32.102497 1.0377899 21 23
-8.6799116 -6.8500628 -0.70864964 1 9
-12.090756 -6.9468794 -0.81208587 2 10
-41.365677 -29.484074 2.9583461 35 27
-50.934429 -32.674225 2.4653959 30 26
-41.198914 -29.36521 -2.3567083 16 12
-10.809419 -6.9341974 -0.67304045 1 11
-41.495468 -29.576586 6.256773 60 29
-51.005646 -32.71991 4.9469604 45 28
-40.804607 -32.202419 -2.1177557 27 13
-60.384148 -34.694386 -2.4319367 54 14
-54.147545 -38.594563 17.817104 53 31
-41.206371 -29.370525 -1.1774871 12 16
-2.9789867 -1.8956327 -1.6465209 0 0
-40.64151 -31.832682 -0.90110266 22 17
-50.318954 -32.019699 -1.735774 42 15
-4.7487373 -3.3585637 -1.6282352 45 1
-6.9591537 -4.4283509 -1.6497388 1 2
-41.32819 -29.22953 0 38 20
-29.151047 -16.60725 -0.39058164 6 18
-8.0576706 -5.6988201 -1.5354298 7 3
-9.1224279 -5.8049173 -1.3763237 9 4
-40.999699 -32.113235 0.30268449 24 21
-50.923222 -32.404213 -0.35080716 45 19
-9.7604132 -6.9030914 -1.287735 1 5
-12.125656 -6.9079442 -1.3027042 1 6
-41.385571 -29.270111 1.1795343 15 24
-26.73222 -15.229252 0.35817286 8 22
-9.7278042 -6.8800292 -0.83317131 1 8
-10.823748 -6.8875265 -1.0473236 1 7
-40.718636 -31.893089 1.5052606 15 25
-50.589031 -32.191555 1.0466558 22 23
-40.715321 -31.890495 -3.3145359 30 9
-12.19247 -6.9460073 -0.81720215 2 10
-41.411514 -29.288462 2.9539275 35 27
-9.7638321 -6.9055095 -0.55707061 1 12
-10.79769 -6.870945 -0.67073768 1 11
-41.548489 -29.385334 6.2484856 60 29
-51.098312 -32.515629 4.9443564 45 28
-53.180813 -41.65416 -2.7521381 52 13
-61.30632 -34.925995 -2.4639046 55 14
-54.326481 -38.422623 17.829527 53 31
-41.297417 -29.207766 -1.1770219 12 16
-2.9883213 -1.8876796 -1.6482112 0 0
-40.67424 -31.641249 -0.89949703 22 17
-50.962337 -32.192173 -1.7542757 43 15
-4.7535443 -3.3383703 -1.6260786 51 1
-6.9771166 -4.4073439 -1.6505232 1 2
-41.369244 -29.053238 0 37 20
-28.777687 -16.268383 -0.38485423 6 18
-8.1023998 -5.6902409 -1.540349 6 3
-9.1919479 -5.8064213 -1.3838998 8 4
-41.112278 -31.982008 0.30273098 24 21
-51.09465 -32.275753 -0.35124886 22 19
-8.3968019 -5.896997 -1.1052417 2 5
-12.283711 -6.9441342 -1.3172034 1 6
-41.416954 -29.086744 1.1776732 14 24
-26.793016 -15.146424 0.35831255 8 22
-9.7473011 -6.8454394 -0.8328923 1 8
-10.937533 -6.9090819 -1.056111 1 7
-40.735806 -31.689142 1.5020025 15 25
-51.277081 -32.390991 1.058663 22 23
-8.8251934 -6.8652821 -0.71658033 1 9
-12.323198 -6.9664564 -0.82441133 2 10
-41.456127 -29.114256 2.9502068 34 27
-51.208591 -32.347729 2.4676757 30 26
-41.285198 -28.994213 -2.3500078 16 12
-10.96901 -6.9289656 -0.67994881 1 11
-41.587219 -29.206322 6.2397108 60 29
-51.327198 -32.422649 4.9560733 45 28
-27.784227 -15.706768 -1.1145504 7 14
-41.305691 -29.008606 -1.1745094 12 16
-2.985678 -1.8714601 -1.64314 0 0
-40.759132 -31.479511 -0.8989386 22 17
-51.43351 -32.239162 -1.76661 42 15
-4.7714887 -3.3261607 -1.6282352 45 1
-6.9991069 -4.3871269 -1.6520922 1 2
-41.41135 -28.867468 0 37 20
-27.166691 -15.232768 -0.36259648 5 18
-8.1384268 -5.6732225 -1.5434237 4 3
-9.2525063 -5.7995858 -1.3899606 12 4
-41.0369 -31.69404 0.30135936 24 21
-52.1492 -32.687763 -0.3577117 23 19
-12.36346 -6.9323759 -1.3231518 1 6
-41.478874 -28.914539 1.1765566 14 24
-26.87364 -15.06845 0.35868508 8 22
-9.8889809 -6.893517 -0.84293723 1 8
-11.049414 -6.9259095 -1.0645728 1 7
-40.782894 -31.497866 1.4996753 15 25
-52.321735 -32.795914 1.0778606 24 23
-40.801929 -31.512568 -3.3040469 30 9
-12.431036 -6.9702673 -0.82999271 2 10
-41.52475 -28.946518 2.9478812 34 27
-52.093304 -32.652729 2.5048006 31 26
-9.9318924 -6.9234304 -0.56395721 1 12
-11.013439 -6.9033599 -0.68120486 1 11
-41.640068 -29.026907 6.232399 30 29
-52.497379 -32.90601 5.0579414 46 28
-40.816952 -31.52417 -2.1011472 26 13
-28.947702 -16.231407 -1.1589425 8 14
-54.748413 -38.164612 17.882326 53 31
-41.396858 -28.857368 -1.1742302 12 16
-2.9891143 -1.8591121 -1.6414495 0 0
-40.798939 -31.283503 -0.89740276 21 17
-52.496387 -32.6507 -1.7991914 42 15
-4.7862382 -3.3116765 -1.6293135 28 1
-7.0110474 -4.3605971 -1.6513077 1 2
-41.557915 -28.754604 0 18 20
-27.436422 -15.258372 -0.36548346 5 18
-8.1711826 -5.6537752 -1.5458833 2 3
-9.3367138 -5.8070707 -1.3995571 12 4
-40.994923 -31.433777 0.3002435 24 21
-52.748692 -32.807625 -0.36103609 23 19
-8.4541197 -5.8495436 -1.1073835 3 5
-10.762126 -5.9852018 -1.1495323 1 6
-41.65519 -28.821909 1.1786969 14 24
-27.020454 -15.027038 0.35994232 8 22
-9.9195471 -6.8634973 -0.84349531 1 8
-11.093834 -6.899931 -1.0665256 1 7
-40.860863 -31.330982 1.4985116 15 25
-52.914749 -32.910904 1.0877037 24 23
-8.9806118 -6.8860855 -0.72527856 1 9
-12.472741 -6.9365354 -0.83115548 2 10
-41.838985 -28.94908 2.9629972 18 27
-52.77713 -32.82531 2.532156 31 26
-9.9362841 -6.8750782 -0.56284046 1 12
-11.125661 -6.9197259 -0.68664783 1 11
-41.78685 -28.913008 6.2392235 30 29
-52.926765 -32.918377 5.0882092 46 28
-40.904541 -31.364475 -2.1000073 26 13
-29.007679 -16.132204 -1.1590821 8 14
-54.970268 -38.034828 17.911314 53 31
-3.0110104 -1.858187 -1.6499019 0 0
-40.821968 -31.075502 -0.89551795 21 17
-53.130623 -32.788536 -1.8169948 41 15
-4.8009434 -3.2971311 -1.6303918 30 1
-7.0295634 -4.3381591 -1.6520922 1 2
-42.040516 -28.872053 0 20 20
-27.517532 -15.177969 -0.36585599 5 18
-8.2136736 -5.640883 -1.5501876 2 3
-9.4075775 -5.8057051 -1.4071331 10 4
-41.075745 -31.268688 0.30003425 24 21
-53.393902 -32.951015 -0.36466274 23 19
-8.5072689 -5.8425145 -1.1116674 4 5
-42.134621 -28.936684 1.1893978 16 24
-27.226841 -15.017632 0.36199114 8 22
-10.022386 -6.8830471 -0.85019189 1 8
-11.239988 -6.936542 -1.0782421 1 7
-40.899986 -31.134893 1.4959517 15 25
-53.63512 -33.099876 1.10013 25 23
-40.877998 -31.118155 -3.2925346 30 9
-12.62625 -6.9643183 -0.83976007 2 10
-42.298573 -29.049278 2.9883459 19 27
-53.449177 -32.985126 2.5588601 32 26
-10.082088 -6.9240494 -0.56972706 1 12
-11.23133 -6.9311981 -0.69167209 1 11
-42.273697 -29.032194 6.2967458 30 29
-53.560429 -33.053783 5.1380043 47 28
-53.075893 -40.403736 -2.7176182 51 13
-26.105972 -14.399389 -1.0411217 6 14
-42.345592 -29.081572 -1.1953533 13 16
-3.008203 -1.8419857 -1.6448303 0 0
-40.872761 -30.889408 -0.8942613 21 17
-53.848289 -32.972435 -1.8375909 41 15
-4.8156066 -3.2825222 -1.6314702 38 1
-7.0312824 -4.3054013 -1.6489543 1 2
-42.464951 -28.945915 0 21 20
-28.966934 -15.845798 -0.38438857 6 18
-8.2365799 -5.6144028 -1.5508025 1 3
-9.4650097 -5.7956238 -1.412689 10 4
-53.154556 -40.171322 0.38723624 30 21
-54.603592 -33.434921 -0.37212521 23 19
-8.5539007 -5.8307028 -1.1150945 4 5
-10.884011 -5.9538865 -1.1580832 3 6
-42.608761 -29.043941 1.1999128 17 24
-26.724674 -14.619213 0.35463396 7 22
-10.049648 -6.8502674 -0.8504709 1 8
-11.291332 -6.9139185 -1.0808457 1 7
-40.944622 -30.943718 1.4936243 15 25
-54.354034 -33.282112 1.1124862 26 23
-9.1462984 -6.9122744 -0.73474431 1 9
-12.759088 -6.9796104 -0.84696931 2 10
-42.65379 -29.074636 3.0062528 20 27
-54.712631 -33.50169 2.6137333 33 26
-10.089689 -6.8775611 -0.56879646 1 12
-11.269081 -6.9002943 -0.69250941 1 11
-42.706112 -29.110302 6.3459811 30 29
-54.834866 -33.576534 5.2489853 48 28
-53.19429 -40.201347 -2.7164786 51 13
-26.152573 -14.306256 -1.0409822 6 14
-3.0177128 -1.833356 -1.6465209 0 0
-40.93235 -30.710546 -0.89321423 21 17
-54.639648 -33.195316 -1.8606306 40 15
-4.8302255 -3.2678506 -1.6325485 35 1
-7.0496206 -4.2828679 -1.6497388 1 2
-42.794331 -28.952166 0 21 20
-27.323988 -14.823372 -0.36189801 5 18
-8.2659483 -5.5922618 -1.5526472 2 3
-9.5530062 -5.8037539 -1.4227904 10 4
-53.281647 -39.975925 0.38714319 30 21
-54.90799 -33.358341 -0.37340385 24 19
-8.6203175 -5.8320074 -1.121092 9 5
-10.915228 -5.9215546 -1.1591984 3 6
-43.123901 -29.175133 1.2115444 19 24
-26.926714 -14.607849 0.35663626 7 22
-10.185867 -6.8911681 -0.85995781 1 8
-11.390357 -6.9200025 -1.0880058 1 7
-40.972427 -30.740618 1.4907154 15 25
-55.115894 -33.48465 1.1256802 27 23
-9.141633 -6.8587456 -0.73244178 1 9
-12.818472 -6.954072 -0.8492949 2 10
-43.734016 -29.5879 3.0750892 23 27
-54.979538 -33.40181 2.6208978 33 26
-10.212918 -6.9094687 -0.57438022 1 12
-11.409171 -6.9314327 -0.69962716 1 11
-43.560497 -29.470509 6.4576135 30 29
-55.15958 -33.511189 5.2688384 49 28
-53.206421 -39.919483 -2.7099655 51 13
-26.065311 -14.140535 -1.0355378 6 14
-43.210014 -29.233393 -1.2139637 15 16
-40.984783 -30.526854 -0.89202744 20 17
-55.361301 -33.369709 -1.8812265 40 15
-4.8416038 -3.2509687 -1.6325485 39 1
-7.0645289 -4.2582321 -1.6497388 1 2
-43.795086 -29.406878 0 24 20
-28.463974 -15.313449 -0.37628639 5 18
-8.2985458 -5.572185 -1.5551069 1 3
-9.6207857 -5.7990475 -1.4298614 12 4
-53.379181 -39.758621 0.38684103 30 21
-55.66814 -33.554661 -0.37777439 24 19
-8.6802454 -5.8284831 -1.1262326 9 5
-10.977923 -5.9060578 -1.1636598 5 6
-43.680317 -29.329815 1.2242925 21 24
-27.738373 -14.92308 0.36669415 8 22
-10.226425 -6.8666892 -0.86135292 1 8
-11.513462 -6.9398823 -1.0974441 1 7
-41.012154 -30.547241 1.4882718 14 25
-55.838715 -33.657478 1.1380365 27 23
-41.044762 -30.571527 -3.2799988 30 9
-12.944654 -6.9641466 -0.85603905 2 10
-44.576328 -29.931456 3.1269493 26 27
-55.687977 -33.56662 2.6490674 33 26
-10.26683 -6.8938198 -0.57605529 1 12
-11.498299 -6.9307423 -0.70360464 1 11
-43.946571 -29.508595 6.499536 30 29
-55.883995 -33.684772 5.3267698 49 28
-40.854477 -30.429798 -2.0754201 24 13
-29.955305 -16.115778 -1.1878394 9 14
-41.036415 -30.343191 -0.89084065 20 17
-56.06424 -33.52718 -1.9011247 39 15
-4.8561277 -3.2361863 -1.6336268 35 1
-7.075983 -4.2315345 -1.6489543 1 2
-44.526566 -29.67308 0 26 20
-28.605471 -15.261073 -0.3774505 5 18
-8.3376789 -5.5563374 -1.5587963 1 3
-9.6954565 -5.7980156 -1.4379426 10 4
-41.035542 -30.342545 0.29661685 23 21
-56.145386 -33.575706 -0.38021544 24 19
-8.7534876 -5.8334374 -1.1330869 10 5
-11.061721 -5.9014492 -1.1703519 7 6
-44.075264 -29.372326 1.2324812 22 24
-10.330023 -6.8840609 -0.86804956 1 8
-11.544458 -6.9037442 -1.0980949 1 7
-41.070305 -30.36825 1.4865263 14 25
-56.577141 -33.833904 1.1506721 28 23
-9.2791634 -6.8612099 -0.73960501 1 9
-13.085148 -6.9809508 -0.86371338 2 10
-44.683853 -29.777899 3.1271818 26 27
-56.32275 -33.681774 2.6736543 34 26
-10.373957 -6.9133387 -0.58070844 1 12
-11.56356 -6.9151673 -0.7061168 1 11
-44.379684 -29.575195 6.5482841 30 29
-56.49395 -33.784153 5.3736358 50 28
-40.931519 -30.265631 -2.0739548 49 13
-26.099913 -13.924353 -1.0330251 6 14
-41.084053 -30.157164 -0.88958412 20 17
-56.851471 -33.729092 -1.9238153 39 15
-4.8673944 -3.2192152 -1.6336268 27 1
-7.0974579 -4.2108111 -1.6505232 1 2
-45.417244 -30.038223 0 29 20
-71.031258 -37.577374 -0.93552411 30 18
-8.3636169 -5.5315595 -1.5600262 1 3
-9.7873011 -5.8066535 -1.448549 7 4
-58.880138 -34.932671 -0.3979069 25 19
-8.8069687 -5.8247852 -1.1373708 11 5
-11.13858 -5.8925972 -1.1763002 5 6
-44.711189 -29.571249 1.2473696 24 24
-27.668638 -14.637425 0.36441249 8 22
-10.393929 -6.8743739 -0.87139785 1 8
-11.688494 -6.9346013 -1.109486 1 7
-41.118046 -30.182116 1.4844319 14 25
-57.441292 -34.079025 1.1658207 29 23
-40.967567 -30.071661 -3.2569742 30 9
-13.183561 -6.9744449 -0.86859703 2 10
-57.43679 -34.076355 2.720875 35 26
-10.458014 -6.9167595 -0.5840587 1 12
-11.700997 -6.9420195 -0.71302515 1 11
-44.813797 -29.639112 6.5970321 30 29
-57.811577 -34.29871 5.4875455 51 28
-40.988594 -30.087093 -2.0715125 48 13
-26.084755 -13.799511 -1.0305123 6 14
-41.094566 -29.966684 -0.88776904 20 17
-57.63237 -33.948078 -1.9466221 38 15
-4.8903604 -3.212368 -1.6379399 12 1
-7.1072707 -4.1865044 -1.6497388 1 2
-29.853449 -15.673418 -0.39253736 6 18
-8.3974695 -5.5161095 -1.5631007 1 3
-9.863616 -5.8101163 -1.4571354 9 4
-41.125988 -29.989597 0.29582644 47 21
-29.08811 -17.134214 -0.19621022 5 19
-8.8717585 -5.8276591 -1.1433682 11 5
-11.234613 -5.8983068 -1.1844792 5 6
-45.27179 -29.738022 1.260397 26 24
-27.937588 -14.667568 0.36734605 8 22
-10.472168 -6.8789325 -0.87614131 1 8
-11.768616 -6.9322476 -1.1150188 1 7
-41.17712 -30.026882 1.4831518 14 25
-57.854759 -34.079075 1.1720339 30 23
-9.4373512 -6.8818378 -0.74855912 1 9
-13.283188 -6.9738331 -0.87371325 2 10
-45.624641 -29.969801 3.1790421 58 27
-58.01878 -34.17569 2.7433455 35 26
-10.516426 -6.9080038 -0.58610606 1 12
-11.757165 -6.9255028 -0.71511859 1 11
-58.430866 -34.418427 5.5360389 52 28
-41.028008 -29.91815 -2.0687442 48 13
-26.05011 -13.67662 -1.0274411 6 14
-45.405479 -29.82584 -1.2641191 19 16
-41.15229 -29.778339 -0.88665205 20 17
-58.847401 -34.373863 -1.9833926 37 15
-4.8956485 -3.1902149 -1.6357833 4 1
-7.1191816 -4.1584463 -1.6489543 1 2
-45.680977 -29.767687 0 29 20
-72.559166 -37.755806 -0.95224065 30 18
-8.4308777 -5.4939218 -1.5655602 1 3
-9.9259624 -5.7979393 -1.4631962 11 4
-41.167583 -29.789406 0.29533821 47 21
-26.290909 -15.35701 -0.17696117 4 19
-8.9397078 -5.8254972 -1.1493655 12 5
-11.34095 -5.9012079 -1.1934019 5 6
-45.759079 -29.818581 1.2709119 27 24
-28.118895 -14.63153 0.36902234 8 22
-10.58089 -6.8949623 -0.88311696 1 8
-11.845585 -6.9192266 -1.1199007 1 7
-41.21888 -29.826525 1.4807081 14 25
-26.498005 -15.477978 0.53564924 4 23
-41.054886 -29.707857 -3.2477641 30 9
-13.400764 -6.973022 -0.87975973 2 10
-45.894775 -29.907007 3.1902046 29 27
-58.878738 -34.39217 2.778028 36 26
-10.655496 -6.9435787 -0.59243429 1 12
-11.868702 -6.9327297 -0.72035217 1 11
-46.012383 -29.983646 6.7432747 30 29
-59.13842 -34.543854 5.5910416 52 28
-41.082352 -29.727732 -2.0659761 48 13
-13.415292 -6.9805813 -0.52809918 2 14
-41.210499 -29.601854 -0.88567472 20 17
-28.09107 -16.277279 -0.94486064 5 15
-7.1370468 -4.1355386 -1.6497388 1 2
-46.264923 -29.918676 0 30 20
-75.064949 -38.727337 -0.98334569 30 18
-8.45996 -5.470901 -1.567405 1 3
-10.004504 -5.7970772 -1.4717824 4 4
-41.22258 -29.610531 0.2949895 47 21
-26.122854 -15.136803 -0.17547332 4 19
-9.0167589 -5.8309727 -1.1566482 11 5
-11.432267 -5.898109 -1.2008375 5 6
-46.406868 -30.010469 1.2859864 29 24
-28.258657 -14.579141 0.37018645 8 22
-10.635049 -6.8774905 -0.88562822 1 8
-11.973148 -6.9378018 -1.1296644 1 7
-41.254539 -29.63349 1.4782646 14 25
-28.122906 -16.295727 0.56734288 4 23
-9.5868597 -6.886323 -0.75648987 1 9
-13.524385 -6.9774694 -0.8862713 2 10
-46.535393 -30.093584 3.2274134 31 27
-59.696957 -34.591209 2.8109193 36 26
-10.666246 -6.897666 -0.59168977 1 12
-12.006883 -6.9573493 -0.72726053 1 11
-59.938179 -34.730984 5.6551571 53 28
-41.120937 -29.537521 -2.0627196 47 13
-13.563916 -6.9978642 -0.53298509 2 14
-41.238686 -29.404417 -0.88406909 19 17
-28.165047 -16.189085 -0.94544232 5 15
-4.9048328 -3.147639 -1.6314702 46 1
-7.1616406 -4.1164646 -1.6520922 0 2
-46.641747 -29.931986 0 31 20
-75.644783 -38.692745 -0.9891662 30 18
-8.5056162 -5.4584141 -1.5723244 1 3
-10.093482 -5.8016677 -1.481884 11 4
-41.273579 -29.429298 0.29461753 47 21
-26.182465 -15.049511 -0.17551981 4 19
-9.0805693 -5.8273859 -1.1622173 11 5
-11.537883 -5.9016938 -1.2097601 5 6
-28.341423 -14.496802 0.37060556 8 22
-10.763094 -6.9071336 -0.89427799 1 8
-12.097528 -6.9535804 -1.1391027 1 7
-41.321918 -29.463766 1.4769846 14 25
-26.490986 -15.226847 0.53334552 4 23
-41.124767 -29.323193 -3.2370193 30 9
-13.655312 -6.9847713 -0.89324796 2 10
-46.865318 -30.07546 3.2429948 32 27
-60.558861 -34.808838 2.8457649 37 26
-10.831494 -6.9510283 -0.59950703 1 12
-12.062263 -6.9333105 -0.72914463 1 11
-47.263073 -30.330715 6.8953681 30 29
-60.781441 -34.936775 5.7231774 54 28
-41.168476 -29.354357 -2.0599515 47 13
-13.609614 -6.9613967 -0.53382272 2 14
-41.293537 -29.237459 -0.8831616 19 17
-28.072708 -16.012392 -0.94055516 5 15
-4.9087467 -3.1272166 -1.6293135 50 1
-7.1752524 -4.0926924 -1.6520922 0 2
-29.801853 -15.119345 -0.38904503 6 18
-8.5303373 -5.4344244 -1.5735542 1 3
-10.157473 -5.7937212 -1.4884498 9 4
-41.32198 -29.257599 0.29426885 46 21
-26.475441 -15.101327 -0.17714715 4 19
-9.1568651 -5.8335667 -1.1694999 10 5
-11.628426 -5.8994379 -1.2171956 6 6
-50.094013 -31.913408 1.3821098 42 24
-28.503483 -14.460645 0.37209558 8 22
-10.792671 -6.8756905 -0.89483607 1 8
-12.144762 -6.9272513 -1.1413809 1 7
-41.380241 -29.298851 1.4755883 14 25
-26.836626 -15.307343 0.53927934 4 23
-9.7377625 -6.894722 -0.76467639 1 9
-13.79948 -7.0008769 -0.90115488 2 10
-50.713226 -32.307892 3.5018296 45 27
-61.451607 -35.051384 2.8822384 38 26
-10.824157 -6.8957491 -0.5978319 1 12
-12.168464 -6.9407701 -0.73416889 1 11
-47.514076 -30.269808 6.9173045 30 29
-61.669209 -35.175503 5.7957544 55 28
-41.213402 -29.180721 -2.0573461 47 13
-13.753837 -6.9777203 -0.53856903 2 14
-41.339722 -29.054045 -0.88197482 19 17
-28.131916 -15.916272 -0.94067156 5 15
-4.9196324 -3.1100628 -1.6293135 51 1
-7.1792536 -4.0618262 -1.6497388 0 2
-51.026768 -32.257786 0 44 20
-29.611469 -14.893019 -0.38587865 6 18
-8.5759821 -5.4215112 -1.5784734 1 3
-10.257068 -5.8031697 -1.5000665 8 4
-41.361679 -29.069479 0.29382715 46 21
-28.219938 -15.966074 -0.18844549 5 19
-9.2242346 -5.8313198 -1.1754973 8 5
-11.730783 -5.8999696 -1.2257465 6 6
-50.847336 -32.144352 1.3997897 44 24
-28.471603 -14.319727 0.37102464 8 22
-10.938027 -6.9147344 -0.904881 1 8
-12.276436 -6.9456735 -1.1514701 1 7
-41.39394 -29.092152 1.4724464 14 25
-26.771547 -15.146614 0.53690583 4 23
-41.215641 -28.966841 -3.2285769 30 9
-13.905885 -6.9939327 -0.90650368 2 10
-62.154503 -35.165325 2.909431 38 26
-10.983256 -6.943327 -0.60527688 1 12
-12.314301 -6.9670963 -0.74149591 1 11
-47.659718 -30.129225 6.9231544 30 29
-62.464783 -35.340874 5.8588934 56 28
-41.259426 -28.997614 -2.0545781 47 13
-13.867392 -6.9745722 -0.542059 2 14
-41.355602 -28.850069 -0.8801598 19 17
-28.145458 -15.794495 -0.93927521 5 15
-4.927196 -3.0908244 -1.6282352 44 1
-7.1865468 -4.0329018 -1.6481699 0 2
-51.281372 -32.168747 0 44 20
-25.85111 -12.888889 -0.33628762 4 18
-8.5848103 -5.3852415 -1.5766287 1 3
-10.339549 -5.8022838 -1.5091579 11 4
-41.430092 -28.902037 0.29359466 23 21
-28.205736 -15.82832 -0.18798055 5 19
-9.3085442 -5.8392391 -1.1836368 10 5
-11.833283 -5.8998575 -1.2342973 5 6
-51.558826 -32.342793 1.41626 44 24
-28.725447 -14.32198 0.3736788 9 22
-10.98576 -6.8913546 -0.90683419 1 8
-12.415338 -6.9671621 -1.1622102 1 7
-41.449329 -28.915455 1.4708174 13 25
-27.166054 -15.244878 0.54374719 4 23
-9.8969727 -6.9042244 -0.77337468 1 9
-14.008834 -6.9845476 -0.9116199 2 10
-51.90501 -32.559952 3.5683408 46 27
-62.332642 -34.979446 2.9120364 38 26
-11.034506 -6.9219327 -0.60676587 1 12
-12.366414 -6.9397073 -0.74317068 1 11
-53.49218 -33.555584 7.7533283 36 29
-63.307446 -35.526482 5.9262633 56 28
-41.366951 -28.857988 -2.0549037 23 13
-13.98467 -6.9724994 -0.54568851 2 14
-41.712524 -28.883121 -0.88560492 19 17
-63.75489 -35.485516 -2.1234927 34 15
-4.9444952 -3.0776772 -1.6303918 40 1
-7.2005806 -4.007792 -1.6481699 0 2
-52.364578 -32.594078 0 45 20
-29.280849 -14.471498 -0.38024437 5 18
-8.6236897 -5.3677735 -1.5803182 2 3
-10.41868 -5.7989631 -1.5177441 7 4
-41.681999 -28.861984 0.29466403 23 21
-27.890343 -15.523565 -0.1855163 5 19
-9.3693876 -5.8319297 -1.1887773 8 5
-11.935925 -5.8991017 -1.2428482 6 6
-52.526947 -32.695145 1.4397093 43 24
-27.674454 -13.677567 0.35938355 8 22
-11.094439 -6.9056792 -0.91380978 1 8
-12.404747 -6.9043937 -1.1589556 1 7
-41.872158 -28.993656 1.4822209 14 25
-27.334425 -15.214146 0.54605091 4 23
-9.9636765 -6.8991766 -0.77670044 1 9
-14.154845 -6.9957604 -0.91952682 2 10
-52.676041 -32.787945 3.6134567 47 27
-62.520721 -34.798588 2.9151301 38 26
-11.133229 -6.9298244 -0.61086059 1 12
-12.47433 -6.9431229 -0.74819487 1 11
-64.221825 -35.745407 6.0001421 57 28
-41.773018 -28.925007 -2.0700469 24 13
-14.109269 -6.9732351 -0.54959732 2 14
-52.567688 -32.720501 -1.4408259 31 16
-42.221794 -29.018234 -0.8942613 21 17
-26.830385 -14.811166 -0.8919158 5 15
-4.9420996 -3.0523021 -1.6260786 52 1
-7.2179604 -3.9845276 -1.6489543 0 2
-52.917049 -32.682232 0 46 20
-29.000734 -14.207311 -0.37596044 5 18
-8.6390104 -5.3355608 -1.5797032 2 3
-10.508335 -5.8009114 -1.5278455 5 4
-42.154995 -28.972324 0.29729104 23 21
-28.056414 -15.48797 -0.18626022 5 19
-9.4302912 -5.8242655 -1.193918 8 5
-12.045859 -5.9012046 -1.2521427 6 6
-53.110275 -32.801567 1.4525505 43 24
-27.585539 -13.514013 0.3576141 8 22
-11.182981 -6.9067483 -0.91911131 1 8
-12.606775 -6.9593129 -1.175554 1 7
-42.309208 -29.07831 1.4940898 15 25
-65.593826 -36.209732 1.3078135 38 23
-10.027175 -6.8914862 -0.77977037 1 9
-14.29752 -7.0042815 -0.92720121 2 10
-53.320179 -32.93121 3.6497355 48 27
