# .PCD v0.7 - Point Cloud Data file format
VERSION 0.7
FIELDS x y z intensity ring
SIZE 4 4 4 4 2
TYPE F F F F U
COUNT 1 1 1 1 1
WIDTH 1300
HEIGHT 1
VIEWPOINT 0 0 0 1 0 0 0
POINTS 1300
DATA ascii
0.09533713 8.032711 -0.65579772 10 7
0.20172149 16.996214 0.29669091 12 23
0.58391523 9.601963 -0.56022763 1 10
-0.6255967 16.899771 0.98487508 14 27
0.2017747 17.000698 0.69267517 12 26
-0.29739496 8.0337801 -0.37448248 0 12
-0.57895339 15.639755 1.921636 49 29
0.19346578 16.300623 1.3307974 16 28
-0.69994694 8.1311588 -0.33249709 8 13
-0.60473222 16.33614 4.3802538 28 31
0.19432378 16.372913 2.9854155 60 30
-0.30473757 8.232132 -0.19168828 3 16
0.12957329 8.4359188 -1.6873932 2 2
-0.57064778 17.02244 0 78 20
0.53679502 8.3461895 -0.097366028 1 18
-0.26736557 7.975523 -1.2415029 13 3
0.12273299 7.9905787 -1.0172169 42 4
-1.4021431 16.981926 0.099035017 33 21
0.26120278 17.005709 -0.098849036 16 19
-0.26729345 7.973372 -0.85934675 79 5
0.51584721 8.0204878 -0.75024456 59 6
-0.57129723 17.041813 0.39677614 61 24
1.0959244 17.039637 0.19878314 17 22
-0.27072495 8.0757332 -0.56502742 0 8
0.12343548 8.036315 -0.65612316 11 7
0.26116741 17.003405 0.29683053 11 23
0.61845195 9.6158056 -0.56115788 1 10
-0.56673902 16.905842 0.9851076 14 27
0.26123619 17.007883 0.69300079 12 26
0.14803129 9.6376352 -0.50514668 0 11
-0.52422726 15.637714 1.9211485 52 29
0.25011605 16.283903 1.3294955 18 28
-0.67090368 8.1255875 -0.33217147 6 13
-0.5480966 16.349737 4.3833594 28 31
0.25159216 16.380005 2.9868503 57 30
-0.27559999 8.2211561 -0.19140913 6 16
0.15894766 8.4314938 -1.6866088 2 2
-0.51158047 17.036322 0 73 20
0.56592762 8.344265 -0.097366028 1 18
-0.23975933 7.9843092 -1.2427328 13 3
0.15085106 8.0020037 -1.0187321 41 4
-1.3422216 16.978743 0.098988526 42 21
0.32056671 17.004694 -0.098849036 16 19
-0.23933809 7.9702816 -0.85891843 73 5
0.54411238 8.0226116 -0.75061631 44 6
-0.51216221 17.055693 0.3970553 65 24
1.155943 17.04369 0.19887629 17 22
-0.24468739 8.1484213 -0.57004988 0 8
0.15133856 8.0278635 -0.65547228 11 7
-1.343882 16.999744 0.49628454 17 25
0.32044789 16.99839 0.29676074 11 23
0.6520161 9.6135883 -0.56115788 1 10
-0.50783855 16.911709 0.98534018 14 27
0.3207584 17.014862 0.69332647 12 26
0.18152399 9.6290722 -0.50472802 0 11
-0.46987239 15.647385 1.9221234 49 29
0.30718571 16.294889 1.330472 16 28
-0.64316368 8.1358471 -0.33249709 10 13
-0.49078572 16.343828 4.381289 28 31
0.30884603 16.382961 2.9875677 60 30
-0.24701895 8.2260647 -0.19150217 8 16
-1.3077656 17.352139 -0.30374169 14 17
0.18984771 8.4308548 -1.6866088 2 2
-0.4491396 17.038082 0 67 20
0.59793162 8.3620815 -0.097598851 1 18
-0.21049553 7.9851346 -1.2427328 13 3
0.18017709 8.0013971 -1.0187321 39 4
-1.310047 17.38241 0.10131329 19 21
0.38297617 17.007404 -0.098872282 17 19
-0.2100209 7.9671297 -0.85849005 73 5
0.5735113 8.0205631 -0.75061631 31 6
-0.44954497 17.053459 0.39696223 60 24
1.218685 17.043327 0.19892284 14 22
-0.25498953 9.6730127 -0.67663783 0 8
0.18084912 8.0312405 -0.65579772 11 7
-1.2809687 16.996582 0.49605176 6 25
0.38292432 17.0051 0.29690033 11 23
0.68838447 9.6270657 -0.56208807 1 10
-0.44532827 16.893499 0.98417747 14 27
0.38320506 17.017567 0.69348931 12 26
-0.41252217 15.649002 1.9221234 49 29
0.36690384 16.293653 1.330472 16 28
-0.61304146 8.1341648 -0.33233428 10 13
0.8453756 11.822589 -0.41390803 1 14
-0.43098471 16.349377 4.3823242 24 31
0.36879832 16.377785 2.9868503 60 30
-0.21739598 8.2469025 -0.19196744 13 16
-1.2390058 17.200809 -0.3010191 21 17
0.21790801 8.4341002 -1.6873932 2 2
-0.39253995 17.035479 0 56 20
0.6259588 8.3640413 -0.097645409 1 18
-0.18410355 7.9897399 -1.2433476 13 3
0.20701931 8.0126553 -1.0202472 40 4
0.4395839 17.014036 -0.098918773 14 19
-0.18368921 7.9717584 -0.85891843 76 5
0.60010755 8.0186176 -0.75061631 26 6
-0.39280224 17.046862 0.39677614 32 24
1.2757978 17.047169 0.19901597 14 22
-0.18779474 8.149931 -0.57004988 0 8
0.20768885 8.0385695 -0.65644866 12 7
0.43952438 17.011732 0.29703996 11 23
0.71911579 9.6088018 -0.56115788 1 10
-0.3896682 16.910851 0.9851076 14 27
0.43963993 17.016203 0.69348931 12 26
0.21645091 8.3777037 -0.43920338 0 11
-0.3606216 15.650284 1.9221234 47 29
0.42124689 16.304304 1.3314483 16 28
-0.37676132 16.350718 4.3823242 30 31
0.42351806 16.392208 2.9897203 60 30
-0.18958418 8.2275887 -0.19150217 10 16
-1.1650076 17.001537 -0.29745883 20 17
0.27628866 9.41996 -0.27426556 0 15
0.2471195 8.4254475 -1.6858244 2 2
-0.33275536 17.020748 0 75 20
0.65671527 8.3817434 -0.097878225 0 18
-0.1562109 7.9903336 -1.2433476 13 3
0.23475695 8.0039511 -1.0192372 42 4
-1.1646185 16.995859 0.099011771 33 21
0.49921039 17.020393 -0.098965272 14 19
-0.15617028 7.9882555 -0.86063194 73 5
0.62902945 8.0283852 -0.75173169 19 6
-0.33329064 17.048128 0.39677614 34 24
1.335925 17.050585 0.19910909 17 22
-0.18718691 9.5747862 -0.66966212 0 8
0.23563267 8.0338087 -0.65612316 13 7
0.4991428 17.018087 0.29717955 11 23
0.7535907 9.6181765 -0.56185555 1 10
-0.33078757 16.920094 0.98557281 14 27
0.49950811 17.030544 0.69414061 13 26
0.24089403 8.2131929 -0.43062031 0 11
-0.30606318 15.655417 1.922611 47 29
0.47827822 16.306719 1.3317738 16 28
-0.55874878 8.1540995 -0.33298558 0 13
-0.31983104 16.359657 4.3843946 31 31
0.48085466 16.394562 2.9904377 60 30
-0.16086119 8.2282 -0.19150217 6 16
-1.1061846 17.013481 -0.29759842 18 17
0.27099249 8.2560558 -0.24040416 0 15
0.27652249 8.4245329 -1.6858244 2 2
-0.27245232 16.965813 0 39 20
0.68531054 8.3714275 -0.097785108 0 18
-0.12826051 7.9868784 -1.2427328 13 3
0.2628192 8.0070486 -1.0197423 37 4
-1.1052964 16.999819 0.099011771 31 21
0.5583455 17.010551 -0.098918773 16 19
-0.12816288 7.9807992 -0.85977525 76 5
0.65801924 8.0380497 -0.75284702 17 6
-0.27289227 16.993208 0.39547336 16 24
1.3964019 17.057779 0.19924879 14 22
-0.13089681 8.1510429 -0.57004988 0 8
0.26393056 8.0409069 -0.6567741 13 7
-1.105366 17.000891 0.49581906 17 25
0.55866355 17.020241 0.29724941 12 23
0.78715318 9.6154881 -0.56185555 1 10
-0.27186325 16.929131 0.98603785 15 27
0.55867881 17.020706 0.69381493 12 26
-0.12786643 7.9623394 -0.37094614 0 12
0.26785275 8.1604004 -0.42789882 0 11
-0.25142443 15.65639 1.922611 47 29
0.53466207 16.289011 1.330472 18 28
-0.5362519 8.2477293 -0.33673066 0 13
-0.26267245 16.356812 4.3833594 30 31
0.53806818 16.392782 2.9904377 57 30
-0.13233671 8.2407074 -0.19178133 1 16
-1.0715858 17.420414 -0.3046492 9 17
0.29923156 8.2390776 -0.23993872 0 15
0.30607247 8.4274349 -1.6866088 2 2
-0.21312389 16.958662 0 24 20
0.71487057 8.3729687 -0.097831666 0 18
-0.10042785 7.9912291 -1.2433476 13 3
0.29062548 8.0021162 -1.0192372 35 4
-1.0670649 17.346918 0.10101107 19 21
0.61816001 17.020491 -0.098988526 13 19
-0.10030178 7.9811978 -0.85977525 70 5
0.68709177 8.0476074 -0.75396234 21 6
-0.21341798 16.982063 0.39519423 14 24
1.4569613 17.064754 0.19938847 14 22
-0.10178953 8.0995808 -0.56642258 0 8
0.29214373 8.0439196 -0.65709955 12 7
-1.0474834 17.028589 0.49651724 9 25
0.61822152 17.022182 0.2973192 12 23
0.82139468 9.6206388 -0.56232065 1 10
-0.21266304 16.921989 0.98557281 14 27
0.6186735 17.034628 0.69446629 13 26
0.29648334 8.1634073 -0.42810816 0 11
-0.19681764 15.661142 1.9230984 47 29
0.59224582 16.306967 1.3320993 16 28
-0.20557056 16.35763 4.3833594 30 31
0.59557629 16.398668 2.9918725 57 30
-0.10407078 8.2811041 -0.19271186 0 16
0.32735544 8.222003 -0.23947328 0 15
0.33533409 8.4223976 -1.6858244 2 2
-0.15388502 16.955303 0 22 20
0.7465747 8.3983107 -0.098157614 0 18
-0.072566397 7.9954834 -1.2439624 13 3
0.31887418 8.0089836 -1.0202472 40 4
0.67757344 17.01823 -0.098988526 14 19
-0.072403379 7.9775224 -0.85934675 76 5
0.71588653 8.0530949 -0.75470591 27 6
-0.15413372 16.982704 0.39519423 16 24
1.5172325 17.067533 0.19948162 17 22
-0.073586382 8.1078672 -0.5669806 0 8
0.32022265 8.0428524 -0.65709955 12 7
0.67811811 17.031912 0.29752862 12 23
-0.56221908 9.6917896 -0.62217903 0 9
0.85320652 9.5978241 -0.56115788 1 10
-0.15358849 16.92263 0.98557281 14 27
0.67829525 17.036362 0.69462913 12 26
0.32513824 8.1663141 -0.42831749 0 11
-0.14214469 15.661735 1.9230984 45 29
0.64932716 16.308784 1.3324248 16 28
-0.1484662 16.358248 4.3833594 30 31
0.65297568 16.400423 2.99259 60 30
-0.075161509 8.2814169 -0.19271186 0 16
-0.46909392 8.6059122 -0.15043975 0 17
0.3569169 8.2407827 -0.2400551 0 15
0.36439046 8.4133387 -1.6842554 2 2
-0.094702616 16.955738 0 28 20
0.77735627 8.4115849 -0.098343872 0 18
-0.044702347 8.0035934 -1.2451923 13 3
0.34717053 8.0157509 -1.0212574 31 4
-0.92764723 17.018448 0.099058263 33 21
0.73731655 17.023754 -0.099035017 14 19
-0.044580087 7.9817042 -0.85977525 70 5
0.74435753 8.054513 -0.75507766 37 6
-0.094877996 16.987137 0.39528728 19 24
1.5782689 17.078066 0.19966787 14 22
-0.045308188 8.1120653 -0.56725961 0 8
0.3486388 8.0496511 -0.65775049 10 7
0.73773593 17.033436 0.29759842 12 23
-0.52143461 9.5661449 -0.61399245 0 9
0.87788284 9.4993582 -0.55557656 1 10
-0.094520122 16.923063 0.98557281 14 27
0.73792845 17.037882 0.69479191 12 26
0.35502306 8.1970558 -0.42999226 0 11
-0.087521829 15.670075 1.9240733 42 29
0.70607549 16.302435 1.3320993 18 28
-0.091389373 16.36253 4.3843946 30 31
0.7102164 16.398043 2.99259 60 30
-0.045987237 8.2336435 -0.19159523 0 16
-0.43044004 8.4677753 -0.14799641 0 17
0.39504254 8.4080276 -1.683471 2 2
-0.03254408 16.951971 0 24 20
0.80780047 8.4046974 -0.098297313 0 18
-0.015357775 7.9997511 -1.2445775 13 3
0.37654945 8.0144243 -1.0212574 34 4
-0.86505789 17.01774 0.099035017 29 21
0.80027431 17.032923 -0.099104755 14 19
-0.015323339 7.9818134 -0.85977525 68 5
0.77349478 8.0477657 -0.75470591 37 6
-0.032612041 16.987371 0.39528728 16 24
1.6408567 17.072166 0.19966787 8 22
-0.018400298 9.5845785 -0.6702202 0 8
0.37795487 8.0443363 -0.65742493 13 7
-0.86612731 17.038776 0.49651724 17 25
0.80054146 17.038609 0.29773808 12 23
-0.48717758 9.5839376 -0.61501575 0 9
0.92606753 9.6351976 -0.56371599 1 10
-0.032512031 16.935276 0.98627043 14 27
0.80056238 17.039053 0.69495475 12 26
0.38187951 8.1278677 -0.42643344 0 11
-0.030068291 15.662351 1.9230984 42 29
0.76657486 16.315668 1.3334011 16 28
-0.031427745 16.37048 4.3864651 30 31
0.7706871 16.403193 2.9940252 57 30
-0.016045002 8.3577232 -0.19447987 0 16
-0.3997021 8.413229 -0.14701907 0 17
0.4229207 8.4066715 -1.683471 2 2
0.023678664 16.959986 0 30 20
0.84279102 8.4736137 -0.099135473 0 18
0.011163334 7.9958053 -1.2439624 12 3
0.40332189 8.0170937 -1.0217625 33 4
-0.81279969 17.108416 0.099546462 13 21
0.85695076 17.034172 -0.099128015 14 19
0.011149362 7.9857974 -0.86020356 68 5
0.80096465 8.0530825 -0.75544941 38 6
0.023716919 16.987387 0.39528728 16 24
0.013348084 9.5606451 -0.66854608 0 8
0.40482748 8.0470209 -0.65775049 13 7
-0.8119002 17.089481 0.4979136 13 25
0.85743749 17.043848 0.29787767 11 23
-0.45425874 9.5615768 -0.61348075 0 9
0.8098048 8.141963 -0.47650743 0 10
0.023660913 16.947271 0.98696816 14 27
0.85806215 17.056263 0.69576889 12 26
0.40802592 8.1105986 -0.42559603 0 11
0.021878079 15.670304 1.9240733 42 29
0.8200711 16.30109 1.3324248 18 28
0.022861045 16.374361 4.3875008 30 31
0.82566762 16.412336 2.9961774 54 30
0.011534641 8.2617559 -0.19224659 0 16
-0.36681688 8.3346624 -0.14562289 0 17
0.45226109 8.4051447 -1.683471 2 2
0.082895897 16.963799 0 24 20
0.87441117 8.4905138 -0.099368289 0 18
0.039110787 8.003623 -1.2451923 12 3
0.43172905 8.0235624 -1.0227727 29 4
0.91661721 17.03507 -0.099151261 14 19
0.039042685 7.9896865 -0.86063194 65 5
0.82988459 8.0581608 -0.75619304 41 6
0.083049327 16.995197 0.39547336 16 24
0.039835833 8.1519966 -0.57004988 0 8
0.43312684 8.0495396 -0.65807593 13 7
0.91692281 17.040751 0.29787767 12 23
-0.42140839 9.5750685 -0.61424822 0 9
0.85540056 8.3059206 -0.48627481 0 10
0.082775183 16.939096 0.98650295 14 27
0.91737604 17.049175 0.69560611 10 26
0.42882112 7.9695191 -0.41826901 0 11
0.076593623 15.674103 1.9245608 42 29
0.87760669 16.310072 1.3334011 18 28
0.080014646 16.374182 4.3875008 30 31
0.88337171 16.417213 2.9976122 51 30
-0.3359381 8.291934 -0.14485498 0 17
0.48182443 8.4074306 -1.6842554 2 2
0.14211462 16.963406 0 30 20
0.90828198 8.5271816 -0.099833935 0 18
0.067050539 8.003437 -1.2451923 12 3
0.45996302 8.0259676 -1.0232776 30 4
-0.68961644 17.021748 0.099011771 29 21
0.97676611 17.043747 -0.099220999 14 19
0.066900469 7.9855247 -0.86020356 65 5
0.85969728 8.0710564 -0.75768012 40 6
0.14244467 17.002802 0.39565951 16 24
1.8890061 17.734468 0.20763037 9 22
0.068293542 8.1518078 -0.57004988 0 8
0.46122447 8.0479784 -0.65807593 13 7
0.97709143 17.049423 0.29808709 12 23
-0.32835296 8.1047106 -0.51984692 0 9
0.88777429 8.334651 -0.48813528 0 10
0.14194112 16.942696 0.98673552 15 27
0.97757369 17.057838 0.69609457 10 26
0.46806684 8.1673727 -0.42873621 0 11
0.13131016 15.673739 1.9245608 42 29
0.9352228 16.318851 1.3343775 18 28
-0.32648882 8.0586977 -0.3285892 0 13
0.13720745 16.377665 4.388536 30 31
0.94090265 16.417959 2.9983301 48 30
0.50970423 8.4057865 -1.6842554 2 2
0.19832446 16.958841 0 31 20
0.94354576 8.5877352 -0.10057896 0 18
0.093592748 8.003171 -1.2451923 12 3
0.48705822 8.03232 -1.0242879 28 4
-0.63316178 17.023943 0.099011771 22 21
1.0340111 17.052393 -0.099290743 14 19
0.093429781 7.9892354 -0.86063194 63 5
0.88732934 8.0760784 -0.75842369 44 6
0.19878519 16.99824 0.39556646 17 24
1.9486842 17.736061 0.20772351 9 22
0.095934391 8.2034063 -0.57367724 0 8
0.48839492 8.0543642 -0.65872687 13 7
-0.63602519 17.100931 0.49802995 20 25
1.0343552 17.058065 0.29829654 11 23
-0.35517997 9.5497913 -0.61245745 0 9
0.92631334 8.4308939 -0.49394915 0 10
0.19808237 16.938141 0.98650295 14 27
1.0346229 17.062483 0.69642025 12 26
0.18342906 15.685127 1.9260232 38 29
0.98957884 16.319637 1.334703 16 28
0.19161189 16.384846 4.3906064 28 31
0.99534613 16.414749 2.9983301 33 30
-0.27814186 8.2540569 -0.14415687 2 17
0.53878987 8.4000416 -1.683471 2 2
0.25776002 16.974045 0 18 20
0.97351491 8.5843897 -0.10057896 0 18
0.12164679 8.0107002 -1.2464222 12 3
0.51559949 8.0384903 -1.0252981 26 4
-0.57508397 17.066025 0.099244244 9 21
1.0935251 17.048679 -0.099290743 14 19
0.12137554 7.9928374 -0.86106032 58 5
0.91551292 8.0729322 -0.75842369 42 6
0.258176 17.001438 0.39565951 16 24
2.0096772 17.721201 0.20763037 9 22
0.12347674 8.1312056 -0.56865478 0 8
0.51624995 8.0486307 -0.65840131 13 7
-0.57781279 17.147003 0.49930996 20 25
1.094401 17.062334 0.29843614 11 23
-0.32211369 9.5589523 -0.6129691 0 9
0.93323666 8.2292185 -0.48232135 0 10
0.25726333 16.941338 0.98673552 14 27
1.0949395 17.07073 0.69690871 10 26
0.1439684 9.4806261 -0.44167343 0 12
0.23811565 15.680422 1.9255358 38 29
1.0462803 16.312105 1.3343775 18 28
1.0905571 9.6164598 -0.33796671 1 14
0.24885969 16.387939 4.3916416 28 31
1.0435667 16.2698 2.9725008 37 30
0.56837118 8.4020233 -1.6842554 2 2
0.31715471 16.981041 0 20 20
1.0146219 8.6762829 -0.10169651 0 18
0.14953309 8.0062742 -1.2458072 11 3
0.54392207 8.0406008 -1.0258031 27 4
-0.51515025 17.055935 0.099174507 20 21
1.1532958 17.04875 -0.099313989 14 19
0.14927332 7.9923649 -0.86106032 61 5
0.94461048 8.0775986 -0.75916719 38 6
0.31766626 17.00843 0.39584559 16 24
2.0729136 17.725998 0.20777006 25 22
0.15185747 8.1307249 -0.56865478 0 8
0.54434007 8.0467806 -0.65840131 13 7
-0.51530302 17.060993 0.49674994 28 25
1.1544893 17.066393 0.29857579 11 23
-0.24488039 8.1076622 -0.51984692 0 9
0.96659273 8.2655745 -0.48464692 0 10
0.31654364 16.948324 0.98720068 14 27
1.1545172 17.066807 0.69690871 10 26
0.53866237 7.9628496 -0.41826901 0 11
0.29299405 15.687435 1.9265107 38 29
1.1042866 16.324265 1.3356793 18 28
1.1157584 9.5411263 -0.33545396 1 14
0.3060593 16.386972 4.3916416 28 31
1.1006148 16.269985 2.9732182 46 30
-0.22072846 8.2637939 -0.1442965 2 17
0.59797281 8.4038992 -1.6850398 2 2
0.37642404 16.97983 0 20 20
1.0602098 8.7997618 -0.10318656 0 18
0.17765279 8.0136061 -1.2470371 12 3
0.57226557 8.0426102 -1.0263082 24 4
1.2142159 17.064569 -0.099430233 16 19
0.17725742 7.9957714 -0.86148876 59 5
0.97375202 8.0821609 -0.75991076 36 6
0.37711981 17.011215 0.39593863 14 24
2.1362076 17.730566 0.20790975 6 22
0.18094382 8.1620588 -0.57088697 0 8
0.57298946 8.052784 -0.65905225 13 7
1.2140514 17.062258 0.29857579 11 23
-0.25537637 9.5609684 -0.6129691 0 9
0.99304903 8.2423267 -0.48348412 0 10
0.37596431 16.959091 0.98789829 14 27
1.2146481 17.070644 0.69723433 10 26
0.57354063 8.0605307 -0.42350259 0 11
0.34792426 15.694255 1.9274857 38 29
1.1615416 16.324286 1.3360047 16 28
1.1457071 9.5093927 -0.3344768 0 14
0.3633408 16.389668 4.3926768 28 31
1.1568389 16.258194 2.9717834 23 30
0.21350922 9.6310272 -0.22416362 0 16
-0.19006401 8.2485542 -0.14401726 2 17
0.61619091 8.2334795 -0.24028781 0 15
0.62936229 8.4094744 -1.6866088 2 2
0.43918481 16.998327 0 18 20
1.1042933 8.891077 -0.10430411 1 18
0.20723303 8.0208035 -1.2482669 12 3
0.60204142 8.0444155 -1.0268131 24 4
-0.39225012 17.023191 0.098965272 51 21
1.276168 17.052025 -0.099383727 9 19
0.20656809 7.9950676 -0.86148876 59 5
1.0048466 8.090394 -0.76102608 34 6
0.43968561 17.017712 0.39612475 16 24
2.2041502 17.746433 0.20818914 6 22
0.2100396 8.1294298 -0.56865478 0 8
0.60280401 8.0546045 -0.65937769 13 7
-0.39245915 17.032265 0.49581906 28 25
1.277189 17.065668 0.29871538 9 23
-0.22004902 9.5498676 -0.61220163 0 9
0.43782306 16.945623 0.98720068 15 27
1.278711 17.086004 0.69804853 10 26
0.21600051 8.3601427 -0.38955858 0 12
0.722332 9.6517258 -0.50724012 0 11
0.40566093 15.70081 1.9284606 38 29
1.221675 16.323896 1.3363303 18 28
1.1805601 9.5051279 -0.3344768 0 14
0.4235214 16.392086 4.3937125 28 31
1.2173134 16.265615 2.9739356 23 30
0.24406324 9.44629 -0.2198832 0 16
-0.16119754 8.2451687 -0.14394745 4 17
0.65870726 8.4072266 -1.6866088 2 2
0.49850574 16.996693 0 18 20
1.1353163 8.8871679 -0.10430411 0 18
0.23533995 8.023982 -1.2488818 12 3
0.63073242 8.0501776 -1.0278233 22 4
-0.33268109 17.01646 0.098918773 56 21
0.23470253 8.0022478 -0.86234546 56 5
1.0335804 8.0907879 -0.76139784 32 6
0.49907419 17.016073 0.39612475 14 24
2.2680986 17.754501 0.20837541 6 22
0.63122213 8.056428 -0.65970325 13 7
-0.33262408 17.013544 0.49523723 23 25
1.3373647 17.069082 0.29885501 9 23
-0.18671902 9.5505781 -0.61220163 0 9
1.0464382 8.1914377 -0.48092601 8 10
0.4974283 16.959957 0.98813087 14 27
1.3380207 17.077454 0.69788569 10 26
0.23931876 8.1596394 -0.38025233 0 12
0.75476372 9.6332169 -0.50640279 0 11
0.46080294 15.711205 1.9299231 38 29
1.2792602 16.32748 1.3369812 18 28
1.2122059 9.4890537 -0.33405799 0 14
0.48117968 16.405956 4.3978534 28 31
1.2753019 16.27696 2.9768057 25 30
0.27656007 9.4293928 -0.219511 0 16
-0.13267018 8.2616749 -0.14422669 3 17
0.67365241 8.2289772 -0.24028781 0 15
0.68741196 8.3970566 -1.6850398 2 2
0.5577054 16.990849 0 22 20
1.1694579 8.9069462 -0.10458349 0 18
0.26360887 8.0310125 -1.2501116 12 3
0.658831 8.0479269 -1.0278233 22 4
-0.27237681 16.961527 0.09859331 29 21
0.98265952 12.003642 -0.069998696 3 19
0.26289719 8.0093307 -0.86320227 56 5
1.0628554 8.0950289 -0.76214147 34 6
0.55886638 17.026218 0.39640391 14 24
2.330585 17.750443 0.20842198 6 22
0.26573744 8.0958605 -0.56642258 2 8
0.65999305 8.0621214 -0.66035408 13 7
-0.27239451 16.962629 0.49372452 15 25
1.3982483 17.080252 0.29913425 11 23
-0.15331347 9.5471802 -0.61194581 0 9
1.0755473 8.1916943 -0.48115855 7 10
0.55676204 16.962109 0.98836339 14 27
1.3989327 17.088614 0.69853705 10 26
0.26806408 8.1667423 -0.38062459 0 12
0.78708416 9.6145983 -0.5055654 0 11
0.51525581 15.697597 1.9284606 38 29
1.3369006 16.330862 1.3376321 18 28
1.2458442 9.4887276 -0.33419758 0 14
0.53870201 16.4119 4.3999238 30 31
1.3330789 16.284178 2.9789581 23 30
0.2719554 8.2852945 -0.19289798 0 16
-0.10378222 8.25809 -0.14415687 2 17
0.6938678 8.1269808 -0.23737878 0 15
0.7163837 8.3906994 -1.6842554 2 2
0.61729801 16.996796 0 18 20
0.29163906 8.0300436 -1.2501116 10 3
0.68658024 8.041625 -1.0273184 31 4
-0.21317191 16.962376 0.09859331 20 21
1.0248919 12.004125 -0.070021942 2 19
0.29114041 8.0163126 -0.86405909 51 5
1.0921685 8.0991621 -0.76288497 30 6
0.61829203 17.024164 0.39640391 14 24
2.3935966 17.750126 0.20851509 6 22
0.29399398 8.0948839 -0.56642258 2 8
0.68779027 8.0557976 -0.66002864 13 7
-0.21318577 16.963478 0.49372452 17 25
1.4581977 17.079254 0.29920405 9 23
-0.12003881 9.5516491 -0.61220163 0 9
1.1052008 8.1958055 -0.48162368 7 10
0.61596394 16.960062 0.98836339 14 27
1.4589109 17.087608 0.69869983 9 26
0.29656801 8.1657572 -0.38062459 0 12
0.81927931 9.5958719 -0.50472802 0 11
0.57062072 15.711574 1.9304106 35 29
1.3942335 16.330069 1.3379575 16 28
1.2816279 9.5041313 -0.33489558 1 14
0.59626406 16.417643 4.4019947 30 31
1.3902445 16.283346 2.9796755 17 30
0.3020342 8.3162651 -0.19364238 0 16
-0.074953325 8.2584019 -0.14415687 4 17
0.73993605 8.3236389 -0.24319687 0 15
0.74601787 8.3920536 -1.6850398 2 2
0.67710608 17.006527 0 18 20
2.458288 17.761473 -0.20874792 12 18
0.31966954 8.0289764 -1.2501116 11 3
-0.15395647 16.963017 0.09859331 22 21
1.0671453 12.004459 -0.070045188 2 19
0.31880653 8.0073004 -0.86320227 55 5
1.1215274 8.1031914 -0.76362854 31 6
0.67787737 17.0259 0.39649698 16 24
2.4577396 17.757511 0.20870136 6 22
0.32336202 8.1217184 -0.56837577 0 8
0.71661431 8.0612898 -0.66067958 14 7
-0.15407535 16.976114 0.49407366 17 25
1.5181653 17.078043 0.29927388 11 23
-0.087092623 9.5959177 -0.61501575 0 9
1.1354471 8.203764 -0.48232135 7 10
0.67564303 16.96978 0.98906112 14 27
1.5196153 17.094353 0.69918829 9 26
0.32602593 8.1886263 -0.38174134 0 12
0.85348016 9.6009111 -0.50514668 0 11
0.62578094 15.717419 1.9313855 38 29
1.4522911 16.337015 1.3389339 18 28
1.1492836 8.3037338 -0.29273698 0 14
0.6535731 16.415461 4.4019947 30 31
1.4484736 16.294071 2.9825454 12 30
0.33026838 8.2951822 -0.19317713 0 16
-0.046145868 8.2626123 -0.14422669 2 17
0.76898861 8.3210049 -0.24319687 0 15
0.7749483 8.3854933 -1.6842554 2 2
0.73647016 17.004059 0 18 20
2.5214014 17.760702 -0.20884104 8 18
0.34803808 8.0357094 -1.2513415 12 3
0.7427085 8.0366354 -1.0273184 86 4
-0.094761521 16.967449 0.098616555 24 21
0.34692943 8.0101118 -0.86363065 46 5
1.1514877 8.1110563 -0.76474386 27 6
0.73765516 17.03142 0.39668307 16 24
2.5219634 17.76466 0.20888761 6 22
0.35447478 8.1843233 -0.57284021 0 8
0.74548483 8.0666771 -0.66133046 13 7
-0.094857 16.984545 0.49430636 16 25
1.5785099 17.080603 0.29941347 9 23
-0.054217841 9.7079325 -0.62217903 0 9
1.164079 8.1997499 -0.48232135 7 10
0.73453331 16.959339 0.98859602 14 27
1.5796486 17.092924 0.69935113 9 26
0.35547417 8.2073984 -0.38267195 0 12
0.88735849 9.6018515 -0.50535601 0 11
0.68081701 15.719106 1.9318731 35 29
1.5100471 16.339785 1.3395848 18 28
1.174893 8.2759237 -0.29189938 0 14
0.71120834 16.420799 4.4040651 30 31
1.5860993 17.162725 3.1425424 24 30
0.35939711 8.2979736 -0.19327018 0 16
-0.018738346 8.2587214 -0.14415687 2 17
0.80237573 8.378973 -1.683471 2 2
0.79340923 17.013512 0 18 20
0.37468189 8.0345106 -1.2513415 11 3
0.76973146 8.0380783 -1.0278233 87 4
-0.038507298 16.97167 0.098639801 24 21
0.37367362 8.0128899 -0.86405909 55 5
1.1783769 8.1071939 -0.76474386 27 6
0.79393959 17.024885 0.39659002 16 24
0.3795667 8.1392584 -0.56977087 0 8
0.77374923 8.0800352 -0.66263229 14 7
-0.038537011 16.984766 0.49430636 15 25
-0.022026774 9.7080593 -0.62217903 0 9
1.1924111 8.2037487 -0.48278651 7 10
0.79095107 16.9608 0.9888286 14 27
1.6370807 17.095551 0.69967687 4 26
0.38026756 8.1542873 -0.38025233 0 12
0.91843098 9.5909042 -0.50493735 0 11
0.73330635 15.724693 1.932848 35 29
1.5653602 16.346594 1.340561 16 28
1.211529 8.3352795 -0.29413298 0 14
0.76583445 16.422211 4.4051003 24 31
1.6441262 17.169125 3.144695 21 30
0.38728306 8.3047237 -0.19345626 0 16
0.010093248 8.2627344 -0.14422669 2 17
0.82284111 8.2877274 -0.24238235 0 15
0.83239222 8.3839264 -1.6850398 2 2
0.85278916 17.010639 0 18 20
0.40311947 8.041049 -1.2525713 11 3
0.79817522 8.0392904 -1.0283284 84 4
0.02074136 16.979702 0.098686308 22 21
1.7585845 17.712616 -0.10345207 43 19
0.40163994 8.0115366 -0.86405909 55 5
1.2084272 8.1148491 -0.76585919 25 6
0.85375977 17.029999 0.39677614 14 24
0.40757447 8.1299133 -0.56921285 0 8
0.80155367 8.0733185 -0.66230685 14 7
0.020747583 16.984797 0.49430636 16 25
1.760717 17.734097 0.31107169 12 23
0.011858789 9.7080765 -0.62217903 0 9
1.2222148 8.2074356 -0.48325157 7 10
0.85054684 16.96591 0.98929363 14 27
1.7603153 17.730049 0.72589231 3 26
0.40472612 8.0730972 -0.37652984 0 12
0.9463768 9.5319901 -0.50200653 0 11
0.78818816 15.722038 1.932848 35 29
1.6231955 16.348967 1.3412122 18 28
0.82353753 16.427155 4.4071708 22 31
1.7063768 17.186777 3.1489999 24 30
0.41226342 8.223444 -0.19159523 0 16
0.040375829 8.2626419 -0.14422669 3 17
0.85771537 8.3284054 -0.24366231 0 15
0.86271161 8.3769188 -1.6842554 2 2
0.91641635 17.031364 0 18 20
2.7102561 17.753096 -0.20907387 88 18
0.43237454 8.0355701 -1.2519563 11 3
0.82804006 8.0402584 -1.0288336 84 4
0.082990803 16.983511 0.098709553 24 21
1.8259472 17.729923 -0.10359156 21 19
0.43164024 8.021924 -0.86534417 49 5
1.2405639 8.1261139 -0.76734632 23 6
0.91659808 17.03474 0.39696223 16 24
2.7114632 17.761003 0.20916699 84 22
0.43608123 8.1044588 -0.56753868 0 8
0.83113664 8.0703259 -0.66230685 14 7
0.082976624 16.980608 0.49419001 15 25
1.8269291 17.739456 0.31128111 13 23
0.047438487 9.7079678 -0.62217903 0 9
1.2546971 8.2186909 -0.48418179 7 10
0.91336423 16.974642 0.98999125 14 27
1.8273306 17.743357 0.72670645 4 26
0.84601688 15.723007 1.9333354 35 29
1.682286 16.334974 1.340561 18 28
1.2711399 8.3263969 -0.29413298 7 14
0.88394469 16.427885 4.4082065 16 31
1.6988057 16.49538 3.0234416 9 30
0.44239926 8.2218771 -0.19159523 0 16
0.069320269 8.2744484 -0.14443611 3 17
0.88339603 8.2935543 -0.24273144 0 15
0.89194947 8.3738565 -1.6842554 1 2
0.97563684 17.024067 0 16 20
2.774684 17.759335 -0.20926014 78 18
0.46087566 8.0419044 -1.2531862 11 3
0.8552624 8.0294285 -1.0278233 83 4
0.14224479 16.979118 0.098686308 24 21
1.8891007 17.735374 -0.1036613 12 19
0.45986903 8.0243397 -0.8657726 46 5
1.2701533 8.1296024 -0.76808977 22 6
0.97628796 17.035429 0.3970553 14 24
2.776536 17.771189 0.20939982 93 22
0.46437052 8.1028872 -0.56753868 0 8
0.8609935 8.0832338 -0.66360867 13 7
0.14232095 16.988211 0.4944227 16 25
1.888845 17.732973 0.31128111 9 23
0.066914923 7.9873333 -0.51191622 0 9
1.2839968 8.2182074 -0.48441437 7 10
0.97261566 16.97135 0.98999125 14 27
1.8896832 17.740845 0.72686929 3 26
0.90158081 15.73185 1.9347978 33 29
1.7414111 16.348825 1.3421884 16 28
1.3014331 8.3298082 -0.29441217 3 14
0.94128758 16.424702 4.4082065 16 31
1.8284851 17.1663 3.1475646 28 30
0.057897009 0.52610761 -0.2468091 10 0
0.09811037 8.2661591 -0.1442965 4 17
0.36194149 5.9517727 -1.6692107 0 1
0.9224636 8.3823872 -1.6866088 2 2
1.0362747 17.04052 0 18 20
2.8398192 17.769287 -0.20949294 100 18
0.48966628 8.0520821 -1.2550309 12 3
0.88415533 8.0342817 -1.0288336 84 4
0.20165905 16.990517 0.098756045 20 21
1.9518771 17.736624 -0.1037078 14 19
0.48811999 8.0266542 -0.86620098 46 5
1.2978969 8.1211863 -0.76771802 21 6
1.0364797 17.043892 0.39733443 16 24
2.8398192 17.769287 0.20949294 68 22
0.49386528 8.12113 -0.56893378 0 8
0.88964236 8.0841417 -0.66393417 15 7
0.20171948 16.995607 0.49465546 15 25
1.9511753 17.730246 0.31135091 4 23
0.096266277 8.1107874 -0.51984692 0 9
1.3139381 8.2215595 -0.48487946 7 10
1.031613 16.963863 0.98975873 14 27
1.9524781 17.742085 0.72719491 3 26
0.91672152 8.3302088 -0.43920338 0 11
0.95697606 15.736532 1.9357728 33 29
1.7997813 16.354534 1.3431649 16 28
1.3323963 8.3370552 -0.29483095 2 14
0.99885368 16.425169 4.4092417 16 31
1.8905524 17.179369 3.1511521 17 30
0.50731677 8.3423271 -0.19447987 0 16
0.057598706 0.50790203 -0.23835671 10 0
0.1255804 8.2697868 -0.14436631 4 17
0.9407292 8.2952948 -0.24296413 9 15
0.38192162 5.9543843 -1.6702889 0 1
0.94936985 8.3714876 -1.6850398 2 2
1.0930299 17.040983 0 18 20
2.8987255 17.759773 -0.20949294 61 18
0.51661658 8.0543585 -1.2556458 11 3
0.91123861 8.0352488 -1.0293386 77 4
0.25793627 16.985756 0.098732799 18 21
2.0120316 17.741978 -0.10377754 12 19
0.51498753 8.0289612 -0.86662936 41 5
1.3261023 8.1247005 -0.76846164 18 6
1.09299 17.040361 0.39733443 14 24
2.9013026 17.775562 0.2096792 59 22
0.52053612 8.1154661 -0.56865478 0 8
0.91779137 8.0930309 -0.6649105 13 7
0.25813499 16.998842 0.49477184 15 25
2.0131109 17.751495 0.31183958 4 23
0.1248575 8.2221823 -0.5270102 0 9
1.343123 8.228982 -0.48557714 7 10
1.088625 16.972309 0.99045646 14 27
2.0130999 17.751398 0.72784626 4 26
0.93713689 8.2636185 -0.43585387 0 11
1.0101683 15.749122 1.9377227 38 29
1.8553492 16.360361 1.3441411 16 28
0.14370075 9.4630575 -0.38557938 0 13
1.3632538 8.3523188 -0.29552895 2 14
1.05356 16.425625 4.4102769 16 31
1.9501679 17.196466 3.155457 21 30
0.53497642 8.3405991 -0.19447987 0 16
0.060634378 0.51849997 -0.24342814 10 0
0.15451953 8.2732964 -0.14443611 3 17
0.97014207 8.2959318 -0.2430805 10 15
0.40348265 5.9645438 -1.6735239 0 1
0.95717204 8.1850214 -1.6481699 1 2
1.1525037 17.037064 0 18 20
2.9633293 17.765327 -0.2096792 59 18
0.54526025 8.0603933 -1.2568756 12 3
0.94020146 8.0399017 -1.0303488 74 4
0.31744659 16.99675 0.098802537 18 21
2.0744114 17.738819 -0.10380079 10 19
0.5432775 8.0310831 -0.8670578 41 5
1.3570739 8.1357346 -0.76994872 19 6
1.1532714 17.048412 0.39761361 14 24
2.9646456 17.773218 0.20977233 84 22
0.54832083 8.1056366 -0.5680967 0 8
0.94742322 8.1016569 -0.66588688 13 7
0.31761628 17.005835 0.49500453 15 25
2.0769176 17.76025 0.31211883 4 23
0.15221405 8.1498556 -0.52240521 0 9
1.3738085 8.2360601 -0.48627481 7 10
1.1481286 16.972387 0.99068898 14 27
2.0764406 17.756172 0.72833472 4 26
1.124187 9.6132088 -0.50724012 0 11
1.0648656 15.741538 1.9372352 35 29
1.9133689 16.361704 1.344792 16 28
1.3943719 8.3593388 -0.29594773 2 14
1.1028023 16.302343 4.3781829 16 31
2.0106363 17.193462 3.1561744 17 30
0.56111658 8.2947922 -0.19345626 0 16
0.057674024 0.47869393 -0.22483292 10 0
0.18348871 8.2767057 -0.14450593 4 17
0.99957496 8.296464 -0.24319687 5 15
0.42320839 5.9477305 -1.6692107 0 1
0.97260273 8.0725946 -1.6262047 1 2
1.2119718 17.032936 0 16 20
0.57311457 8.0544977 -1.2562606 13 3
0.96873701 8.0405092 -1.0308539 56 4
0.37669039 16.991539 0.098779291 18 21
2.139673 17.759268 -0.10396352 17 19
0.57159227 8.0331039 -0.86748618 37 5
1.3868049 8.1388006 -0.77069229 19 6
1.2136306 17.056248 0.39789274 14 24
0.57746333 8.1156149 -0.56893378 0 8
0.97569972 8.0983 -0.66588688 14 7
0.37689179 17.000624 0.49488819 15 25
2.1389048 17.752892 0.31211883 10 23
0.17977892 8.1093664 -0.51984692 0 9
1.2076544 16.972261 0.99092156 14 27
2.1412818 17.772621 0.7293117 4 26
1.1543945 9.5814648 -0.50577474 0 11
1.120375 15.745645 1.9382101 30 29
1.9704747 16.354925 1.344792 16 28
1.4269027 8.3741245 -0.2966457 2 14
1.1583345 16.279125 4.3730063 24 31
2.0725281 17.201967 3.1590445 21 30
0.5931918 8.3366613 -0.19447987 0 16
0.064252712 0.51806402 -0.24342814 10 0
0.21258208 8.2840109 -0.14464554 4 17
1.0304956 8.3087969 -0.24366231 5 15
0.44453958 5.9538999 -1.6713673 0 1
1.0002908 8.0652571 -1.6254202 1 2
1.2723103 17.040571 0 16 20
0.60181338 8.0603313 -1.2574905 13 3
0.99728441 8.0410175 -1.0313588 31 4
0.43599594 16.99012 0.098779291 18 21
2.2031245 17.763601 -0.10403327 15 19
0.60022008 8.0389919 -0.868343 37 5
1.4172525 8.1456823 -0.77180767 14 6
1.2740502 17.063875 0.39817193 14 24
0.606381 8.1215086 -0.56949186 0 8
1.0059234 8.110672 -0.66718876 14 7
0.43643421 17.007198 0.49512088 15 25
2.2033184 17.765163 0.3124679 4 23
0.20839025 8.1206608 -0.52061439 0 9
1.440172 8.2774124 -0.48929805 0 10
1.2677796 16.979889 0.99161929 14 27
2.2033031 17.765039 0.7293117 4 26
1.1873393 9.5734138 -0.5055654 0 11
1.1762142 15.753517 1.9396726 30 29
2.0290208 16.359818 1.3457685 16 28
0.20987505 8.1785212 -0.33331126 0 13
1.2151487 16.274982 4.3730063 5 31
2.1349795 17.214153 3.1626315 24 30
0.61603409 8.2507954 -0.19252574 0 16
0.063767068 0.49985614 -0.23497579 10 0
0.2411499 8.271225 -0.14443611 4 17
1.0610127 8.3170471 -0.2440114 4 15
0.46622211 5.9638324 -1.6746023 0 1
1.0299289 8.0733881 -1.6277736 1 2
1.3324133 17.044001 0 15 20
0.63025576 8.0621223 -1.2581054 14 3
1.0268553 8.0492945 -1.0328741 28 4
0.49565417 17.000492 0.098849036 20 21
2.266135 17.763737 -0.10407976 15 19
0.62827992 8.0368481 -0.868343 32 5
1.449858 8.1642122 -0.77403826 4 6
1.334546 17.071281 0.39845106 14 24
0.63441789 8.1153641 -0.56921285 0 8
1.0342309 8.107111 -0.66718876 14 7
0.49603531 17.013565 0.49535358 13 25
2.2668402 17.769264 0.31267729 4 23
1.4683608 8.2684031 -0.4890655 0 10
1.3270473 16.975359 0.99161929 14 27
2.2703638 17.796886 0.73094004 4 26
1.2212576 9.5731716 -0.50577474 0 11
1.2318202 15.757231 1.9406476 30 29
2.0876327 16.364496 1.3467448 16 28
0.23923962 8.2057037 -0.33445105 0 13
1.2722573 16.274496 4.374042 5 31
2.1950598 17.206594 3.1626315 28 30
0.65293646 8.3522501 -0.19494511 0 16
0.27015319 8.2743311 -0.14450593 4 17
1.09108 8.3212214 -0.24424414 5 15
0.4864113 5.9544902 -1.6724457 0 1
1.0581062 8.0697441 -1.6277736 1 2
3.1105464 17.167292 -0.20311362 12 18
0.65903968 8.0677519 -1.2593353 16 3
1.0549484 8.045661 -1.0328741 24 4
0.55499858 16.998657 0.098849036 18 21
2.3296926 17.767614 -0.1041495 10 19
0.65665585 8.0385695 -0.86877131 31 5
1.3941323 17.066519 0.39845106 14 24
3.1112599 17.17123 0.2031602 9 22
0.6624192 8.1091223 -0.56893378 0 8
1.064599 8.1192617 -0.66849059 13 7
0.55555588 17.015726 0.49546999 13 25
2.3304172 17.77314 0.31288674 4 23
0.265082 8.119009 -0.52061439 1 9
1.5000639 8.2789431 -0.48999572 0 10
1.3866239 16.974602 0.99185181 12 27
2.3314378 17.780924 0.7306143 3 26
1.0895265 8.3093739 -0.43920338 0 11
1.2868199 15.752834 1.9406476 33 29
2.1452653 16.361063 1.3470703 16 28
0.26657945 8.1648731 -0.33282277 0 13
3.1102879 17.165867 -0.60920566 13 14
1.3303206 16.285357 4.3781829 5 31
0.68664765 8.4057188 -0.19624786 0 16
0.29931754 8.2813311 -0.14464554 4 17
1.120114 8.3173628 -0.24424414 4 15
0.50522721 5.929728 -1.6659758 0 1
1.0862628 8.0660019 -1.6277736 1 2
1.0241714 12.020448 0 2 20
3.1733479 17.172066 -0.20329988 14 18
0.68786293 8.0732784 -1.2605652 20 3
1.0835505 8.0458622 -1.0333792 18 4
0.61460871 17.00461 0.098895527 18 21
2.3932881 17.771269 -0.10421924 8 19
0.68504375 8.0401907 -0.86919969 34 5
1.4550433 17.077488 0.39882329 15 24
3.1718946 17.164202 0.20320676 12 22
1.0945246 8.1273499 -0.66946697 13 7
0.61508107 17.017679 0.49558637 13 25
2.3940318 17.776789 0.31309617 4 23
0.29355955 8.1220226 -0.52087021 0 9
1.4468732 16.981596 0.99254942 14 27
2.3934784 17.77268 0.7306143 3 26
0.82564086 9.6903448 -0.45302701 0 12
1.1158537 8.2857275 -0.43815669 0 11
1.3421259 15.752203 1.941135 33 29
2.2034161 16.361382 1.3477212 18 28
0.2957947 8.1838636 -0.33363688 0 13
3.1709037 17.158838 -0.6093452 13 14
1.3874757 16.284462 4.3792181 7 31
2.3371813 17.354649 3.1927657 50 30
0.71088672 8.343504 -0.19485207 0 16
0.32838359 8.2842321 -0.14471537 2 17
1.1518797 8.3332043 -0.24482593 4 15
0.52796674 5.9509497 -1.6724457 0 1
1.1154881 8.069932 -1.6293426 1 2
1.5136465 17.060987 0 5 20
3.2332747 17.160883 -0.20329988 14 18
0.7153433 8.0629539 -1.2593353 22 3
1.1154346 8.0695457 -1.0369147 10 4
0.67460036 17.018349 0.098988526 18 21
2.4580503 17.782618 -0.10433549 10 19
0.71381015 8.0456734 -0.87005651 29 5
1.5150039 17.076286 0.39891633 15 24
3.2347558 17.168743 0.20339301 12 22
0.72077465 8.1241732 -0.57032895 2 8
1.1228899 8.1234798 -0.66946697 13 7
0.67448467 17.015429 0.49558637 13 25
2.4577174 17.78021 0.31330562 6 23
0.32459897 8.188756 -0.52521938 0 9
1.5072044 16.988375 0.99324715 14 27
2.457696 17.780056 0.73126566 3 26
0.85240185 9.6078033 -0.44930452 0 12
1.397809 15.755331 1.9421101 35 29
2.2621565 16.365437 1.3486975 16 28
0.3194547 8.05898 -0.3285892 0 13
3.2330046 17.159449 -0.60976398 16 14
1.445681 16.294916 4.3833594 9 31
0.74142247 8.356905 -0.19522427 1 16
0.35695246 8.2750435 -0.14457573 5 17
1.1820819 8.3370514 -0.24505867 4 15
0.54873496 5.9490705 -1.6724457 0 1
1.1441996 8.0698729 -1.6301271 1 2
3.3014514 17.192701 -0.20381211 6 18
0.74348217 8.0604086 -1.2593353 27 3
1.1458224 8.0813179 -1.0389351 7 4
0.7341702 17.019886 0.099011771 15 21
0.74225402 8.0470934 -0.87048489 31 5
1.5757004 17.082842 0.39919552 14 24
3.2991884 17.180916 0.20367239 9 22
0.74912721 8.1216078 -0.57032895 3 8
1.1534764 8.1353006 -0.6707688 13 7
0.73421645 17.020958 0.49581906 13 25
0.34956673 8.1038237 -0.51984692 0 9
3.2998555 17.184391 -1.0190609 5 10
1.566859 16.986988 0.99347967 14 27
2.5219858 17.787199 0.73191702 3 26
0.88740021 9.6206846 -0.45004904 0 12
1.1703072 8.2540054 -0.43690062 6 11
1.4535229 15.758264 1.9430851 33 29
2.3198249 16.361387 1.349023 18 28
0.34930459 8.0977468 -0.33021751 0 13
3.3026791 17.199095 -0.61157876 5 14
1.5014839 16.278229 4.3802538 5 31
2.4787226 17.482069 3.2193122 11 30
0.38294986 8.273881 -0.14457573 4 17
1.2099913 8.3451681 -0.24540776 3 15
0.56852102 5.9588199 -1.6756804 0 1
1.1701112 8.0701189 -1.6309115 1 2
1.6271465 17.054554 0 15 20
3.3661849 17.237202 -0.204464 6 18
0.76880336 8.058032 -1.2593353 18 3
1.1729153 8.0894585 -1.0404502 8 4
0.78764093 17.017494 0.099011771 18 21
0.76753342 8.0447216 -0.87048489 29 5
1.6305044 17.089748 0.39947465 8 24
3.3646517 17.229351 0.20437087 6 22
0.77501959 8.1231861 -0.57060796 5 8
1.1807469 8.1434727 -0.67174512 13 7
0.78787541 17.02256 0.49593541 13 25
0.37151954 8.0269213 -0.51498616 0 9
3.3576572 17.193535 -1.0202236 5 10
1.6213601 16.993904 0.99417728 14 27
2.5790052 17.787096 0.73224264 3 26
0.91534591 9.5939837 -0.44893229 0 12
1.1968076 8.2542419 -0.43710995 6 11
1.5037805 15.761522 1.94406 33 29
2.3723633 16.36191 1.349674 18 28
3.3620634 17.216097 -0.61255592 2 14
2.5353308 17.485878 3.2214649 11 30
0.79379314 8.3199568 -0.19447987 8 16
0.41366991 8.2804117 -0.14471537 4 17
1.2411561 8.3446302 -0.24552411 3 15
0.58883655 5.9413638 -1.6713673 0 1
1.1996801 8.0657759 -1.6309115 1 2
3.437927 17.267899 -0.20497622 2 18
0.79950005 8.0669603 -1.26118 7 3
1.20022 8.0694056 -1.0384299 12 4
0.85040331 17.022484 0.099058263 18 21
2.6427951 17.76823 -0.10440522 100 19
0.79818851 8.0537271 -0.87177002 30 5
2.6961615 13.542185 -1.2889484 3 6
3.4355841 17.25613 0.2048365 3 22
0.80478561 8.1202917 -0.57060796 5 8
1.2123442 8.1509199 -0.67272151 12 7
0.85065639 17.02755 0.49616817 13 25
2.6442025 17.777695 0.31372449 40 23
0.48239729 9.6561241 -0.61962074 0 9
2.6986241 13.554554 -0.80487669 4 10
1.6848128 16.999771 0.99487501 14 27
2.648293 17.805195 0.73338246 4 26
0.94931918 9.5786362 -0.44837391 0 12
1.228814 8.261652 -0.43773797 5 11
1.5615358 15.755905 1.94406 33 29
2.4352458 16.372822 1.3513013 16 28
2.6937444 13.530044 -0.48175266 3 14
1.7010381 17.163485 4.6214733 8 31
2.6005569 17.484251 3.2228997 7 30
0.82704091 8.3448477 -0.19513123 13 16
0.4425697 8.2789173 -0.14471537 4 17
1.272081 8.3521061 -0.2458732 2 15
0.60839111 5.9277773 -1.6681324 0 1
1.2278259 8.0615396 -1.6309115 1 2
3.6364532 17.937872 -0.21307839 2 18
1.2259886 8.0494766 -1.0364096 18 4
0.91024119 17.027399 0.099104755 18 21
2.706605 17.770763 -0.10447498 100 19
0.82670075 8.0548477 -0.8721984 37 5
2.7085965 13.360947 -1.2725903 3 6
3.6547306 18.028032 0.21414939 3 22
0.8335315 8.1214027 -0.57088697 5 8
1.2413874 8.1505804 -0.67304695 11 7
0.91051173 17.032461 0.49640089 13 25
2.7074428 17.776264 0.31386408 51 23
0.5135414 9.6065474 -0.61655074 0 9
2.7078366 13.357199 -0.79371399 4 10
1.7453624 17.005703 0.99557263 14 27
2.7104249 17.795845 0.73338246 3 26
0.9880504 9.6269369 -0.45079353 0 12
1.2576435 8.2573128 -0.43773797 5 11
1.6169268 15.754309 1.9445474 21 29
2.4935799 16.372105 1.3519522 16 28
1.7625139 17.172817 4.6256142 10 31
2.6645315 17.494522 3.2264872 7 30
0.85412169 8.3220196 -0.19466595 7 16
0.47192279 8.2853069 -0.14485498 4 17
1.3030772 8.3594666 -0.24622229 2 15
0.63274056 5.9600906 -1.6778371 0 1
1.2571688 8.0649557 -1.6324805 2 2
1.880829 17.716442 0 12 20
3.7119837 17.987741 -0.21382342 2 18
0.86205727 8.1201363 -1.2704036 1 3
1.2565258 8.0608301 -1.0384299 20 4
0.9699043 17.028112 0.099128015 15 21
2.7710886 17.777016 -0.10456796 89 19
0.85649395 8.0677328 -0.87391204 52 5
2.721415 13.187588 -1.2569757 2 6
1.882853 17.735508 0.41501442 9 24
3.7224927 18.038666 0.21442875 3 22
0.86272001 8.126379 -0.57144505 4 8
1.2710609 8.1540766 -0.67369789 10 7
0.97019225 17.033169 0.49651724 13 25
2.7713292 17.778559 0.3140735 43 23
0.54775488 9.6166515 -0.61731821 0 9
2.7270093 13.214696 -0.78580707 6 10
1.8055601 17.007448 0.99603772 14 27
2.7737629 17.79417 0.73370808 3 26
1.0305092 9.7068672 -0.45470214 0 12
1.2889222 8.2686596 -0.43857533 5 11
1.673171 15.760411 1.9460098 19 29
2.551332 16.367239 1.3522776 18 28
1.8236754 17.178085 4.6287198 10 31
2.5837615 16.575277 3.0585978 3 30
0.88443428 8.3309164 -0.19494511 6 16
0.49987891 8.2916803 -0.1449946 4 17
1.3358246 8.3866873 -0.24715318 2 15
0.64914823 5.9273276 -1.6692107 0 1
1.2876104 8.0839844 -1.6371872 2 2
1.9417506 17.72999 0 12 20
3.7831168 18.030136 -0.21447533 2 18
0.8846792 8.0779438 -1.2642545 1 3
1.2844999 8.064456 -1.03944 20 4
1.0268524 17.032787 0.099174507 15 21
2.8331749 17.787477 -0.1046842 61 19
0.8828119 8.060894 -0.8734836 53 5
2.7316039 13.018681 -1.2417328 3 6
1.9425313 17.737118 0.41520056 11 24
3.7716177 17.97533 0.21382342 3 22
0.89053434 8.1314068 -0.57200313 5 8
1.2993501 8.1576891 -0.67434877 10 7
1.0273974 17.04183 0.49686632 13 25
2.8321621 17.781118 0.31428295 34 23
0.57868361 9.5988436 -0.61629492 0 9
2.7535992 13.123508 -0.78092343 2 10
1.8623883 17.005337 0.99627036 14 27
0.90305191 8.2457037 -0.38639447 0 12
1.3175939 8.2722292 -0.43899405 5 11
1.7271584 15.770563 1.9479598 20 29
2.6099882 16.386248 1.3545558 16 28
2.7278531 13.000804 -0.46388412 3 14
1.880214 17.168102 4.6276846 12 31
2.6368606 16.55496 3.0564454 3 30
0.91379952 8.3438396 -0.19531734 6 16
0.53171098 8.2896996 -0.1449946 4 17
1.3673713 8.3775511 -0.24703683 2 15
0.67407161 5.9439287 -1.6746023 0 1
1.3249575 8.117691 -1.6450319 1 2
2.0102611 17.726377 0 12 20
3.8472972 17.99201 -0.21419595 2 18
0.91479713 8.0666342 -1.2630248 1 3
1.3160931 8.0633812 -1.0399451 18 4
1.0924978 17.032711 0.099197753 18 21
2.9040263 17.792261 -0.10477719 89 19
0.91330695 8.0534935 -0.87305522 42 5
2.7490895 12.856206 -1.2272335 3 6
2.01197 17.741447 0.41547969 18 24
3.8447881 17.980276 0.21405624 3 22
0.92264742 8.1358566 -0.57256114 5 8
1.3332307 8.1683798 -0.67565066 9 7
1.0930777 17.04175 0.49698272 13 25
2.9029884 17.785902 0.31456217 55 23
0.61630052 9.6085033 -0.61706239 0 9
2.7672257 12.941021 -0.77069092 4 10
1.9281161 17.002028 0.99650294 12 27
2.9055307 17.801477 0.73484784 21 26
0.93290341 8.2262945 -0.38564995 0 12
1.3506323 8.2749949 -0.43941274 5 11
1.7885913 15.771705 1.9489347 17 29
2.6735258 16.380041 1.3548813 18 28
2.7451484 12.837776 -0.4584398 3 14
1.9482937 17.179953 4.6328611 12 31
2.7029393 16.560251 3.0593154 3 30
0.94627929 8.3442421 -0.19541039 5 16
0.57141238 3.4256413 -1.6194733 0 0
0.5614562 8.2997637 -0.14520402 4 17
1.3992397 8.3885012 -0.24750227 1 15
0.69258028 5.92241 -1.6692107 0 1
1.3874907 8.3180656 -1.6866088 0 2
2.0735242 17.731173 0 16 20
3.9032819 17.947201 -0.21382342 2 18
0.94386965 8.0712423 -1.2642545 1 3
1.3448865 8.0626516 -1.0404502 14 4
1.152221 17.032784 0.099220999 18 21
0.94187748 8.0542068 -0.8734836 39 5
2.7584038 12.683078 -1.2116189 2 6
2.0743566 17.738291 0.41557273 9 24
3.9253826 18.04882 0.2150341 3 22
0.95150691 8.1365499 -0.57284021 5 8
1.3637054 8.1754713 -0.67662698 10 7
1.1533719 17.049799 0.49733177 13 25
0.65091687 9.6222229 -0.61808574 0 9
2.7809856 12.786908 -0.76208633 4 10
1.9893123 17.011059 0.99743307 14 27
2.9630532 17.76363 0.73370808 8 26
1.1208016 9.5842266 -0.44949067 0 12
1.3827975 8.2899294 -0.44045946 5 11
1.8454828 15.781139 1.9508847 17 29
2.7326589 16.382404 1.3558577 18 28
2.7551157 12.667959 -0.45271629 3 14
2.0100508 17.188396 4.637002 12 31
2.7613807 16.554594 3.0600328 3 30
0.97540265 8.340888 -0.19541039 5 16
0.57791704 3.3988121 -1.6076399 0 0
0.58752632 8.2979593 -0.14520402 4 17
1.4282652 8.3998299 -0.24796771 1 15
0.71118158 5.9202046 -1.6692107 0 1
1.4162444 8.329133 -1.6897466 0 2
2.1296918 17.72854 0 8 20
3.9596417 17.934851 -0.21382342 2 18
1.3735336 8.0779457 -1.0429755 8 4
1.2068522 17.04504 0.099313989 15 21
0.96812302 8.059104 -0.87434042 37 5
2.7613122 12.507122 -1.1956326 2 6
2.1319771 17.747566 0.41594496 7 24
3.9751635 18.005154 0.21466158 3 22
0.97706246 8.1335201 -0.57284021 5 8
1.2074913 17.054068 0.49756446 13 25
0.6805771 9.6121664 -0.61757404 0 9
2.7892876 12.633833 -0.75348181 4 10
2.0441704 17.016621 0.9981308 14 27
1.1537632 9.6044588 -0.45060739 0 12
1.8955222 15.779205 1.9513721 20 29
2.786782 16.38946 1.3571595 16 28
2.7604239 12.503098 -0.44713235 3 14
2.0649583 17.189671 4.6390729 10 31
1.0030309 8.3496943 -0.19568954 4 16
0.59099048 3.4002426 -1.6093304 0 0
0.6182313 8.2997389 -0.14527383 4 17
0.73050696 5.8984451 -1.6638192 1 1
1.4454176 8.3161583 -1.6881778 0 2
2.1971102 17.740467 0 10 20
4.0498915 18.02949 -0.21512723 2 18
1.4072068 8.0963135 -1.046006 7 4
1.2696108 17.044493 0.099337235 15 21
2.9857085 17.178167 -0.10133653 6 19
0.99814159 8.0594492 -0.87476873 32 5
2.7722175 12.341484 -1.1807616 2 6
2.1970069 17.739634 0.41594496 5 24
4.0411253 17.990465 0.21466158 3 22
1.0078458 8.137805 -0.57339823 5 8
1.4240979 8.1934958 -0.67890525 1 7
1.2693919 17.041553 0.49733177 12 25
0.71580082 9.6096077 -0.61757404 0 9
2.8014398 12.471577 -0.74441206 4 10
2.1079941 17.020903 0.99882841 14 27
2.9880748 17.191782 0.71091199 4 26
1.1909199 9.6160288 -0.45135191 0 12
1.4473978 8.3275518 -0.44297159 0 11
1.9548035 15.783972 1.9528345 20 29
2.8481958 16.386992 1.3578105 16 28
2.7738125 12.348585 -0.44196722 3 14
2.1298432 17.197323 4.6432137 8 31
2.8800576 16.570309 3.0664899 6 30
1.0351001 8.3578682 -0.1959687 4 16
0.60416162 3.4089727 -1.6144018 0 0
0.64606333 8.30163 -0.14534363 4 17
0.7471478 5.8730636 -1.6573493 1 1
1.4723047 8.307457 -1.6873932 0 2
2.2569418 17.741018 0 16 20
4.1132197 18.031557 -0.21531348 2 18
1.4354345 8.0994177 -1.0470161 5 4
1.3270611 17.052151 0.099406973 15 21
3.0426614 17.168171 -0.10133653 13 19
1.0253662 8.0600395 -0.87519711 29 5
2.7803588 12.188554 -1.1670058 2 6
2.2573404 17.744152 0.41622409 5 24
4.1069932 18.004261 0.21498753 3 22
1.036339 8.1462927 -0.57423532 6 8
1.4533497 8.2005043 -0.67988157 1 7
1.328073 17.065153 0.4981463 13 25
3.0429473 17.169785 0.30436996 8 23
0.74735641 9.6032019 -0.61731821 0 9
2.807261 12.306487 -0.73510987 4 10
2.1659422 17.025702 0.99952614 14 27
3.0485601 17.201454 0.71172619 12 26
1.2147359 9.5486069 -0.44837391 0 12
1.4624598 8.2519073 -0.43920338 0 11
2.0096436 15.797095 1.9552718 20 29
2.9046125 16.389233 1.3587868 18 28
2.7791877 12.183419 -0.43638331 3 14
2.18784 17.197832 4.6452842 6 31
2.9315615 16.541292 3.0629027 9 30
1.0628122 8.3543901 -0.1959687 4 16
0.61476821 3.3997085 -1.6110209 0 0
0.67601228 8.3112822 -0.14555307 4 17
3.1006031 17.146538 -0.50710618 9 15
1.5026923 8.3099871 -1.6889622 0 2
2.3209352 17.748896 0 16 20
4.1725287 18.001503 -0.21512723 2 18
1.4672303 8.1138802 -1.0495415 5 4
1.3869048 17.051403 0.099430233 18 21
3.1047106 17.169252 -0.10140628 11 19
1.0545284 8.0642986 -0.87605393 27 5
2.7905164 12.0391 -1.1536219 3 6
2.3228996 17.763918 0.41687545 5 24
4.1770444 18.020985 0.21536005 3 22
1.0658056 8.1505394 -0.57479334 7 8
1.4876436 8.2267666 -0.68248528 2 7
1.3873135 17.056427 0.49802995 13 25
3.1078484 17.186605 0.30485862 8 23
0.78508276 9.652257 -0.62064403 0 9
2.8168426 12.152678 -0.72650522 4 10
2.2269177 17.029917 1.0002238 14 27
3.1100128 17.198574 0.71205181 9 26
1.2470256 9.5363836 -0.44800165 0 12
1.4912575 8.2467518 -0.43920338 0 11
2.0663223 15.801794 1.9567344 20 29
2.9646459 16.394686 1.3600887 16 28
2.7910118 12.041236 -0.43163699 2 14
2.2498667 17.205414 4.6494255 6 31
2.9969904 16.573553 3.0707948 22 30
1.0919703 8.3506289 -0.1959687 4 16
0.6259734 3.3939767 -1.6093304 0 0
0.70535642 8.3128586 -0.14562289 4 17
3.1618836 17.143475 -0.50733894 9 15
0.78608024 5.8524337 -1.6530362 2 1
1.528843 8.2892628 -1.6858244 0 2
2.3828726 17.740686 0 12 20
