# .PCD v0.7 - Point Cloud Data file format
VERSION 0.7
FIELDS x y z intensity ring
SIZE 4 4 4 4 2
TYPE F F F F U
COUNT 1 1 1 1 1
WIDTH 1255
HEIGHT 1
VIEWPOINT 0 0 0 1 0 0 0
POINTS 1255
DATA ascii
-0.13712648 -8.5392838 0.24854954 8 25
-1.1471338 -10.037122 0.1763391 14 23
-0.13683955 -8.5214167 -0.54619741 5 9
-1.6529577 -10.071971 -0.5944134 13 10
-0.65003979 -9.9979143 0.58348322 11 27
-1.1472652 -10.038272 0.41163206 14 26
-0.6501767 -10.000021 -0.46680024 13 12
-1.1484576 -10.048704 -0.53005862 10 11
-0.53397948 -8.2128525 1.0105407 6 29
-1.1466736 -10.033094 0.82438493 11 28
-0.13713498 -8.539814 -0.34796587 8 13
-1.6528076 -10.071056 -0.35639367 12 14
-0.84002596 -12.919991 3.4692106 2 31
-1.4432721 -12.628255 2.3174458 4 30
-0.65070558 -10.008155 -0.23337583 13 16
-0.40784952 -3.4562414 -1.6228542 2 0
-0.16823271 -8.5290422 -0.14890394 10 17
-1.1812506 -10.010278 -0.29334894 10 15
-0.36933753 -5.3761611 -1.5085437 4 1
-0.76809102 -6.5090384 -1.3108481 2 2
-0.68592411 -9.9844675 0 12 20
-1.6919485 -10.078272 -0.11897188 11 18
-0.54801363 -7.9770117 -1.2439624 2 3
-1.129976 -9.5757627 -1.2273271 2 4
-0.16825548 -8.5301971 0.049587253 8 21
-1.186887 -10.058043 -0.058863066 13 19
-0.7100541 -10.33571 -1.1159513 1 5
-1.7585905 -10.475231 -0.99152738 0 6
-0.68683481 -9.9977236 0.23318972 11 24
-2.1164258 -12.606715 0.14881961 3 22
-0.16842368 -8.5387239 0.24854954 8 25
-1.1853203 -10.044765 0.17654854 14 23
-0.16822872 -8.5288401 -0.54670912 5 9
-1.6911845 -10.073721 -0.59487849 13 10
-0.68613231 -9.9874983 0.58301818 11 27
-1.1845181 -10.037969 0.41179487 15 26
-0.68709815 -10.001557 -0.46698636 13 12
-1.1852803 -10.044428 -0.53005862 10 11
-0.5638054 -8.2068796 1.0100532 6 29
-1.183439 -10.028824 0.82438493 11 28
-0.16827649 -8.5312624 -0.34764019 8 13
-1.693018 -10.084642 -0.35709167 12 14
-0.89372993 -13.009336 3.4940574 3 31
-1.4900086 -12.626788 2.3181632 4 30
-0.687657 -10.009692 -0.23346888 13 16
-0.42018232 -3.4620676 -1.6262352 1 0
-0.19669972 -8.5364332 -0.14904355 10 17
-1.2154032 -10.014244 -0.29358166 10 15
-0.38744047 -5.3787484 -1.5096221 4 1
-0.78919929 -6.5025611 -1.3100636 2 2
-0.71989262 -9.9941063 0 12 20
-1.7246853 -10.068664 -0.11892531 11 18
-0.57389581 -7.9672661 -1.2427328 2 3
-1.1645932 -9.5955973 -1.2303576 2 4
-0.19700281 -8.5495863 0.049703486 8 21
-1.2207167 -10.058023 -0.058886316 13 19
-0.74432516 -10.333298 -1.1159513 1 5
-1.7986977 -10.500746 -0.99450165 1 6
-0.72055972 -10.003367 0.23337583 11 24
-2.1615965 -12.619339 0.14905244 3 22
-0.91365623 -12.684083 -0.88925552 2 8
-0.19664644 -8.5341206 0.24843316 8 25
-1.2200694 -10.052691 0.17675798 14 23
-0.19651084 -8.5282354 -0.54670912 5 9
-1.7252556 -10.071993 -0.59511101 2 10
-0.7201094 -9.9971161 0.58371586 11 27
-1.2187623 -10.041921 0.41212055 15 26
-0.72054827 -10.003209 -0.4671725 6 12
-1.2190642 -10.044409 -0.53026801 10 11
-0.59130293 -8.2089243 1.0105407 6 29
-1.2176504 -10.032759 0.82503581 11 28
-0.19665872 -8.5346537 -0.34780306 7 13
-1.727801 -10.086853 -0.35737085 12 14
-0.93769896 -13.017862 3.4971633 2 31
-1.5328212 -12.62959 2.319598 4 30
-0.72113436 -10.011345 -0.23356195 13 16
-0.43136603 -3.4533851 -1.6228542 1 0
-0.22649643 -8.5356941 -0.14904355 9 17
-1.2513435 -10.017876 -0.29381439 10 15
-0.40650374 -5.3812046 -1.5107003 4 1
-0.81286508 -6.5075512 -1.3116325 2 2
-0.75567836 -10.003499 0 12 20
-1.7625773 -10.078341 -0.11911157 11 18
-0.60229886 -7.9730964 -1.2439624 2 3
-1.1936548 -9.5560369 -1.225812 2 4
-0.22663324 -8.5408497 0.049656995 8 21
-1.2568101 -10.061639 -0.058932807 14 19
-0.78218824 -10.354431 -1.1185217 1 5
-1.8367136 -10.502249 -0.9952451 1 6
-0.75577503 -10.004779 0.23346888 11 24
-2.2083895 -12.627476 0.14923869 1 22
-0.95822734 -12.684797 -0.88953459 2 8
-0.22643505 -8.5333815 0.24843316 7 25
-1.2556484 -10.05234 0.17682779 13 23
-0.22627892 -8.5274973 -0.54670912 3 9
-2.2082429 -12.626638 -0.74650508 2 10
-0.75560325 -10.002505 0.58418089 11 27
-1.2547988 -10.045537 0.41244623 14 26
-1.2546136 -10.044056 -0.53047729 10 11
-0.62294465 -8.2463999 1.0154155 9 29
-1.2526641 -10.028448 0.82503581 12 28
-0.22644919 -8.5339146 -0.34780306 3 13
-1.763689 -10.084699 -0.35751045 11 14
-0.98924613 -13.095417 3.518904 2 31
-1.5778731 -12.631972 2.321033 4 30
-0.75607634 -10.008767 -0.23356195 12 16
-0.44295618 -3.4482629 -1.6211637 1 0
-0.38101453 -12.688348 -0.22157577 6 17
-1.2873241 -10.021379 -0.29404712 11 15
-0.42498177 -5.3759127 -1.5096221 4 1
-0.83507627 -6.5007839 -1.3108481 2 2
-0.79122329 -10.008776 0 12 20
-1.7991524 -10.080002 -0.1192047 11 18
-0.63043827 -7.9748859 -1.2445775 2 3
-1.2280158 -9.5596838 -1.2268221 2 4
-0.38058588 -12.674073 0.073695071 19 21
-1.292434 -10.061158 -0.058956053 13 19
-0.82114828 -10.387319 -1.1223772 2 5
-1.8733623 -10.495773 -0.9952451 1 6
-0.79100919 -10.006067 0.23356195 11 24
-1.0025002 -12.681375 -0.88953459 2 8
-1.2211207 -9.5060081 -0.78240079 1 7
-1.2907304 -10.047895 0.17682779 14 23
-0.29953712 -9.9750299 -0.63957542 10 9
-2.25441 -12.630647 -0.74720275 2 10
-0.78988492 -9.9918451 0.58371586 11 27
-1.2918938 -10.056952 0.41309753 13 26
-1.0026001 -12.682639 -0.59262043 2 12
-1.2906845 -10.047538 -0.53089595 9 11
-0.64953625 -8.2164698 1.0120032 6 29
-1.2886785 -10.031923 0.82568675 12 28
-0.2997829 -9.9832144 -0.40691 7 13
-1.800988 -10.090286 -0.35792923 11 14
-1.0337342 -13.076477 3.5147629 2 31
-1.6219578 -12.626389 2.321033 4 30
-0.4583109 -3.4718537 -1.632997 4 0
-1.3228196 -10.020788 -0.2941635 11 15
-0.44406107 -5.3782353 -1.5107003 4 1
-0.8572492 -6.4939408 -1.3100636 2 2
-0.82615465 -10.005953 0 12 20
-1.8357592 -10.081531 -0.11929782 12 18
-0.65827125 -7.9726367 -1.2445775 2 3
-1.2592998 -9.5396042 -1.2248019 2 4
-1.3291155 -10.068481 -0.059025798 13 19
-0.85609186 -10.368536 -1.1206636 1 5
-1.9099869 -10.48917 -0.9952451 1 6
-0.82560194 -9.999259 0.23346888 11 24
-1.8357592 -10.081531 0.11929782 12 22
-1.0457741 -12.665868 -0.8886975 2 8
-1.2569033 -9.52145 -0.78402811 1 7
-0.42478457 -12.671515 0.36898434 94 25
-1.3284122 -10.063153 0.17717683 14 23
-0.33435377 -9.9739237 -0.63957542 9 9
-2.3006301 -12.634485 -0.74790043 2 10
-0.8257429 -10.000966 0.58441347 11 27
-1.3269902 -10.052382 0.41309753 13 26
-1.0465347 -12.675079 -0.59243429 2 12
-1.3267937 -10.050893 -0.53131467 10 11
-0.67886567 -8.2220659 1.0129781 7 29
-1.3247311 -10.035268 0.82633764 12 28
-1.838346 -10.095737 -0.35834804 11 14
-1.0771465 -13.045835 3.5075159 2 31
-1.666536 -12.624551 2.3217504 4 30
-1.05989 -12.836833 -0.29972231 2 16
-0.46799231 -3.4522707 -1.6245446 1 0
-0.46973303 -12.689375 -0.22164556 100 17
-1.3594021 -10.027994 -0.29451257 11 15
-0.46382317 -5.3881655 -1.5139352 4 1
-0.8799122 -6.4909081 -1.3100636 2 2
-0.86142033 -10.006992 0 12 20
-1.8745909 -10.094724 -0.11953065 12 18
-0.68575817 -7.9663515 -1.2439624 2 3
-1.2925917 -9.5351496 -1.2248019 2 4
-0.46905679 -12.671107 0.073695071 100 21
-1.3658652 -10.075671 -0.059095543 13 19
-0.89227992 -10.365484 -1.1206636 1 5
-1.9553157 -10.529428 -0.99970645 1 6
-0.86187309 -10.012253 0.23384108 11 24
-1.8716699 -10.078994 0.1193444 12 22
-1.0923758 -12.689968 -0.89065063 2 8
-1.2890608 -9.5091019 -0.78337717 1 7
-0.46886617 -12.665958 0.36886796 101 25
-1.3656802 -10.074306 0.17745607 18 23
-0.36931515 -9.9766846 -0.6398313 9 9
-2.3454485 -12.630305 -0.748133 2 10
-0.86099064 -10.002002 0.58464605 11 27
-1.3626087 -10.051648 0.41326034 13 26
-1.0911157 -12.67533 -0.59262043 2 12
-1.3613335 -10.042241 -0.53110534 9 11
-0.70790273 -8.2236013 1.0134655 8 29
-1.3613596 -10.042434 0.82731402 5 28
-0.36961821 -9.9848719 -0.40707284 12 13
-1.1269867 -13.092039 3.5209746 2 31
-1.7100655 -12.614757 2.321033 4 30
-1.10435 -12.829071 -0.29962927 2 16
-0.47933412 -3.4543748 -1.6262352 1 0
-1.3898008 -10.015754 -0.29427984 15 15
-0.48074856 -5.3866816 -1.5139352 4 1
-0.90137821 -6.4958825 -1.3116325 2 2
-0.89249885 -10.000253 0 5 20
-1.9070382 -10.092715 -0.11957721 12 18
-0.71043086 -7.9602213 -1.2433476 2 3
-1.321996 -9.527112 -1.2242967 3 4
-0.50870204 -12.665576 0.073671825 91 21
-1.396963 -10.067369 -0.059072297 11 19
-0.92625421 -10.378474 -1.1223772 1 5
-0.89332372 -10.009496 0.23384108 11 24
-1.9055531 -10.084855 0.11948409 13 22
-1.1325923 -12.690448 -0.89092964 2 8
-1.3211204 -9.5208015 -0.784679 1 7
-0.50865579 -12.664424 0.36886796 105 25
-0.40065649 -9.9754763 -0.6398313 9 9
-2.3880825 -12.63857 -0.74906319 2 10
-0.89240909 -9.9992476 0.58464605 11 27
-1.7517896 -12.624467 0.51926214 6 26
-1.1305764 -12.66786 -0.59243429 2 12
-1.3945229 -10.049785 -0.53173339 10 11
-0.73338187 -8.2173824 1.0129781 9 29
-0.40066454 -9.9756765 -0.40674719 12 13
-2.3839915 -12.616919 -0.44838873 3 14
-1.1708592 -13.11922 3.5292566 2 31
-1.7518516 -12.624913 2.3239028 4 30
-1.1471372 -12.853419 -0.30028063 2 16
-0.49199182 -3.4525945 -1.6262352 1 0
-0.43752068 -9.9808941 -0.17438444 14 17
-0.50084502 -5.3887191 -1.5150136 4 1
-0.92407411 -6.4847689 -1.3100636 2 2
-1.9470452 -10.101367 -0.11976346 12 18
-0.73960179 -7.9575639 -1.2433476 2 3
-1.3563459 -9.5182734 -1.2237917 3 4
-0.55494529 -12.65963 0.073648579 100 21
-0.96244681 -10.35521 -1.1202352 1 5
-2.0337262 -10.551073 -1.0030525 0 6
-0.93000442 -10.006154 0.23384108 2 24
-1.9440172 -10.085658 0.11957721 12 22
-1.1779898 -12.674293 -0.89009255 2 8
-1.3543199 -9.504056 -0.78370267 1 7
-0.55506998 -12.662474 0.36886796 105 25
-0.43704107 -9.9699526 -0.63957542 9 9
-2.4321218 -12.617969 -0.74836552 2 10
-0.92979133 -10.003861 0.58511114 11 27
-1.4185922 -9.9550924 0.4096781 1 26
-1.176999 -12.663631 -0.59243429 2 12
-1.4274033 -10.016925 -0.53026801 2 11
-0.76386267 -8.2185926 1.0134655 8 29
-1.4156243 -9.9342632 0.81917763 2 28
-0.43774974 -9.9861183 -0.40723568 12 13
-2.4324889 -12.619874 -0.44880754 3 14
-1.2135724 -13.057134 3.5137274 2 31
-1.7986677 -12.622304 2.3246205 4 30
-1.1946098 -12.85311 -0.30037367 2 16
-0.50134516 -3.4365947 -1.6194733 1 0
-0.47042823 -9.9753923 -0.17431465 14 17
-1.4481463 -9.9266787 -0.29195261 1 15
-0.51908135 -5.3908625 -1.5160918 4 1
-0.94727218 -6.4933119 -1.312417 2 2
-1.2505962 -12.98793 0 2 20
-1.9820724 -10.102704 -0.1198566 12 18
-0.76674408 -7.9629364 -1.2445775 2 3
-1.3907666 -9.5333548 -1.226317 3 4
-1.4521995 -9.9544611 -0.058467858 1 19
-0.9964 -10.348003 -1.1198068 1 5
-1.2498745 -12.980435 0.30344442 2 24
-1.9820724 -10.102704 0.1198566 13 22
-1.2200135 -12.670317 -0.89009255 1 8
-1.391009 -9.5350161 -0.78663176 1 7
-0.59686947 -12.656569 0.36875162 102 25
-0.4706648 -9.9804096 -0.64034289 9 9
-2.4747205 -12.613751 -0.7485981 2 10
-0.9637261 -10.008672 0.58557624 11 27
-1.452751 -9.9582424 0.41000378 1 26
-1.2197531 -12.667613 -0.59280652 2 12
-1.4542701 -9.9686556 -0.52796519 2 11
-0.79187369 -8.223918 1.0144405 11 29
-1.4497111 -9.9374046 0.81982845 1 28
-0.47086295 -9.9846115 -0.40723568 12 13
-2.4750946 -12.615659 -0.44894713 3 14
-1.2583467 -13.068421 3.5178688 2 31
-1.8405154 -12.616269 2.3246205 4 30
-1.2353098 -12.829176 -0.2999084 1 16
-0.51440942 -3.4419947 -1.6228542 1 0
-0.50585192 -9.985672 -0.17452405 14 17
-1.48456 -9.9334259 -0.29230168 0 15
-0.53713012 -5.3813519 -1.5139352 3 1
-0.96993166 -6.4899659 -1.312417 2 2
-1.2979101 -13.003386 0 2 20
-2.0196755 -10.107491 -0.11999629 4 18
-0.79571211 -7.9720101 -1.2464222 3 3
-1.4228618 -9.5205927 -1.2253069 2 4
-0.50592047 -9.9870243 0.058119141 10 21
-1.888972 -12.63941 -0.074276261 2 19
-1.0265893 -10.285103 -1.113381 1 5
-2.0196536 -10.107381 -0.96215707 13 6
-0.99809158 -9.9995918 0.23384108 2 24
-2.0196755 -10.107491 0.11999629 13 22
-1.2666103 -12.689803 -0.89176673 1 8
-1.4313544 -9.5774183 -0.7905373 2 7
-0.6410442 -12.654408 0.36875162 44 25
-1.8893074 -12.641653 0.22311155 2 23
-0.50570107 -9.9826937 -0.64059877 9 9
-2.5234289 -12.628531 -0.74999344 2 10
-0.99865603 -10.005247 0.58557624 11 27
-1.8874382 -12.629147 0.52023911 1 26
-1.2647563 -12.671228 -0.59317875 1 12
-0.82018059 -8.2171526 1.0139531 13 29
-1.8845086 -12.609544 1.0408144 2 28
-0.50652069 -9.9988728 -0.40788698 12 13
-2.5222485 -12.622623 -0.44950554 1 14
-1.3123972 -13.14853 3.5406446 2 31
-1.8868686 -12.625336 2.3274903 4 30
-1.281672 -12.840702 -0.30028063 1 16
-0.52636856 -3.4438536 -1.6245446 1 0
-0.53853214 -9.9759531 -0.17438444 14 17
-1.9300914 -12.627943 -0.37177703 2 15
-0.55576319 -5.3872042 -1.5160918 4 1
-0.99144816 -6.4867139 -1.312417 2 2
-1.0343989 -10.026786 0 2 20
-0.82092744 -7.9575329 -1.2445775 7 3
-1.4532269 -9.5079784 -1.2242967 3 4
-0.53903633 -9.9852924 0.058119141 11 21
-1.930876 -12.633077 -0.074276261 3 19
-1.0570177 -10.246037 -1.1095256 1 5
-2.0555403 -10.112336 -0.96327239 13 6
-1.0337086 -10.020094 0.23439939 5 24
-2.0531826 -10.100738 0.11999629 13 22
-1.3074564 -12.673626 -0.89092964 1 8
-1.4661186 -9.5923243 -0.79216456 3 7
-1.9306145 -12.631366 0.22304176 2 23
-0.53923285 -9.9889326 -0.64111042 9 9
-2.5668845 -12.62792 -0.75045854 2 10
-1.0338784 -10.021741 0.586739 11 27
-1.9287043 -12.618868 0.52007627 2 26
-1.3079994 -12.678888 -0.59373713 1 12
-1.5383852 -10.06514 -0.53361744 10 11
-0.84783292 -8.2183371 1.0144405 13 29
-1.9269159 -12.607166 1.0411398 2 28
-0.53989124 -10.001129 -0.40804982 12 13
-2.5664821 -12.625941 -0.44992429 1 14
-1.3492525 -13.07877 3.5230448 2 31
-1.9281313 -12.61512 2.3267729 4 30
-0.53950679 -3.4491589 -1.6279256 1 0
-0.57426858 -9.9899836 -0.17466368 14 17
-0.57374686 -5.3775716 -1.5139352 4 1
-1.0146905 -6.4870892 -1.3132014 2 2
-2.60709 -12.600242 -0.14979747 2 18
-0.8482793 -7.9506888 -1.2439624 6 3
-1.4851799 -9.4950085 -1.2232866 3 4
-0.57434636 -9.9913368 0.058165636 10 21
-1.9768152 -12.638117 -0.074346006 2 19
-1.0830715 -10.151331 -1.0996726 2 5
-2.0924394 -10.112901 -0.96401596 13 6
-1.0657083 -9.9885912 0.23374803 8 24
-2.0908587 -10.105261 0.12013599 13 22
-1.5076015 -9.6383533 -0.79639548 2 7
-0.57388353 -9.9832859 0.2910217 11 25
-1.9753114 -12.628502 0.22311155 2 23
-0.57432562 -9.9909763 -0.6413663 9 9
-1.0688537 -10.018071 0.586739 11 27
-1.9733572 -12.616009 0.52023911 2 26
-1.5747434 -10.067602 -0.53403616 10 11
-0.87777793 -8.2271709 1.015903 12 29
-1.9715263 -12.604303 1.0414653 2 28
-0.57479745 -9.9991837 -0.40804982 11 13
-2.6121581 -12.624736 -0.45020351 3 14
-1.3920271 -13.047088 3.5157981 2 31
-1.9739778 -12.619976 2.3289251 4 30
-1.0724963 -10.052213 -0.23523688 14 16
-0.55099833 -3.4399989 -1.6245446 1 0
-0.6111241 -9.9918032 -0.17473349 13 17
-1.6093673 -10.04762 -0.29614162 11 15
-0.59345287 -5.375432 -1.5139352 4 1
-1.0378399 -6.4794536 -1.312417 2 2
-1.1061213 -10.019127 0 12 20
-2.6565537 -12.606256 -0.14998372 2 18
-0.87741446 -7.9475255 -1.2439624 6 3
-1.5168331 -9.4699087 -1.2207612 3 4
-0.61071855 -9.9851723 0.05814239 10 21
-2.0250211 -12.642634 -0.074415751 2 19
-2.1327763 -10.120752 -0.96550304 12 6
-1.1075772 -10.032314 0.23486467 12 24
-2.1303566 -10.10927 0.12027568 12 22
-1.1082433 -10.038349 -0.70621455 10 8
-1.5460706 -9.6524448 -0.79802281 2 7
-0.61120266 -9.9930868 0.29137081 10 25
-2.021584 -12.621177 0.22311155 2 23
-0.6111843 -9.9927874 -0.64162213 9 9
-2.1310141 -10.112391 -0.60185516 12 10
-1.1068794 -10.025993 0.58743668 11 27
-2.0208483 -12.616583 0.52056479 2 26
-1.6122643 -10.065706 -0.53424549 11 11
-0.90749073 -8.2199526 1.0154155 13 29
-2.0183411 -12.600929 1.0417908 2 28
-0.61168659 -10.000999 -0.40821266 11 13
-2.6584127 -12.615077 -0.45020351 1 14
-1.4500135 -13.134066 3.5406446 2 31
-2.0220864 -12.624312 2.3310776 4 30
-1.1084548 -10.040263 -0.23505077 14 16
-0.56123239 -3.4309976 -1.6211637 1 0
-0.64399773 -9.9857321 -0.17466368 14 17
-1.644614 -10.054065 -0.29649073 12 15
-0.61258149 -5.3849163 -1.5171702 4 1
-1.0593209 -6.4759765 -1.312417 2 2
-1.1397922 -10.019379 0 11 20
-2.7008569 -12.609112 -0.15012342 2 18
-0.90465838 -7.9524274 -1.2451923 6 3
-1.5469474 -9.4569969 -1.2197511 3 4
-0.64434236 -9.9910755 0.058188882 10 21
-2.0662889 -12.631902 -0.074392498 2 19
-1.1417776 -10.036832 -1.0881062 12 5
-2.1679947 -10.121413 -0.96624666 11 6
-1.1421958 -10.040507 0.23514384 12 24
-2.1672199 -10.117795 0.12046193 12 22
-1.141977 -10.038584 -0.70649356 11 8
-1.5896555 -9.7180853 -0.80388105 2 7
-0.64433789 -9.9910059 0.29137081 9 25
-2.067946 -12.642032 0.22360022 3 23
-0.64431858 -9.9907064 -0.64162213 8 9
-2.1653733 -10.109175 -0.6020878 12 10
-1.140121 -10.022268 0.58743668 11 27
-2.0652564 -12.625589 0.52121609 2 26
-1.1435255 -10.052197 -0.47126722 12 12
-1.6482141 -10.076074 -0.53508288 10 11
-0.93519294 -8.2208424 1.015903 13 29
-2.0626907 -12.609905 1.0430926 2 28
-0.6451053 -10.002905 -0.40837547 12 13
-1.4935601 -13.129186 3.5406446 2 31
-2.0626688 -12.609772 2.3296428 4 30
-1.1421958 -10.040507 -0.23514384 13 16
-0.57500052 -3.4360683 -1.6245446 1 0
-0.6811372 -9.9912844 -0.17480332 13 17
-1.682773 -10.055857 -0.29672346 12 15
-0.63186473 -5.3788095 -1.5160918 4 1
-1.0843443 -6.4797873 -1.3139859 2 2
-1.1788409 -10.034997 0 11 20
-2.7487574 -12.606941 -0.15021653 2 18
-0.93426055 -7.9529834 -1.2458072 7 3
-1.5815986 -9.4512634 -1.2197511 3 4
-0.68122941 -9.9926376 0.058212135 10 21
-1.1794848 -10.040479 -1.0889628 12 5
-2.2059255 -10.11729 -0.96661836 13 6
-1.179455 -10.040225 0.23523688 12 24
-2.204289 -10.109783 0.12046193 12 22
-1.1801592 -10.04622 -0.70733064 11 8
-1.6278955 -9.7279224 -0.80518293 1 7
-0.68122458 -9.9925661 0.29148716 11 25
-2.1149275 -12.638312 0.22367005 2 23
-2.2049625 -10.112873 -0.60278541 12 10
-1.1777786 -10.025954 0.58790183 11 27
-2.1101983 -12.610051 0.52089041 2 26
-1.180361 -10.047937 -0.47126722 11 12
-1.6864524 -10.077845 -0.53550154 11 11
-0.96624416 -8.2252464 1.0168779 13 29
-2.1102107 -12.610125 1.0437436 2 28
-0.68257916 -10.012436 -0.40886396 12 13
-2.2065017 -10.119932 -0.36169839 11 14
-1.5349094 -13.066065 3.5251155 2 31
-2.1108208 -12.61377 2.3317952 4 30
-1.1799215 -10.044196 -0.23532993 14 16
-0.58517158 -3.4269958 -1.6211637 1 0
-0.71540731 -10.004928 -0.17508255 14 17
-1.7174565 -10.058103 -0.29695615 12 15
-0.64923626 -5.37286 -1.5150136 4 1
-1.104506 -6.4684229 -1.312417 2 2
-1.2116324 -10.027061 0 11 20
-0.96062893 -7.949841 -1.2458072 6 3
-1.6115962 -9.4381428 -1.2187409 3 4
-0.71464831 -9.9943132 0.058235381 10 21
-1.7221943 -10.085849 -0.059467506 14 19
-1.2132516 -10.040461 -1.0893914 11 5
-2.2429092 -10.125472 -0.96810549 13 6
-1.2132233 -10.040228 0.23532993 12 24
-2.2395325 -10.110228 0.12055507 12 22
-1.2134677 -10.04225 -0.70733064 11 8
-1.6655143 -9.7539091 -0.80778652 2 7
-0.71521342 -10.002216 0.29183623 9 25
-2.1554806 -12.623344 0.22353043 2 23
-0.90594548 -12.669592 -0.81405163 1 9
-2.2402136 -10.113303 -0.6032505 12 10
-1.2119781 -10.029922 0.58836699 11 27
-2.1553674 -12.622682 0.52170455 2 26
-1.2146341 -10.051902 -0.47163948 11 12
-1.7198631 -10.072196 -0.53550154 11 11
-0.99256253 -8.2141132 1.015903 15 29
-2.1506743 -12.595197 1.0430926 2 28
-0.71577841 -10.010118 -0.40886396 4 13
-2.2426426 -10.124268 -0.36211717 10 14
-1.5805477 -13.08008 3.5302918 1 31
-2.1526387 -12.606701 2.3317952 4 30
-1.2151424 -10.056108 -0.23570216 14 16
-0.60019732 -3.4354372 -1.6262352 1 0
-0.75411725 -10.006094 -0.17515235 13 17
-1.7574394 -10.059313 -0.29718891 11 15
-0.67081457 -5.3779726 -1.5171702 4 1
-1.1300091 -6.467998 -1.3132014 2 2
-1.2511135 -10.030273 0 11 20
-2.2836151 -10.124964 -0.12083445 11 18
-0.99114597 -7.946094 -1.2458072 6 3
-1.6457742 -9.4201584 -1.2172257 2 4
-0.75331765 -9.9954844 0.058258627 10 21
-1.7636608 -10.094923 -0.059560493 12 19
-1.2537628 -10.051514 -1.0911049 11 5
-2.2835231 -10.124557 -0.96884906 13 6
-1.2527547 -10.043431 0.23551604 12 24
-2.2818551 -10.117162 0.12074132 12 22
-1.2530047 -10.045436 -0.70788872 11 8
-1.6995227 -9.727807 -0.80615932 3 7
-0.75331205 -9.99541 0.29171988 10 25
-2.2053099 -12.622855 0.22367005 2 23
-0.95518482 -12.673982 -0.81456333 1 9
-2.2825425 -10.120209 -0.60418075 12 10
-1.2519628 -10.037083 0.58906466 11 27
-2.2045054 -12.618251 0.52186739 2 26
-1.2542093 -10.055094 -0.47201172 11 12
-1.7633358 -10.093063 -0.53696698 9 11
-1.025077 -8.2181215 1.0168779 15 29
-2.1997051 -12.590774 1.043418 2 28
-2.2832582 -10.123383 -0.36239639 11 14
-1.6388881 -13.139093 3.5478914 2 31
-2.2030592 -12.609972 2.3339477 4 30
-1.2542397 -10.055337 -0.2357952 14 16
-0.61098719 -3.4335344 -1.6262352 1 0
-0.78554916 -10.003675 -0.17515235 13 17
-1.7904342 -10.061614 -0.29742163 10 15
-0.68770695 -5.3758383 -1.5171702 4 1
-1.1503235 -6.4644156 -1.3132014 2 2
-1.2841415 -10.038197 0 10 20
-2.3180897 -10.129436 -0.12097414 11 18
-1.0161049 -7.9429412 -1.2458072 6 3
-1.6746657 -9.4110346 -1.2167207 2 4
-0.78471619 -9.9930677 0.058258627 11 21
-1.7967682 -10.097208 -0.059606992 11 19
-1.2848301 -10.043579 -1.0906764 11 5
-2.3179851 -10.12898 -0.96996439 13 6
-1.2858238 -10.051347 0.2357952 11 24
-2.3180897 -10.129436 0.12097414 12 22
-1.2850641 -10.045408 -0.70816773 11 8
-1.7272815 -9.7067175 -0.80485743 3 7
-0.78502333 -9.9969788 0.29183623 10 25
-2.2463565 -12.623738 0.22380966 2 23
-0.99437219 -12.662959 -0.81405163 1 9
-2.3187795 -10.132451 -0.60534352 12 10
-1.2845029 -10.041021 0.58952969 11 27
-2.246237 -12.623066 0.52235585 2 26
-1.2868068 -10.059031 -0.47238398 11 12
-1.0513941 -8.2187986 1.0173653 15 29
-2.2406466 -12.59165 1.0440691 2 28
-0.99433482 -12.662483 -0.51747102 2 13
-2.315943 -10.120056 -0.36253598 11 14
-1.6561353 -12.94609 3.4971633 1 31
-2.2433536 -12.606862 2.3346651 4 30
-1.2868385 -10.059279 -0.23598129 14 16
-0.62296885 -3.4313807 -1.6262352 1 0
-1.8276877 -10.067104 -0.29777071 11 15
-0.70697016 -5.3772249 -1.5182486 4 1
-1.1735824 -6.4642205 -1.3139859 2 2
-1.3191737 -10.033653 0 10 20
-2.3561518 -10.132971 -0.12111384 10 18
-1.0438248 -7.9393463 -1.2458072 6 3
-1.7075064 -9.4051323 -1.2167207 2 4
-0.82024819 -9.9982414 0.058305122 10 21
-1.8334323 -10.098746 -0.059653491 12 19
-1.320918 -10.046921 -1.0915332 11 5
-2.3551316 -10.128584 -0.97070789 12 6
-1.3229868 -10.062656 0.2361674 12 24
-2.3552458 -10.129075 0.12106727 13 22
-1.3206415 -10.044818 -0.70844674 12 8
-1.7625782 -9.7084742 -0.80550838 3 7
-0.82024181 -9.9981642 0.29195261 9 25
-1.0392213 -12.667368 -0.81456333 1 9
-2.3541343 -10.124295 -0.60534352 12 10
-1.3200654 -10.040436 0.58976227 12 27
-2.2910004 -12.619081 0.52251869 2 26
-1.3224324 -10.058439 -0.47257009 11 12
-2.2933261 -12.631892 -0.67283112 2 11
-1.0811117 -8.2229509 1.0183402 18 29
-2.288147 -12.603365 1.0456963 2 28
-1.0395099 -12.670885 -0.51795948 2 13
-2.3539708 -10.12359 -0.36295477 11 14
-1.6892281 -12.848291 3.4723163 3 31
-2.2887521 -12.606698 2.3360999 4 30
-1.3229868 -10.062656 -0.2361674 14 16
-0.63362253 -3.4220562 -1.6228542 1 0
-1.1052618 -12.918832 -0.2263228 3 17
-1.8635447 -10.064596 -0.29788709 11 15
-0.7247045 -5.3670893 -1.5160918 4 1
-1.1961391 -6.4600849 -1.3139859 2 2
-1.354724 -10.032951 0 10 20
-2.3933461 -10.13247 -0.12120697 10 18
-1.072589 -7.9434881 -1.2470371 5 3
-1.74177 -9.4069176 -1.2177308 2 4
-0.85616547 -10.007273 0.058374867 10 21
-1.870128 -10.100151 -0.059699982 13 19
-1.3570437 -10.050132 -1.0923901 11 5
-2.3913875 -10.124179 -0.97107971 11 6
-1.3586382 -10.061939 0.23626044 12 24
-2.3924265 -10.128578 0.1211604 12 22
-1.3572974 -10.05201 -0.70928383 10 8
-1.7971817 -9.7061844 -0.80583376 3 7
-0.85581762 -10.003207 0.29218534 9 25
-1.8727874 -10.114513 0.17955035 17 23
-1.0827506 -12.655708 -0.81405163 1 9
-2.3922136 -10.127676 -0.60604119 12 10
-1.3545699 -10.03181 0.58952969 14 27
-2.3357618 -12.614937 0.52268153 2 26
-1.3586034 -10.061682 -0.47294235 13 12
-2.3403137 -12.639522 -0.6736685 2 11
-1.1103393 -8.2230625 1.0188278 20 29
-2.3321261 -12.595302 1.0456963 2 28
-1.083732 -12.66718 -0.51795948 2 13
-2.3911314 -10.123095 -0.36323398 11 14
-1.7164872 -12.712133 3.4371171 3 31
-2.3320265 -12.594763 2.3353825 4 30
-1.3591734 -10.065904 -0.23635352 14 16
-0.64616072 -3.4197109 -1.6228542 1 0
-1.1529602 -12.918678 -0.22639263 3 17
-1.9019053 -10.065555 -0.29811978 10 15
-0.74490058 -5.3682127 -1.5171702 4 1
-1.2183521 -6.4479494 -1.312417 2 2
-2.4314013 -10.127519 -0.12125353 10 18
-1.1011533 -7.9355893 -1.2464222 2 3
-1.7740266 -9.3887749 -1.2162156 3 4
-0.89283836 -10.004068 0.058374867 9 21
-1.9093624 -10.105021 -0.059769724 13 19
-1.3960569 -10.060846 -1.0941036 11 5
-2.4314013 -10.127519 0.12125353 12 22
-1.395228 -10.054873 -0.70984191 12 8
-1.830524 -9.6877785 -0.80485743 2 7
-0.89318633 -10.007967 0.29241803 9 25
-1.9076188 -10.095792 0.17934093 13 23
-1.1301936 -12.663584 -0.81481916 1 9
-2.4311817 -10.126605 -0.60650629 12 10
-1.7491783 -12.605657 0.74115628 5 27
-2.3819823 -12.606291 0.52268153 2 26
-1.3954725 -10.056635 -0.47294235 14 12
-2.3866243 -12.630859 -0.6736685 2 11
-1.1410166 -8.2228689 1.0193152 21 29
-2.3782747 -12.586669 1.0456963 2 28
-1.1305077 -12.667104 -0.51812232 2 13
-2.4328845 -10.133697 -0.36393195 11 14
-2.3810954 -12.601598 2.3382523 4 30
-1.3971572 -10.068776 -0.2365396 14 16
-0.65895391 -3.4283438 -1.6279256 1 0
-1.1939083 -12.918974 -0.22646242 3 17
-0.76176184 -5.3658457 -1.5171702 4 1
-1.2400839 -6.4517927 -1.3139859 2 2
-1.4252338 -10.039338 0 12 20
-2.4650981 -10.127603 -0.12134666 10 18
-1.125523 -7.9281764 -1.2458072 2 3
-1.8057607 -9.3948431 -1.2177308 3 4
-0.9246313 -10.005196 0.058398113 7 21
-1.9441195 -10.114683 -0.059862714 12 19
-1.4270986 -10.052473 -1.0936751 4 5
-2.5779831 -10.591379 -1.0175518 0 6
-1.4237242 -10.028704 0.23570216 9 24
-2.4660439 -10.131489 0.12139322 12 22
-1.4273707 -10.05439 -0.71012092 3 8
-1.8609505 -9.6819792 -0.80485743 2 7
-0.92425561 -10.00113 0.29230168 7 25
-1.9415914 -10.101531 0.17955035 13 23
-1.1707071 -12.667918 -0.81533074 1 9
-2.4658172 -10.130557 -0.60720396 12 10
-2.4238381 -12.610519 0.52316999 2 26
-2.4262943 -12.623298 -0.6736685 1 11
-1.1668442 -8.219243 1.0193152 25 29
-2.419311 -12.586966 1.0463471 4 28
-1.1710334 -12.671449 -0.518448 2 13
-2.467545 -10.137656 -0.36435077 11 14
-1.7845122 -12.570092 3.4019177 20 31
-2.4214163 -12.597919 2.3389699 3 30
-0.67091709 -3.426023 -1.6279256 1 0
-1.238997 -12.914728 -0.22646242 3 17
-2.4665394 -12.595327 -0.37352246 2 15
-0.78104246 -5.3669662 -1.5182486 4 1
-1.2610899 -6.4397268 -1.312417 2 2
-2.5052328 -10.13835 -0.12157948 10 18
-1.1537602 -7.9281111 -1.2464222 2 3
-1.837019 -9.3806963 -1.2167207 2 4
-1.9809521 -10.115687 -0.05990921 12 19
-1.4484344 -9.9529772 -1.0833938 2 5
-2.607295 -10.551384 -1.0145775 0 6
-2.5033138 -10.130585 0.12148636 12 22
-1.4498166 -9.9624758 -0.70398229 3 8
-1.8962681 -9.6832504 -0.80550838 2 7
-1.9791465 -10.106467 0.17975979 12 23
-1.2137759 -12.651835 -0.81456333 1 9
-2.5040383 -10.133517 -0.60790163 4 10
-1.4451478 -9.9303932 0.58441347 1 27
-1.449481 -9.9601688 -0.4688476 1 12
-2.4734139 -12.630432 -0.67450589 2 11
-1.1983868 -8.2347651 1.0217527 32 29
-2.4685962 -12.605831 1.0486253 2 28
-1.2160213 -12.675241 -0.51877362 2 13
-2.5038764 -10.132861 -0.36449033 11 14
-1.8283796 -12.563787 3.4019177 18 31
-2.4676454 -12.600976 2.3411224 4 30
-1.4495083 -9.9603567 -0.23421331 1 16
-0.6828717 -3.4236603 -1.6279256 1 0
-1.2836732 -12.906344 -0.22639263 3 17
-2.5120533 -12.594484 -0.37375519 2 15
-0.79863524 -5.3565869 -1.5160918 4 1
-1.2843275 -6.4391322 -1.3132014 2 2
-1.4834886 -9.9500179 0 1 20
-2.5415792 -10.133425 -0.12162605 10 18
-1.1814265 -7.9240355 -1.2464222 2 3
-1.87208 -9.3859005 -1.2182359 3 4
-1.2909728 -12.979737 0.075810611 3 21
-2.0170317 -10.112634 -0.059932459 12 19
-1.4620541 -9.8062544 -1.0679718 1 5
-2.6431403 -10.538356 -1.0142058 0 6
-1.4836768 -9.9512806 0.23412023 1 24
-2.542552 -10.137303 0.12167261 11 22
-1.4922317 -10.00866 -0.70760965 3 8
-1.9331758 -9.6922112 -0.80681014 2 7
-1.2912397 -12.982421 0.37968966 2 25
-2.0159762 -10.107342 0.17989941 12 23
-1.2606961 -12.675327 -0.8163541 1 9
-1.8819919 -12.622849 0.7432493 1 27
-2.0224297 -10.139697 0.42123899 12 26
-1.4977907 -10.045944 -0.47312847 4 12
-2.51983 -12.633474 -0.67513388 1 11
-1.2277088 -8.234458 1.0222402 25 29
-2.5133624 -12.601047 1.0489508 2 28
-1.2622353 -12.690804 -0.51958781 1 13
-2.5440929 -10.143448 -0.36518836 11 14
-1.8727926 -12.561149 3.4029529 18 31
-2.5100753 -12.584568 2.3396873 4 30
-1.88585 -12.648726 -0.29758209 1 16
-0.6948185 -3.4212556 -1.6279256 1 0
-1.3299465 -12.91372 -0.22660203 1 17
-2.556797 -12.589556 -0.37387154 2 15
-0.8179099 -5.3575745 -1.5171702 4 1
-1.3075774 -6.4384532 -1.3139859 2 2
-1.9262881 -12.61781 0 2 20
-2.5828557 -10.147747 -0.12190542 10 18
-1.2102726 -7.9276772 -1.2476519 2 3
-1.9079908 -9.3948622 -1.2202562 3 4
-1.0309916 -10.01088 0.058491103 3 21
-2.0547075 -10.11729 -0.0600022 6 19
-1.4812711 -9.7028055 -1.0572622 2 5
-2.6799107 -10.529065 -1.0142058 0 6
-1.9293878 -12.638115 0.29748905 2 24
-2.579896 -10.136119 0.12176573 11 22
-1.9701703 -9.7010317 -0.80811197 2 7
-2.0536335 -10.112001 0.18010885 13 23
-3.2080598 -12.604103 -0.75743526 2 10
-2.0522439 -10.105159 0.4200992 11 26
-1.5358639 -10.060406 -0.4740591 11 12
-2.5631194 -12.620687 -0.67492455 1 11
-1.2564453 -8.2301235 1.0222402 26 29
-2.5597138 -12.603918 1.0499272 2 28
-1.9177946 -12.562175 3.4050236 18 31
-2.5563383 -12.587297 2.3418398 4 30
-0.70528895 -3.4117088 -1.6245446 1 0
-2.6007278 -12.580554 -0.37387154 2 15
-0.83601183 -5.3508811 -1.5160918 4 1
-1.3284559 -6.426168 -1.312417 2 2
-1.9684685 -12.599153 0 3 20
-2.6202626 -10.146415 -0.12199856 10 18
-1.2385483 -7.9273095 -1.2482669 2 3
-1.939167 -9.380373 -1.219246 3 4
-1.516973 -9.709363 -1.0585474 2 5
-2.6559017 -10.28442 -0.99152738 0 6
-1.9747261 -12.639204 0.29767513 2 24
-2.6172624 -10.134797 0.12185887 12 22
-1.5719242 -10.061077 -0.71207404 11 8
-2.0080571 -9.7136164 -0.80973929 3 7
-1.0671909 -10.019058 0.29323259 11 25
-2.0913477 -10.116521 0.18031827 13 23
-3.2560308 -12.608294 -0.75836545 2 10
-1.9719194 -12.62124 0.74394697 2 27
-2.0907419 -10.113589 0.4207505 11 26
-1.5722055 -10.062878 -0.47443134 12 12
-2.6095843 -12.623398 -0.67555261 1 11
-1.286392 -8.233532 1.0232152 25 29
-2.6045017 -12.598811 1.0502527 4 28
-1.0692976 -10.038836 -0.41130638 10 13
-3.2525642 -12.59487 -0.45425186 1 14
-1.9622296 -12.55922 3.4060588 18 31
-2.6026511 -12.589858 2.3439922 4 30
-0.71853572 -3.4126487 -1.6262352 1 0
-2.6492918 -12.582676 -0.37422064 2 15
-0.8556183 -5.3477812 -1.5160918 4 1
-1.3544246 -6.4327707 -1.3147705 2 2
-2.0171616 -12.607653 0 3 20
-2.658448 -10.140612 -0.12204512 3 18
-1.2663463 -7.9149113 -1.2470371 2 3
-1.9727174 -9.3693209 -1.2187409 3 4
-1.103916 -10.015175 0.058560845 10 21
-2.6577857 -12.623017 -0.074973695 2 19
-1.6178938 -10.112151 -1.1030997 1 5
-2.7723556 -10.57511 -1.0205259 1 6
-2.0204062 -12.627934 0.29758209 2 24
-2.658448 -10.140612 0.12204512 13 22
-1.6113113 -10.07101 -0.7131902 11 8
-2.0469313 -9.721796 -0.81104112 3 7
-1.1043437 -10.019053 0.29334894 12 25
-2.1300607 -10.116614 0.18045788 13 23
-1.1064854 -10.038485 -0.64725035 9 9
-3.3082969 -12.619452 -0.7597608 2 10
-2.0181656 -12.613928 0.74394697 2 27
-2.1294429 -10.11368 0.42107618 11 26
-1.6109712 -10.068884 -0.47498971 12 12
-1.3178153 -8.2366028 1.0241901 26 29
-2.6498396 -12.585279 1.0499272 4 28
-1.1060848 -10.03485 -0.41130638 10 13
-3.3017464 -12.594464 -0.45467067 1 14
-2.0094695 -12.559575 3.4081292 17 31
-2.6503992 -12.587935 2.3454273 4 30
-1.6129135 -10.081023 -0.23756321 13 16
-0.73136598 -3.4173369 -1.6296161 1 0
-1.1401273 -10.037919 -0.1763391 12 17
-2.6935134 -12.58555 -0.37456971 1 15
-0.8739689 -5.3487158 -1.5171702 4 1
-1.3749282 -6.4244075 -1.3139859 2 2
-2.0608947 -12.612737 0 3 20
-1.2957733 -7.9301715 -1.2501116 2 3
-2.0079288 -9.3821278 -1.2212664 2 4
-1.1393789 -10.03133 0.058677085 10 21
-2.7013054 -12.621958 -0.075020187 2 19
-1.6533424 -10.118505 -1.1043848 2 5
-2.810477 -10.577407 -1.0216413 1 6
-2.0629163 -12.62511 0.29767513 2 24
-2.6961696 -10.147203 0.12223139 13 22
-1.6459864 -10.073486 -0.71374822 10 8
-2.0816622 -9.7266502 -0.8120175 2 7
-1.1375623 -10.015336 0.29334894 11 25
-2.1635971 -10.109495 0.18045788 12 23
-1.1397684 -10.03476 -0.64725035 9 9
-2.0606282 -12.611107 0.74417949 2 27
-2.1663153 -10.122195 0.42172748 11 26
-1.64693 -10.079261 -0.47573423 12 12
-2.1651409 -10.116709 -0.54220057 9 11
-1.3470427 -8.2439413 1.0256525 28 29
-2.6907256 -12.572524 1.0496018 2 28
-1.139807 -10.035098 -0.41146925 10 13
-3.3434932 -12.583446 -0.45467067 1 14
-2.0517311 -12.556656 3.4091647 16 31
-2.6945987 -12.590621 2.3475797 4 30
-1.6469798 -10.079566 -0.23765625 12 16
-0.74388623 -3.4146333 -1.6296161 1 0
-1.1764446 -10.029701 -0.17626931 11 17
-0.89356703 -5.3454766 -1.5171702 4 1
-1.4009706 -6.4308228 -1.3163394 2 2
-2.1097467 -12.62088 0 2 20
-3.3966341 -12.597226 -0.15189286 2 18
-1.3235267 -7.9175725 -1.2488818 2 3
-2.0406132 -9.366951 -1.2202562 3 4
-1.1756719 -10.023113 0.058653835 10 21
-2.7484004 -12.61588 -0.075043432 2 19
-1.6923846 -10.124146 -1.10567 1 5
-2.8575213 -10.597797 -1.0246154 1 6
-2.1111538 -12.629297 0.29795429 2 24
-2.7343845 -10.141115 0.12227795 2 22
-2.1206927 -9.7345371 -0.81331933 2 7
-1.1751943 -10.019042 0.29358166 11 25
-2.2040412 -10.117128 0.18073712 4 23
-1.1779351 -10.042409 -0.64801788 9 9
-2.1074948 -12.607409 0.74441206 2 27
-2.2059526 -10.125902 0.42221597 11 26
-1.6858374 -10.084979 -0.47629258 12 12
-2.2030563 -10.112607 -0.5424099 9 11
-1.3779037 -8.2428646 1.02614 28 29
-2.7469718 -12.609323 1.0535073 2 28
-1.177511 -10.038793 -0.41179487 12 13
-3.3937545 -12.586546 -0.45522904 1 14
-2.0990136 -12.556673 3.4112351 8 31
-2.7407277 -12.580661 2.3475797 4 30
-1.6852309 -10.08135 -0.23784237 11 16
-0.75442189 -3.4086084 -1.6279256 1 0
-1.2111344 -10.037657 -0.17647873 12 17
-2.2335157 -10.09141 -0.30079612 10 15
-0.91128796 -5.342484 -1.5171702 4 1
-1.4222878 -6.4261417 -1.3163394 2 2
-1.7197896 -10.082376 0 2 20
-3.442605 -12.601328 -0.15207912 2 18
-1.3511038 -7.9209323 -1.2501116 2 3
-2.0750933 -9.3756294 -1.2222764 3 4
-1.2117777 -10.042988 0.058793321 11 21
-2.244796 -10.142377 -0.060374163 1 19
-1.7266161 -10.122397 -1.1060984 1 5
-2.8978963 -10.607473 -1.0264744 2 6
-2.1530216 -12.622227 0.29795429 2 24
-1.8551564 -10.875973 -0.77150661 1 8
-2.1564074 -9.743021 -0.81462115 2 7
-1.2098484 -10.026998 0.29393074 10 25
-1.2117081 -10.042411 -0.64827371 9 9
-3.4822659 -12.746504 -0.76952815 14 10
-2.1506329 -12.608223 0.74487716 2 27
-2.2403822 -10.122435 0.42237878 11 26
-1.7192703 -10.079332 -0.47629258 11 12
-2.2391677 -10.116947 -0.54303795 9 11
-1.4065651 -8.2460775 1.0271149 28 29
-1.2112725 -10.038801 -0.41195774 10 13
-2.7717664 -10.145787 -0.3672823 2 14
-2.7858324 -12.586873 2.3504496 4 30
-1.7199967 -10.083591 -0.23802845 11 16
-0.76631564 -3.4059544 -1.6279256 1 0
-1.2456725 -10.0294 -0.17640893 12 17
-2.2713606 -10.095254 -0.3011452 10 15
-0.92794853 -5.3278866 -1.5139352 4 1
-1.4421277 -6.409658 -1.3139859 2 2
-1.3794233 -7.9200625 -1.2507266 2 3
-2.1069369 -9.3644581 -1.2217714 3 4
-1.2463341 -10.034727 0.058770075 10 21
-1.7626222 -10.120229 -1.1065269 2 5
-2.9200242 -10.543558 -1.0212696 2 6
-2.1970687 -12.614635 0.29795429 2 24
-1.8876325 -10.837984 -0.76927441 1 8
-2.1947794 -9.7548819 -0.81624848 2 7
-1.2463205 -10.034617 0.29427984 10 25
-2.8382146 -12.614684 0.22569451 2 23
-1.2477394 -10.046042 -0.64878529 8 9
-3.5299366 -12.745815 -0.77022582 8 10
-2.1946311 -12.60064 0.74487716 2 27
-2.2774575 -10.122352 0.42270446 11 26
-1.755815 -10.081143 -0.47666484 12 12
-2.2744691 -10.10907 -0.54303795 10 11
-1.4373846 -8.2528515 1.0285773 21 29
-2.2744148 -10.108828 0.84586513 11 28
-1.2477852 -10.046411 -0.41244623 10 13
-2.8146341 -10.163017 -0.36825949 2 14
-2.1877494 -12.561128 3.4164116 2 31
-2.830616 -12.580911 2.351167 4 30
-1.7565571 -10.085404 -0.23821457 12 16
-0.77739155 -3.3997245 -1.6262352 1 0
-1.2821935 -10.036892 -0.17661837 11 17
-2.3083677 -10.095059 -0.30137795 10 15
-0.94856268 -5.3359919 -1.5171702 4 1
-1.4662409 -6.4122324 -1.3155549 2 2
-1.7915349 -10.078 0 11 20
-1.4070603 -7.9151983 -1.2507266 2 3
-2.1404958 -9.3609142 -1.2222764 3 4
-1.282874 -10.042219 0.05883982 10 21
-2.3182223 -10.138156 -0.060443908 11 19
-1.8000249 -10.125759 -1.107812 2 5
-2.8233383 -10.057825 -0.97516924 1 6
-2.2424872 -12.614762 0.29814041 2 24
-2.8462305 -10.139377 0.12260389 20 22
-1.9268481 -10.839184 -0.76983243 1 8
-2.228816 -9.7471609 -0.81624848 2 7
-1.281846 -10.034172 0.29439622 10 25
-1.2833041 -10.045586 -0.64904118 9 9
-2.2406976 -12.604695 0.74557483 2 27
-2.315449 -10.126028 0.42319295 12 26
-1.7937903 -10.090689 -0.47740933 5 12
-2.3133032 -10.116644 -0.54387528 9 11
-1.4668777 -8.2516918 1.0290648 25 29
-2.3123524 -10.112486 0.84684151 11 28
-1.2828453 -10.041993 -0.41244623 11 13
-2.8198402 -10.045363 -0.36435077 2 14
-2.2329335 -12.56102 3.4184821 2 31
-2.8788989 -12.590134 2.3547544 4 30
-1.7938498 -10.091022 -0.23849373 12 16
-0.7917158 -3.4075835 -1.6313065 1 0
-1.3187842 -10.04425 -0.17682779 11 17
-2.3472128 -10.102519 -0.30184337 10 15
-0.96718377 -5.3326483 -1.5171702 4 1
-1.4903913 -6.4147162 -1.3171239 2 2
-1.8288457 -10.083493 0 12 20
-2.8553414 -10.03705 -0.12148636 0 18
-1.4283339 -7.8752379 -1.2451923 7 3
-2.1722617 -9.3495207 -1.2217714 3 4
-1.3189629 -10.045611 0.058886316 10 21
-2.3554089 -10.137795 -0.060490403 10 19
-1.8381999 -10.135068 -1.1095256 2 5
-2.8638797 -10.067063 -0.97702807 1 6
-2.2900774 -12.626532 0.29860568 2 24
-1.9561288 -10.785278 -0.76648414 1 8
-2.2664368 -9.7548552 -0.8175503 2 7
-1.318427 -10.04153 0.2947453 11 25
-2.3514695 -10.120839 0.1813654 13 23
-1.3183632 -10.041044 -0.64904118 9 9
-2.8627238 -10.063001 -0.60929698 1 10
-2.2861099 -12.604656 0.74603999 2 27
-2.3534963 -10.129562 0.42368144 8 26
-2.3531244 -10.127962 -0.54492205 9 11
-1.5013421 -8.2777739 1.0329647 11 29
-2.3494432 -10.112119 0.8474924 11 28
-1.319973 -10.053305 -0.41309753 10 13
-2.8636398 -10.06622 -0.36546752 1 14
-2.2774577 -12.556952 3.4195175 2 31
-2.9246123 -12.587674 2.3561895 4 30
-1.8312056 -10.096504 -0.23877288 13 16
-0.80217904 -3.4014111 -1.6296161 1 0
-1.3515503 -10.035858 -0.17675798 11 17
-2.3843715 -10.110246 -0.30230883 11 15
-0.98486173 -5.3294115 -1.5171702 3 1
-1.5107541 -6.405921 -1.3163394 2 2
-1.8629999 -10.081307 0 11 20
-3.6281993 -12.594942 -0.15259133 1 18
-1.4594682 -7.8976645 -1.2494967 5 3
-2.2041643 -9.3461275 -1.2222764 3 4
-1.3528011 -10.045146 0.058909561 10 21
-2.3908496 -10.137714 -0.060536899 11 19
-1.8775795 -10.160202 -1.1129526 3 5
-2.8851197 -10.015412 -0.9729386 0 6
-3.6326277 -12.610314 0.15277758 1 22
-1.983181 -10.731647 -0.76313585 1 8
-2.297857 -9.7434053 -0.81722486 3 7
-1.352785 -10.045026 0.29497802 10 25
-2.3886898 -10.128556 0.18164465 15 23
-1.3537836 -10.052442 -0.65006447 9 9
-3.635572 -12.620536 -0.76487702 2 10
-2.3278947 -12.597007 0.74603999 3 27
-2.3322177 -12.620399 -0.5978319 2 12
-2.3903639 -10.135654 -0.54575938 10 11
-1.5843359 -8.5733643 1.0705004 5 29
-2.3857081 -10.115913 0.84846878 12 28
-1.3538363 -10.052834 -0.41326034 11 13
-3.630661 -12.603488 -0.45802099 1 14
-2.3204887 -12.55693 3.4215879 2 31
-2.9681442 -12.585567 2.3576243 4 30
-1.8646759 -10.090377 -0.23877288 12 16
-0.8140474 -3.3985901 -1.6296161 1 0
-1.3876693 -10.039003 -0.1768976 17 17
-2.4215112 -10.109637 -0.30254155 11 15
-1.0041723 -5.3297276 -1.5182486 3 1
-1.5331059 -6.4006085 -1.3163394 2 2
-1.8996605 -10.082604 0 12 20
-1.4884914 -7.9002905 -1.2507266 5 3
-2.2367749 -9.338377 -1.2222764 3 4
-2.4290175 -10.140977 -0.06060664 11 19
-1.9049344 -10.110596 -1.1082404 2 5
-3.6755042 -12.593719 0.15273102 1 22
-1.9792567 -10.505069 -0.74751037 1 8
-2.3364971 -9.7547102 -0.81885207 2 7
-1.3883884 -10.044205 0.29509437 17 25
-2.4258938 -10.127935 0.18178427 14 23
-1.3888654 -10.047655 -0.65006447 8 9
-3.680723 -12.611602 -0.7651096 2 10
-2.3718529 -12.588804 0.74603999 2 27
-2.3762574 -12.612183 -0.5978319 2 12
-2.4285209 -10.138903 -0.54638743 10 11
-1.5980812 -8.4819479 1.0597758 4 29
-2.4237907 -10.119155 0.84944516 11 28
-1.3894665 -10.052005 -0.41342318 7 13
-3.6735141 -12.586901 -0.45788142 1 14
-2.3664529 -12.560144 3.4246936 2 31
-3.0157247 -12.590437 2.3604944 4 30
-1.902108 -10.095594 -0.23905203 12 16
-0.82676214 -3.3992503 -1.6313065 1 0
-1.4221412 -10.030139 -0.17682779 2 17
-2.4605644 -10.116663 -0.30300701 11 15
-1.0220435 -5.3224058 -1.5171702 3 1
-1.5563653 -6.3990293 -1.3171239 2 2
-1.9371057 -10.087696 0 11 20
-3.7251101 -12.599989 -0.15296383 1 18
-1.516804 -7.8989272 -1.2513415 6 3
-2.2684197 -9.3266563 -1.2217714 3 4
-1.422334 -10.031498 0.058886316 13 21
-2.4662912 -10.140209 -0.060653139 12 19
-2.8939953 -9.7887869 -0.95286268 1 6
-1.9358274 -10.081038 0.23886593 11 24
-3.7251101 -12.599989 0.15296383 2 22
-2.0768647 -10.815506 -0.7701115 1 8
-2.373359 -9.7581167 -0.81982845 2 7
-2.4650118 -10.134949 0.18206351 14 23
-3.7281184 -12.610165 -0.76580727 2 10
-2.4187925 -12.596134 0.74697018 2 27
-2.4633439 -10.128091 0.42465839 13 26
-2.4247875 -12.627354 -0.59894866 2 12
-2.4648407 -10.134245 -0.54659677 10 11
-1.6044685 -8.3554497 1.0446641 4 29
-2.4619241 -10.122254 0.85042155 12 28
-3.727627 -12.608502 -0.4591378 1 14
-2.4117377 -12.559395 3.4267642 3 31
-3.062444 -12.591304 2.3626466 4 30
-1.939598 -10.100675 -0.23933119 4 16
-0.83862323 -3.3963437 -1.6313065 1 0
-1.4467909 -9.9538727 -0.1755712 2 17
-2.4977815 -10.115776 -0.30323973 11 15
-1.0413563 -5.322587 -1.5182486 3 1
-1.5777532 -6.3897495 -1.3163394 2 2
-1.9738441 -10.088724 0 11 20
-3.7736611 -12.602238 -0.15315011 1 18
-1.5443683 -7.8935847 -1.2513415 5 3
-2.3019147 -9.3225336 -1.2222764 3 4
-2.5045502 -10.143188 -0.06072288 12 19
-1.9762367 -10.100953 -1.1086687 11 5
-2.9464278 -9.8396702 -0.9588111 0 6
-1.9740777 -10.089918 0.23923814 11 24
-2.1123083 -10.796443 -0.76927441 1 8
-2.4064524 -9.7459011 -0.81950301 2 7
-1.4435235 -9.9313927 0.29206899 1 25
-2.5042112 -10.141815 0.18234275 15 23
-1.4469197 -9.9547577 -0.64469206 2 9
-3.7732606 -12.6009 -0.76603979 2 10
-2.463515 -12.591533 0.74720275 2 27
-2.5015583 -10.131071 0.42514688 13 26
-2.471921 -12.634498 -0.59969312 2 12
-2.5049903 -10.14497 -0.54764348 10 11
-2.5010667 -10.129081 0.85172337 11 28
-1.4475365 -9.9590025 -0.41000378 1 13
-3.7739112 -12.603072 -0.45941699 1 14
-2.4563072 -12.554692 3.4277995 3 31
-3.1082656 -12.588178 2.3640816 4 30
-2.4685569 -12.617304 -0.299164 2 16
-0.85135454 -3.3969121 -1.632997 1 0
-1.4821159 -9.9527178 -0.17564102 2 17
-2.5350201 -10.114753 -0.30347246 11 15
-1.0599288 -5.3189192 -1.5182486 3 1
-1.6010009 -6.3880081 -1.3171239 2 2
-2.0129559 -10.101387 0 11 20
-3.8164666 -12.585159 -0.15310353 2 18
-1.5726843 -7.8920212 -1.2519563 5 3
-2.3315473 -9.3028946 -1.2207612 3 4
-1.4793708 -9.9342842 0.058374867 1 21
-2.5428574 -10.146024 -0.060792617 12 19
-2.0107055 -10.090093 -1.1082404 9 5
-3.2350276 -10.667809 -1.0406018 2 6
-2.0124111 -10.098653 0.23961034 11 24
-3.0747631 -10.139321 0.12334893 1 22
-2.1421828 -10.749871 -0.76648414 1 8
-2.4462717 -9.7606459 -0.82145578 2 7
-1.8827666 -12.643171 0.37200975 1 25
-2.5405686 -10.136891 0.18241255 15 23
-3.826493 -12.618222 -0.76790023 2 10
-2.5074515 -12.582857 0.74720275 2 27
-2.5427358 -10.145539 0.42612386 13 26
-2.5167885 -12.629711 -0.59987926 2 12
-2.5403867 -10.136166 -0.54764348 2 11
-1.650347 -8.2817469 1.0368644 27 29
-2.5402844 -10.135757 0.8530252 11 28
-3.822521 -12.605124 -0.45997536 1 14
-2.5001152 -12.546041 3.4277995 3 31
-3.1550562 -12.588703 2.3662341 4 30
-2.5157094 -12.624296 -0.2995362 2 16
-0.86201084 -3.3867426 -1.6296161 1 0
-1.9265984 -12.619843 -0.22283232 3 17
-2.5760207 -10.120893 -0.30393791 11 15
-1.0809499 -5.3225489 -1.5204051 3 1
-1.625371 -6.3858981 -1.3179083 2 2
-2.0523546 -10.105701 0 11 20
-3.8684418 -12.590204 -0.15333636 2 18
-1.6023864 -7.8900785 -1.2525713 5 3
-2.3656287 -9.2942867 -1.2207612 3 4
-1.9262557 -12.617598 0.07418327 3 21
-2.5839744 -10.152142 -0.060885616 12 19
-2.0500488 -10.094349 -1.1095256 9 5
-3.2752752 -10.659689 -1.0409737 1 6
-2.0502074 -10.095129 0.23970342 11 24
-2.4839966 -9.7593403 -0.82210666 2 7
-1.9290935 -12.636186 0.37200975 3 25
-2.5826375 -10.14689 0.18276159 15 23
-1.5361888 -10.062533 -0.652367 9 9
-3.8703697 -12.596479 -0.76743513 2 10
-2.5535536 -12.573583 0.74720275 2 27
-2.581876 -10.143897 0.42644954 13 26
-2.5670383 -12.639981 -0.60080987 2 12
-3.210077 -12.612028 -0.68204224 1 11
-1.6806902 -8.2756433 1.0368644 29 29
-2.5803668 -10.137969 0.85400158 11 28
-1.5374612 -10.070868 -0.41505146 11 13
-3.8733919 -12.606316 -0.46053377 1 14
-2.5491581 -12.551939 3.4319406 3 31
-3.2021461 -12.580869 2.3669515 4 30
-2.5627594 -12.618912 -0.29962927 2 16
-0.87564003 -3.390733 -1.632997 1 0
-1.9718717 -12.620943 -0.22297195 3 17
-2.6113324 -10.111839 -0.30393791 6 15
-1.0971824 -5.3074265 -1.5171702 2 1
-1.6466707 -6.3763881 -1.3171239 2 2
-2.0876164 -10.098475 0 9 20
-3.9194934 -12.59954 -0.15361574 2 18
-1.6323179 -7.8960495 -1.2544161 5 3
-2.3970644 -9.2821312 -1.2202562 3 4
-1.9709038 -12.614748 0.074206516 3 21
-2.6223953 -10.154678 -0.060955357 11 19
-2.0868814 -10.09492 -1.1103822 9 5
-3.3053653 -10.625374 -1.038743 1 6
-2.0886707 -10.103576 0.24007562 11 24
-3.1591189 -10.155252 0.12381457 13 22
-2.0906091 -10.112952 -0.72211897 10 8
-2.5220346 -9.7660522 -0.82340854 2 7
-1.9725717 -12.625423 0.37189338 2 25
-2.6210401 -10.14943 0.18297103 13 23
-1.5731518 -10.068941 -0.65313447 9 9
-3.9190595 -12.598145 -0.76836532 2 10
-2.6202662 -10.146433 0.42693803 12 26
-2.6103344 -12.627031 -0.60062379 1 12
-3.2560782 -12.608482 -0.68246096 1 11
-1.7103702 -8.2736139 1.0373518 26 29
-2.6187291 -10.140481 0.85497797 11 28
-1.5744555 -10.077286 -0.41553995 11 13
-3.9185586 -12.596535 -0.46067336 1 14
-2.5945201 -12.550533 3.4340112 3 31
-3.2470245 -12.573424 2.3676691 4 30
-2.6076002 -12.613805 -0.29972231 2 16
-0.88596141 -3.3843038 -1.6313065 1 0
-1.1155691 -5.3075285 -1.5182486 3 1
-1.6658201 -6.3633037 -1.3155549 2 2
-3.9600534 -12.582658 -0.15356918 2 18
-1.6584935 -7.8905931 -1.2544161 5 3
-2.4278326 -9.2741318 -1.2202562 3 4
-2.0139868 -12.616042 0.074253015 3 21
-2.6621335 -10.169143 -0.061094839 10 19
-2.1244366 -10.107404 -1.1125243 7 5
-3.3059094 -10.504183 -1.0279615 1 6
-2.1246319 -10.108334 0.24035478 11 24
-3.1963801 -10.156165 0.12395427 13 22
-2.1233132 -10.10206 -0.72184002 9 8
-2.5604644 -9.7807741 -0.82536125 2 7
-2.0169501 -12.634605 0.37235883 2 25
-2.6577218 -10.15229 0.18318045 12 23
-1.6071626 -10.06761 -0.65339029 9 9
-3.9632132 -12.592698 -0.76883048 2 10
-2.1224334 -10.097875 0.60092497 11 27
-2.6569355 -10.149287 0.42742652 12 26
-3.3019187 -12.613072 -0.68329829 3 11
-1.7386141 -8.2717819 1.0378394 29 29
-2.6543617 -10.139455 0.85562891 11 28
-1.608495 -10.075955 -0.41570282 11 13
-3.9651098 -12.598723 -0.46123174 1 14
-2.6377151 -12.549422 3.4360819 3 31
-3.2926888 -12.577815 2.3705389 4 30
-2.6535277 -12.624654 -0.30018756 2 16
-0.89870024 -3.3846941 -1.632997 1 0
-1.6434828 -10.069204 -0.17808436 12 17
-3.3388412 -12.574779 -0.37864241 2 15
-1.1340898 -5.3036017 -1.5182486 3 1
-1.6910427 -6.3688226 -1.3179083 2 2
-2.6916206 -12.587437 0 2 20
-4.0112367 -12.591622 -0.15384856 2 18
-1.6843747 -7.8770237 -1.2531862 5 3
-2.4601917 -9.2655993 -1.2202562 3 4
-2.0580146 -12.608934 0.074253015 3 21
-2.1630328 -10.115481 -1.1142378 6 5
-3.4066277 -10.693702 -1.0476656 2 6
-2.1615775 -10.108676 0.24054086 11 24
-3.2378838 -10.164001 0.12418708 16 22
-2.1627364 -10.114096 -0.72323507 9 8
-2.5976605 -9.7833357 -0.82633764 3 7
-2.0603986 -12.623542 0.37224248 2 25
-2.6972501 -10.158412 0.18345968 12 23
-1.6435831 -10.069818 -0.65390199 9 9
-4.0180559 -12.613029 -0.77092344 2 10
-2.1618454 -10.109929 0.6020878 11 27
-2.6974766 -10.159265 0.42824063 11 26
-2.1606562 -10.104368 -0.48131797 9 12
-3.355154 -12.636216 -0.68518245 3 11
-1.7683088 -8.2695436 1.0383269 29 29
-2.6917861 -10.137834 0.85627973 11 28
-1.644946 -10.078168 -0.41602844 11 13
-4.0090652 -12.584805 -0.46123174 1 14
-2.6831222 -12.547693 3.4381523 2 31
-3.3396046 -12.577654 2.3726914 4 30
-2.6984181 -12.619226 -0.30028063 2 16
-0.9095667 -3.3780363 -1.6313065 1 0
-1.679278 -10.067351 -0.17815416 12 17
-3.3868721 -12.578491 -0.37910783 2 15
-1.153414 -5.3033743 -1.5193268 3 1
-1.7122434 -6.3590941 -1.3171239 2 2
-2.7389417 -12.5936 0 2 20
-4.0662107 -12.611805 -0.15426764 2 18
-1.7143798 -7.8826838 -1.2550309 2 3
