# .PCD v0.7 - Point Cloud Data file format
VERSION 0.7
FIELDS x y z intensity ring
SIZE 4 4 4 4 2
TYPE F F F F U
COUNT 1 1 1 1 1
WIDTH 1352
HEIGHT 1
VIEWPOINT 0 0 0 1 0 0 0
POINTS 1352
DATA ascii
8.6761189 6.1931877 -1.6584116 2 3
10.652686 6.8441563 -1.6116877 4 4
10.450162 8.2589664 0.077414699 1 21
12.596063 8.092741 -0.087015979 70 19
11.235371 8.0200329 -1.4869355 4 5
14.214856 8.1805105 -1.5309747 1 6
11.958025 8.5358782 0.34187514 22 24
15.509817 8.9257479 0.20832883 3 22
11.863922 8.4687061 -1.0192816 4 8
14.488727 9.3087425 0.30060026 1 23
11.800677 9.3263054 -0.9639681 6 9
14.612453 8.4093237 -0.98185182 5 10
11.947529 8.5283861 0.85487622 26 27
15.077447 9.686985 0.73012584 1 26
11.857246 8.4639406 -0.67860991 12 12
12.945327 8.3171368 -0.80639249 6 11
11.684684 8.3407612 1.7627183 6 29
15.787893 10.143435 1.5319304 2 28
15.023282 8.645752 -0.60529691 2 14
12.317858 8.7927341 4.0551772 1 31
13.170005 8.4614878 2.8541174 2 30
11.94826 8.5289078 -0.34159598 22 16
13.421231 10.527371 -0.29773808 2 17
5.2021723 3.6847053 -1.7845889 1 1
7.6804452 4.8948669 -1.8215375 2 2
11.976157 8.482728 0 21 20
15.135979 8.6369095 -0.20288081 2 18
8.7116642 6.1704831 -1.6608714 2 3
10.681046 6.8071966 -1.6121927 4 4
13.404164 10.513985 0.099011771 2 21
12.639133 8.0551167 -0.08710897 89 19
11.274429 7.985693 -1.4882207 4 5
14.279339 8.1480923 -1.5346926 1 6
11.989233 8.4919891 0.34187514 16 24
15.681387 8.9481316 0.21019141 3 22
11.872091 8.4090176 -1.0173284 4 8
13.382989 10.497375 0.49500453 1 25
14.677892 9.3544483 0.30381149 1 23
11.815937 9.2682076 -0.9624331 6 9
14.750696 8.4170589 -0.98906112 5 10
12.014555 8.5099249 0.85743439 11 27
15.136445 9.6466913 0.73126566 1 26
11.871888 8.4088745 -0.6776793 11 12
11.773495 8.3391819 1.7714928 6 29
15.79471 10.066215 1.5290014 2 28
11.874391 9.3140574 -0.61484283 28 13
15.100005 8.6163826 -0.60711163 2 14
12.28064 8.6983929 4.0324011 1 31
13.307122 8.4808359 2.8770766 2 30
11.995759 8.4966116 -0.34206122 12 16
13.413713 10.446064 -0.29676074 2 17
5.2149997 3.6665277 -1.7845889 1 1
7.7041116 4.8722262 -1.8231065 2 2
15.726445 8.9012299 -0.21037766 2 18
8.7396116 6.1445885 -1.6621011 2 3
10.72486 6.7826047 -1.6152232 4 4
13.418688 10.449937 0.098849036 2 21
12.646885 7.9981294 -0.08696948 55 19
11.318496 7.9577336 -1.4903626 2 5
14.290358 8.0883989 -1.5328337 1 6
15.743849 8.9110804 0.21061049 3 22
11.878516 8.351469 -1.0153753 4 8
13.120695 8.2977762 -1.2673331 4 7
12.179797 9.4851389 0.44927421 1 25
14.805094 9.3630209 0.30576617 1 23
11.813567 9.199934 -0.95961899 6 9
14.877288 8.4206028 -0.99557263 5 10
15.230822 9.6322594 0.7341966 1 26
11.875012 8.3490057 -0.67619032 9 12
11.864235 8.3414278 1.7807549 6 29
15.769094 9.9726734 1.5231431 2 28
11.881598 9.2529135 -0.61354017 29 13
13.429762 8.4932356 2.8971658 2 30
12.17033 9.4062977 -0.26848781 2 17
5.2252469 3.6451814 -1.7835106 0 1
7.7285666 4.8481193 -1.8246754 1 2
15.731065 8.8278589 -0.21000515 2 18
8.7653208 6.1147699 -1.6627162 2 3
10.763097 6.7516761 -1.6172435 4 4
12.168815 9.4051256 0.089387238 2 21
12.679508 7.9538383 -0.086992726 46 19
11.363902 7.9275656 -1.4925046 4 5
14.354644 8.0554485 -1.5365515 1 6
12.292392 8.5752888 0.34876099 1 24
15.745017 8.8356886 0.21019141 3 22
11.909052 8.3078671 -1.0153753 4 8
12.840318 8.0547132 -1.237391 4 7
14.903689 9.3490639 0.30709255 1 23
11.809313 9.1272717 -0.95654905 6 9
15.012527 8.4246349 -1.0025494 5 10
15.811983 11.030589 1.1227808 2 27
15.205088 9.5381308 0.73126566 1 26
11.928478 8.3214197 -0.67749316 5 12
12.763861 8.006752 -0.78964496 2 11
11.96637 8.3478527 1.7914795 6 29
15.792037 9.9063234 1.5218412 2 28
11.886977 9.1872978 -0.61207473 31 13
15.356503 8.6176643 -0.61492914 8 14
13.517478 8.479495 2.909363 2 30
13.02049 9.0832167 -0.36941868 1 16
12.168099 9.3436623 -0.26778972 2 17
12.678907 7.8980675 -0.43472892 2 15
5.2335062 3.6265552 -1.7824324 1 1
7.7604036 4.8341856 -1.8285978 2 2
13.00975 9.0150986 0 1 20
8.8104753 6.1052136 -1.6676353 2 3
10.801094 6.728322 -1.6197689 4 4
12.214163 9.3790331 0.089503475 2 21
12.711223 7.9181976 -0.087039225 34 19
11.408362 7.9054184 -1.495075 4 5
14.407715 8.0258198 -1.5395257 1 6
13.926559 9.6504011 0.39426368 1 24
11.994127 8.3113232 -1.0203977 4 8
12.706513 7.9152641 -1.2220944 1 7
12.180658 9.3533058 0.44694695 1 25
15.055193 9.3783264 0.30960572 1 23
11.809434 9.0682487 -0.95424658 6 9
15.133107 8.4299002 -1.0088284 5 10
15.404593 9.5959778 0.73940712 1 26
12.016961 8.3271465 -0.68102956 4 12
13.426363 8.3636799 -0.82900167 2 11
12.044746 8.3463993 1.7992792 6 29
15.782471 9.8313694 1.5179356 2 28
11.884081 9.1255693 -0.61044645 33 13
15.484775 8.6257963 -0.61897743 11 14
12.18854 8.4460411 3.9733903 14 31
13.62087 8.4848442 2.9258647 2 30
13.256032 9.1857595 -0.37528098 1 16
13.418799 10.229787 -0.29452682 2 17
12.689397 7.8432479 -0.43414715 2 15
5.2366133 3.6017148 -1.7791975 1 1
7.7805686 4.8091273 -1.8293822 2 2
13.205928 9.0829668 0 1 20
8.8382473 6.0788999 -1.6688652 2 3
10.848144 6.7051792 -1.6233044 4 4
12.230924 9.324213 0.089387238 2 21
12.735385 7.8716731 -0.087015979 13 19
11.442444 7.8700523 -1.4959316 4 5
14.439128 7.9774003 -1.5398974 1 6
14.026059 9.647049 0.39612475 1 24
15.666736 8.6556349 0.20837541 25 22
12.082248 8.3101063 -1.0254202 4 8
12.197336 9.2986078 0.44636515 1 25
15.441646 9.5443983 0.31686589 1 23
11.81562 9.0076075 -0.95219994 6 9
15.267301 8.4349537 -1.015805 5 10
12.436728 8.553916 0.87906206 4 27
15.597783 9.6409063 0.74706012 1 26
12.118385 8.3349609 -0.68512428 4 12
12.741931 7.8757191 -0.78503942 2 11
12.149046 8.3560495 1.8104911 6 29
15.806523 9.769927 1.5169593 2 28
11.887259 9.0622206 -0.60898101 31 13
15.626761 8.6335497 -0.62344462 16 14
12.252968 8.4275265 3.9847782 11 31
13.744133 8.4951744 2.9459543 2 30
13.412963 10.151515 -0.2936193 2 17
15.351377 9.4147167 -0.52409506 1 15
5.2586951 3.5899327 -1.7824324 0 1
7.8006492 4.7839947 -1.8301668 2 2
13.69014 9.3457937 0 1 20
8.8724661 6.0569315 -1.6713248 2 3
10.885008 6.6755753 -1.6253246 4 4
12.180467 9.218708 0.088782802 2 21
11.482978 7.8390393 -1.4976451 4 5
14.519272 7.9556665 -1.5454741 1 6
12.537092 8.5586472 0.35322753 1 24
15.707372 8.6066713 0.20851509 12 22
12.170495 8.3083839 -1.0304426 4 8
13.668867 8.382865 -1.3089918 6 7
11.939594 9.0364056 0.4357762 1 25
15.566914 9.5469017 0.31875074 1 23
11.818339 8.9446344 -0.94989741 6 9
15.40871 8.4430237 -1.0232468 5 10
15.754628 10.75515 1.1109205 2 27
15.563195 9.5446215 0.7438035 1 26
12.2002 8.3286629 -0.6881023 4 12
12.240435 8.3561296 1.8197533 6 29
15.803139 9.6917744 1.5133792 2 28
11.886947 8.9965591 -0.60735267 29 13
15.698866 8.6020107 -0.62511981 8 14
12.285495 8.3868904 3.9858134 3 31
13.86427 8.5027018 2.9653261 2 30
12.593238 8.5969763 -0.35480943 1 16
12.177343 9.1463356 -0.26583505 1 17
5.2622504 3.5641525 -1.7791975 0 1
7.8348866 4.7655611 -1.834089 1 2
13.903145 9.4166803 0 1 20
8.8978796 6.0265856 -1.6719397 2 3
10.929745 6.648005 -1.6283551 4 4
12.258949 9.2076292 0.089108266 2 21
15.040041 9.1480875 -0.10231293 1 19
11.531391 7.8102779 -1.5002155 4 5
14.632329 7.9480166 -1.5543967 1 6
15.738812 8.5490389 0.20851509 6 22
12.270247 8.310709 -1.0363022 4 8
13.774436 8.3782854 -1.3161519 6 7
11.998211 9.0117903 0.43670711 1 25
15.588135 9.4814653 0.31847152 1 23
11.819126 8.8772812 -0.94733912 6 9
15.541315 8.441762 -1.029991 5 10
15.807169 10.706286 1.1118507 2 27
15.55027 9.4584341 0.74152392 1 26
12.296811 8.328702 -0.69182479 4 12
13.784252 8.3842564 -0.84553975 4 11
12.330151 8.3512821 1.8285278 6 29
15.787466 9.6027088 1.5084975 2 28
11.887884 8.9289246 -0.60572439 29 13
15.709213 8.5329609 -0.62428218 8 14
12.373735 8.3808031 4.0044484 1 31
13.972669 8.4988604 2.981828 2 30
12.175548 9.0819941 -0.26513696 1 17
14.985444 9.0469427 -0.50943345 1 15
5.2676468 3.5423846 -1.7770408 0 1
7.8540044 4.7415833 -1.8348736 2 2
13.964167 9.3906155 0 1 20
15.731864 8.477829 -0.20804946 6 18
8.9342136 6.0080762 -1.6750144 2 3
10.961919 6.6178794 -1.6298703 4 4
13.424414 10.01355 0.097337939 2 21
15.176446 9.1622534 -0.10303361 1 19
11.567126 7.7786555 -1.5015007 4 5
14.679641 7.9107904 -1.5566274 1 6
12.696088 8.537859 0.35601911 4 24
15.728342 8.4759312 0.20800288 6 22
12.373894 8.3211908 -1.0427198 4 8
13.887466 8.3840771 -1.3242882 6 7
12.48633 9.3138132 0.45334688 1 25
15.557859 9.392519 0.31721494 1 23
11.813302 8.8117876 -0.944525 6 9
15.681711 8.4508018 -1.0374328 5 10
15.792878 10.620387 1.1083624 2 27
15.547331 9.3861628 0.73989558 1 26
12.390675 8.3324747 -0.69554728 4 12
13.89405 8.388052 -0.85056406 4 11
12.440138 8.3657379 1.8407148 6 29
15.795329 9.5358829 1.5062193 2 28
11.895001 8.8727293 -0.60458457 31 13
15.730385 8.4770317 -0.62400299 5 14
14.078256 8.4992599 2.9983301 3 30
12.849998 9.5154448 -0.27909887 2 17
15.023795 8.9986811 -0.50966614 1 15
5.2863889 3.5282507 -1.7791975 0 1
7.8772388 4.7181664 -1.8364425 2 2
14.10333 9.4128675 0 1 20
15.83897 8.4643316 -0.20907387 4 18
8.9682837 5.9856267 -1.6774739 2 3
11.008784 6.5938425 -1.6334058 4 4
12.864597 9.5262556 0.093037128 2 21
15.19118 9.0989389 -0.10291737 1 19
11.607443 7.7470593 -1.5032142 4 5
14.738778 7.87639 -1.5599734 3 6
15.831915 8.4605608 0.20898074 6 22
12.462608 8.3178148 -1.0477422 4 8
14.008994 8.3908548 -1.3330756 6 7
15.556244 9.3175983 0.31651685 1 23
11.821535 8.7538662 -0.94273424 6 9
15.820292 8.4543505 -1.044642 5 10
15.809929 10.551889 1.1069671 2 27
15.549146 9.3133469 0.73843014 1 26
12.482833 8.3313131 -0.69908363 4 12
14.005492 8.3887568 -0.85558832 4 11
12.525405 8.3597269 1.8490019 6 29
15.790901 9.458149 1.5026392 2 28
11.896996 8.8097448 -0.60311913 29 13
15.848024 8.4691696 -0.62749296 5 14
14.222621 8.5188093 3.0227242 3 30
14.24919 9.5102186 -0.39863721 1 16
5.2826171 3.4991393 -1.773806 0 1
7.9037781 4.69665 -1.8387959 1 2
12.478721 8.265748 0 1 20
15.970913 8.4632988 -0.21042423 4 18
9.002305 5.9630136 -1.6799335 2 3
11.045381 6.5634799 -1.635426 4 4
12.826873 9.4291668 0.092525676 4 21
15.15408 9.0049858 -0.10245242 1 19
11.650995 7.7174726 -1.5053562 4 5
14.826011 7.8565931 -1.5662936 3 6
15.963844 8.4595537 0.2103311 6 22
12.538143 8.305109 -1.0516486 3 8
14.13074 8.3968878 -1.3418629 6 7
12.679914 9.3211365 0.45800138 1 25
15.561172 9.246891 0.31595835 1 23
11.829509 8.6959944 -0.94094342 6 9
15.962621 8.4589052 -1.0520837 6 10
15.606972 10.337862 1.090223 2 27
15.5369 9.2324677 0.7363134 1 26
12.548484 8.3119583 -0.70113099 3 12
14.117107 8.3887873 -0.86061251 4 11
12.637259 8.3707619 1.8611888 6 29
15.80326 9.3907471 1.5006864 2 28
11.898696 8.7468548 -0.6016537 27 13
16.001122 8.4793072 -0.63237888 5 14
14.360529 8.5334349 3.0456834 3 30
12.906424 9.4184313 -0.27888945 2 17
5.2915792 3.4785633 -1.7727276 0 1
7.9370165 4.6789942 -1.8427182 1 2
16.117199 8.4688978 -0.21196085 4 18
9.0428801 5.9445825 -1.6836231 2 3
11.098986 6.5430241 -1.6399717 4 4
12.966331 9.4621477 0.09329284 2 21
11.701123 7.6920509 -1.5083549 4 5
14.878022 7.8177638 -1.5688961 3 6
14.388749 9.4588346 0.40068433 1 24
16.113657 8.4670372 0.21191429 6 22
12.630406 8.3029404 -1.0569501 4 8
14.242386 8.3961067 -1.349674 6 7
12.796345 9.3381004 0.46102679 2 25
15.493438 9.1336212 0.31393388 1 23
11.833993 8.6358271 -0.93889672 6 9
16.115772 8.4681482 -1.0602232 6 10
15.18248 9.9806147 1.0581303 2 27
15.544927 9.1639748 0.73517358 1 26
12.677585 8.3339539 -0.70671469 3 12
14.23921 8.3942347 -0.86626482 4 11
12.732752 8.3702202 1.8709384 6 29
15.815331 9.3233824 1.4987336 2 28
11.896869 8.6817102 -0.60002536 27 13
16.154476 8.4884853 -0.63726479 5 14
14.454632 8.5212297 3.0593154 3 30
11.915747 8.6318989 -0.25682962 3 17
15.186234 8.8812275 -0.51199341 1 15
5.3069167 3.4621747 -1.773806 0 1
7.9668465 4.6591783 -1.8458561 0 2
16.245985 8.4643307 -0.21326466 4 18
9.0635767 5.9129786 -1.6836231 1 3
11.142311 6.5162568 -1.6430023 4 4
14.760805 8.6324272 -0.099383727 3 19
11.747889 7.6641951 -1.5109253 4 5
14.947607 7.7878609 -1.5733573 1 6
14.418332 9.4063635 0.40059128 1 24
16.245985 8.4643307 0.21326466 6 22
14.37141 8.4047012 -1.3591123 6 7
15.290468 8.9421854 0.30918685 1 23
11.83174 8.571044 -0.93633842 6 9
16.247936 8.4653463 -1.0669674 3 10
15.227262 9.9341011 1.058828 2 27
15.549224 9.0935116 0.73387098 1 26
12.740065 8.3114796 -0.70857596 4 12
14.364976 8.400938 -0.87212652 4 11
12.838371 8.3756142 1.8821504 6 29
14.791266 8.6502419 1.3988181 2 28
11.897973 8.6190243 -0.59855992 29 13
16.265553 8.4745245 -0.64047557 2 14
14.582802 8.528327 3.080122 3 30
12.606412 8.2242861 -0.35024986 2 16
15.267472 8.8609285 -0.51373887 1 15
5.3054357 3.4361818 -1.7694926 0 1
7.9754663 4.6287975 -1.8442872 0 2
12.532956 8.1172447 0 43 20
17.880039 9.2404356 -0.23431173 2 18
9.099721 5.8936338 -1.6866975 1 3
11.174152 6.485249 -1.6445173 4 4
15.408596 8.9428339 -0.10354505 1 19
11.809957 7.6489782 -1.5156375 2 5
15.012269 7.7583661 -1.5774468 1 6
14.449444 9.3585005 0.40059128 1 24
17.869381 9.2349262 0.23417205 7 22
14.485402 8.4070311 -1.3672487 6 7
11.889135 8.5526533 0.42623451 20 25
15.389215 8.9315853 0.31058303 1 23
11.830933 8.5107841 -0.93403602 4 9
17.865194 9.2327633 -1.1711525 3 10
15.176327 9.8292818 1.053014 2 27
15.572376 9.0378885 0.73354524 1 26
12.700481 8.2257462 -0.70485348 4 12
14.489489 8.4094019 -0.8779881 4 11
12.939384 8.380477 1.8928748 4 29
14.90607 8.6511774 1.4069546 4 28
11.903777 8.5631866 -0.5974201 27 13
17.888115 9.2446089 -0.70315504 3 14
14.713104 8.5391846 3.1016464 3 30
12.623544 8.1759157 -0.3499707 2 16
15.4246 8.876709 -0.51792789 1 15
5.3277159 3.4229612 -1.7727276 0 1
8.0093756 4.6093187 -1.8482095 0 2
12.569352 8.0755825 0 69 20
17.999226 9.2186031 -0.23542927 2 18
9.1412115 5.8730636 -1.690387 2 3
11.225359 6.4600863 -1.648558 4 4
11.93827 8.5217781 0.085249156 26 21
15.524474 8.934186 -0.10410301 1 19
11.841258 7.6077948 -1.516066 4 5
15.093774 7.7305279 -1.5830235 3 6
14.48701 9.3076429 0.40068433 1 24
18.013466 9.2258968 0.23561555 11 22
12.941585 8.3147354 -1.0756449 3 8
14.605959 8.4055891 -1.3757106 6 7
11.936673 8.5206385 0.42681631 22 25
15.546637 8.9469404 0.31309617 1 23
11.839302 8.4511328 -0.93224519 6 9
18.019756 9.2291183 -1.1790594 3 10
15.588526 10.015347 1.0790603 2 27
15.563828 8.9568329 0.73159128 1 26
12.90871 8.2936134 -0.71471804 4 12
14.61715 8.4120302 -0.88384968 4 11
13.046837 8.3823576 1.9040867 4 29
11.931828 8.5171804 -0.59725732 21 13
18.04285 9.2409468 -0.70790136 3 14
14.85003 8.5460501 3.123888 3 30
12.801456 8.2247047 -0.354065 2 16
11.976113 8.4858389 -0.25620133 20 17
15.583972 8.8961515 -0.52223331 1 15
5.3201451 3.3919175 -1.7662579 0 1
8.0220108 4.5793858 -1.847425 0 2
12.597466 8.0316544 0 52 20
18.184649 9.2335815 -0.23743156 2 18
9.1783218 5.8517408 -1.6934617 2 3
11.261627 6.4287291 -1.6505783 4 4
11.987527 8.493926 0.085388638 15 21
15.718836 8.9731379 -0.10519564 1 19
11.887863 7.5792389 -1.5186362 4 5
15.159731 7.6976256 -1.587113 3 6
14.546389 9.2742119 0.40142876 1 24
18.188215 9.2353926 0.23747812 7 22
13.058012 8.3252802 -1.0828996 5 8
14.746007 8.4177961 -1.3861253 6 7
11.998968 8.5020332 0.42797995 6 25
15.286016 8.7260618 0.30723214 1 23
11.839417 8.3889809 -0.92994273 6 9
18.208529 9.2457066 -1.189292 3 10
15.825418 10.089671 1.0930136 2 27
15.713015 8.9698153 0.73712754 1 26
14.733156 8.4104605 -0.88908333 4 11
13.166406 8.3943882 1.9172486 7 29
15.161486 8.654973 1.4251802 10 28
12.010403 8.5101357 -0.59969968 14 13
18.21401 9.2484903 -0.71334571 3 14
13.214001 8.4247322 4.1990805 1 31
14.958378 8.5390291 3.1403902 3 30
12.739049 8.1219215 -0.35155258 2 16
15.694948 8.8870134 -0.52490962 1 15
5.3384624 3.3774462 -1.7684145 0 1
8.0447721 4.5552235 -1.848994 0 2
12.622044 7.9854965 0 42 20
18.341806 9.232996 -0.2390613 2 18
9.2053709 5.823895 -1.6946913 1 3
11.315073 6.4069786 -1.6551239 4 4
15.718733 8.9004803 -0.10498642 1 19
11.934411 7.550457 -1.5212066 4 5
15.22208 7.6625714 -1.5908308 1 6
14.815229 9.3730431 0.40794244 1 24
18.338234 9.2311974 0.23901474 7 22
12.648623 8.0023117 -1.0466261 3 8
14.865497 8.4173498 -1.3945872 4 7
11.849037 8.3338261 -0.92840773 6 9
18.358393 9.2413454 -1.1969663 3 10
15.82342 10.010888 1.0904555 2 27
15.712925 8.897192 0.73566204 1 26
14.877129 8.4239359 -0.89599168 4 11
13.262728 8.3908339 1.9269981 7 29
15.2818 8.6530743 1.4336421 12 28
12.108685 8.5164461 -0.60311913 16 13
18.389008 9.2567558 -0.71892965 3 14
13.266182 8.3930187 4.2063274 1 31
15.101092 8.5507517 3.1640668 3 30
12.736907 8.0581665 -0.35071513 3 16
12.976227 9.0590744 -0.27623668 2 17
15.708447 8.8223801 -0.52432775 1 15
5.3534818 3.3608372 -1.7694926 0 1
8.0674658 4.5309534 -1.8505629 0 2
12.653231 7.943512 0 37 20
18.538557 9.2510624 -0.24120326 2 18
9.2457304 5.8043332 -1.6983808 1 3
11.354669 6.3771544 -1.6576493 4 4
13.358437 9.3259068 0.094687708 2 21
15.711347 8.824008 -0.10473069 1 19
11.970801 7.5150928 -1.5224917 4 5
15.287938 7.6289473 -1.5949204 1 6
14.858018 9.3276453 0.40822157 1 24
18.513506 9.2385607 0.24087732 8 22
12.727173 7.9899321 -1.0508115 1 8
14.995597 8.422019 -1.4040254 4 7
11.930427 8.3289719 -0.93250102 4 9
18.52632 9.2449551 -1.2058034 3 10
15.834596 9.9407263 1.0888276 2 27
15.729952 8.8344574 0.73501074 1 26
12.730895 7.9922686 -0.70020032 1 12
14.996999 8.4228067 -0.9014346 7 11
13.376001 8.3972569 1.9391851 7 29
15.416196 8.6582413 1.443406 12 28
12.200607 8.5175924 -0.60621291 15 13
18.57502 9.2692585 -0.72493237 3 14
15.237211 8.5577173 3.1863084 3 30
12.744637 8.0008965 -0.35015681 3 16
13.080087 9.0638409 -0.27777249 2 17
5.339025 3.3258379 -1.7608664 0 1
8.1346283 4.5313978 -1.86233 1 2
12.667299 7.8908386 0 45 20
18.692627 9.2465944 -0.24278644 2 18
9.262579 5.7699366 -1.6977659 2 3
11.387258 6.3432755 -1.6591645 4 4
13.256107 9.1858139 0.093734547 2 21
12.02734 7.4921889 -1.5263473 4 5
15.3466 7.5914311 -1.5982664 1 6
15.121295 9.4195061 0.41454917 1 24
18.685455 9.2430477 0.24269332 4 22
13.384943 8.3378801 -1.1027104 3 8
15.122419 8.4239492 -1.4131382 4 7
12.018484 8.3282032 -0.93710595 6 9
18.715961 9.2581377 -1.2160358 3 10
15.811578 9.8495026 1.0848743 2 27
13.437009 8.3703136 -0.73742527 1 12
15.117036 8.4209499 -0.90687758 7 11
13.479366 8.396699 1.9499096 5 29
15.55429 8.6645222 1.453495 12 28
12.299248 8.5227594 -0.60963231 17 13
18.739836 9.2699471 -0.73009747 3 14
15.328868 8.5389509 3.199223 3 30
12.721574 7.9246473 -0.34876099 1 16
13.406604 9.2244501 -0.28405538 2 17
5.356576 3.3121669 -1.7630229 0 1
8.1427441 4.5006042 -1.860761 0 2
12.7002 7.8529983 0 34 20
18.848869 9.2462139 -0.24441619 2 18
9.3085537 5.7558198 -1.7026852 1 3
11.436011 6.3208375 -1.6632051 4 4
13.431487 9.2415714 0.094757445 2 21
15.673018 8.6626883 -0.10407976 33 19
12.062264 7.45854 -1.5276325 4 5
15.421748 7.5650582 -1.6034712 1 6
15.193259 9.3945484 0.41566578 1 24
18.881189 9.2620687 0.24483529 4 22
12.737141 7.8758402 -1.0471842 1 8
15.261924 8.4354706 -1.4235529 4 7
15.663896 8.6576462 0.31239808 16 23
12.108518 8.3312979 -0.94196671 6 9
18.918646 9.2804432 -1.2271986 3 10
15.827168 9.7865181 1.0837115 2 27
15.670785 8.6614532 0.72947448 14 26
12.723826 7.8676076 -0.69685012 2 12
15.263741 8.4364758 -0.91399521 7 11
13.601686 8.4104204 1.9635592 5 29
15.666677 8.6591835 1.4613061 4 28
12.396585 8.5295048 -0.61305171 15 13
18.924801 9.2834616 -0.7361002 3 14
14.442926 8.9305897 4.5500388 2 31
15.42598 8.5261459 3.2135725 3 30
12.686559 7.844564 -0.34708607 3 16
12.576717 8.5889091 -0.26583505 1 17
15.675747 8.5928926 -0.52025509 9 15
5.3385563 3.2753181 -1.7533182 0 1
8.1343298 4.4589529 -1.8552697 0 2
9.3555422 5.7398248 -1.7076045 2 3
11.478885 6.2923207 -1.6662356 4 4
13.939322 9.5194616 0.09810511 2 21
12.115348 7.4330244 -1.5310595 4 5
15.48388 7.5285921 -1.6071891 3 6
15.202103 9.3268137 0.41501442 1 24
15.406647 8.4453812 -1.434293 4 7
15.708052 8.6106014 0.31267729 4 23
12.206753 8.3362522 -0.94733912 6 9
19.040705 9.2579966 -1.2330124 7 10
15.844218 9.7207651 1.0825486 2 27
15.728966 8.6220655 0.7307772 6 26
15.391177 8.436902 -0.91985685 4 11
13.698644 8.4044104 1.9733087 7 29
15.682827 8.5967741 1.4600042 4 28
12.485696 8.5267487 -0.61598265 15 13
19.03978 9.2575455 -0.73931098 7 14
14.437789 8.8578911 4.538651 2 31
15.717903 8.6160011 3.2681007 3 30
15.525915 9.5254803 -0.42385444 1 16
15.702136 8.5362082 -0.52013874 4 15
5.3466682 3.2546589 -1.7522399 0 1
8.1464005 4.4286566 -1.8544853 0 2
19.078709 9.1942625 -0.24655814 7 18
9.3788996 5.7091856 -1.7082194 2 3
11.525184 6.2654767 -1.6697711 4 4
13.985712 9.4797182 0.098198093 2 21
15.719061 8.5454092 -0.10398676 5 19
12.161605 7.4030924 -1.5336299 4 5
15.535184 7.4865952 -1.6097914 1 6
15.220907 9.2653713 0.41464224 1 24
19.078709 9.1942625 0.24655814 8 22
13.742768 8.3655882 -1.1250324 5 8
15.537611 8.4467669 -1.4437313 4 7
12.758762 8.6480742 0.44857606 1 25
15.713419 8.5423422 0.31218866 4 23
12.30517 8.3406219 -0.95271158 6 9
19.051327 9.1810675 -1.2316172 7 10
15.830303 9.6363268 1.0792929 2 27
15.727365 8.5499229 0.7293117 4 26
13.771643 8.3831654 -0.75101238 4 12
15.532839 8.4441729 -0.92655581 4 11
13.819465 8.4122753 1.9864705 5 29
15.698732 8.534358 1.4587024 6 28
12.601402 8.5414124 -0.62021619 15 13
14.346511 8.7331028 4.5003457 2 31
15.367787 9.3547812 -0.41864347 1 16
12.696104 8.5410805 -0.26709163 3 17
15.717756 8.4737587 -0.51967329 4 15
5.3612924 3.2379682 -1.7533182 0 1
8.1549044 4.3964729 -1.8529164 0 2
15.147715 9.1485071 0 2 20
19.085419 9.1155472 -0.2462322 5 18
9.4190683 5.688674 -1.7119089 1 3
11.571431 6.2383919 -1.6733066 4 4
14.088411 9.4777308 0.098686308 2 21
15.741751 8.4866943 -0.10394027 3 19
12.200987 7.3688221 -1.5353434 2 5
15.618721 7.4597883 -1.6157398 1 6
15.215499 9.1894455 0.41361862 1 24
19.081812 9.1138239 0.24618563 8 22
13.86069 8.3712044 -1.132287 5 8
15.675785 8.4511309 -1.4538205 4 7
15.75722 8.4950342 0.3124679 4 23
12.403761 8.3444118 -0.95808399 6 9
19.065239 9.1059084 -1.2304543 7 10
15.833077 9.5624342 1.0771999 2 27
15.750076 8.4911833 0.72898608 4 26
13.889747 8.3887539 -0.75585163 4 12
15.667701 8.4467735 -0.93283617 4 11
13.926907 8.4111967 1.9976823 5 29
15.795099 8.5154562 1.4648862 6 28
12.684196 8.5330696 -0.62282145 15 13
19.049837 9.0985527 -0.73721695 7 14
16.082485 8.670392 3.3312385 8 30
15.016961 9.0695381 -0.40822157 1 16
15.796602 8.4452362 -0.52130234 3 15
5.3890829 3.2291346 -1.7587097 1 1
8.1632814 4.3642826 -1.8513473 0 2
15.210436 9.1140823 0 2 20
19.077354 9.0300531 -0.24572 7 18
9.4490395 5.6618576 -1.7137536 1 3
11.596636 6.1998348 -1.6738117 4 4
15.119385 10.094823 0.10566059 2 21
15.870046 8.4845009 -0.10459121 3 19
12.253926 7.3425436 -1.5387706 2 5
15.702258 7.4324889 -1.6216881 3 6
15.223471 9.1218929 0.41296726 1 24
19.080971 9.031765 0.24576657 8 22
13.975396 8.3740473 -1.1392627 5 8
15.817694 8.4565125 -1.4642351 4 7
12.822148 8.561017 0.44869241 1 25
15.885532 8.4927807 0.31442255 3 23
12.46933 8.325449 -0.96089816 6 9
19.064421 9.0239315 -1.2283612 10 10
15.845807 9.4947958 1.0758046 2 27
15.885358 8.4926872 0.73387098 3 26
14.008058 8.3936176 -0.76069087 4 12
15.799247 8.4466496 -0.93890715 4 11
14.061755 8.4257936 2.0127943 5 29
15.930202 8.5166616 1.4746498 6 28
12.750466 8.5131569 -0.62461257 7 13
19.04896 9.016613 -0.7359606 7 14
16.202881 8.6624422 3.3498929 12 30
15.412135 9.2349396 -0.41808516 1 16
12.445826 8.2533388 -0.26066914 3 17
15.943147 8.4592819 -0.52525872 3 15
5.3727188 3.1964312 -1.7500832 1 1
8.1561642 4.3275828 -1.8466406 0 2
15.201183 9.0437527 0 2 20
19.076666 8.9564705 -0.24534747 7 18
9.4837646 5.6422467 -1.7168281 1 3
11.602037 6.1559305 -1.6717913 4 4
16.01676 8.4983406 -0.10538162 3 19
12.290606 7.3121414 -1.5404841 4 5
15.765189 7.4017367 -1.6257777 1 6
15.210814 9.0494823 0.41185063 1 24
19.076666 8.9564705 0.24534747 8 22
14.090797 8.3831425 -1.1465174 5 8
15.956882 8.4665689 -1.4746498 2 7
14.348474 9.5150633 0.50105536 1 25
16.035788 8.5084362 0.31686589 3 23
12.585249 8.3457956 -0.96780556 4 9
19.052919 8.945322 -1.2258033 7 10
15.813787 9.4082136 1.0716186 2 27
16.032 8.5064268 0.73940712 3 26
14.113339 8.396553 -0.76497167 4 12
15.952737 8.4643698 -0.94644356 5 11
14.170047 8.4302912 2.0244937 5 29
16.073097 8.5282326 1.4853899 6 28
19.055483 8.9465256 -0.73512304 7 14
14.347845 8.5360699 4.4734282 8 31
16.36211 8.6815796 3.377157 25 30
15.557922 9.25599 -0.42124897 1 16
12.486013 8.2142639 -0.26087856 5 17
16.076666 8.4547634 -0.52863318 3 15
5.384397 3.176719 -1.7500832 1 1
8.1441984 4.2830567 -1.8403648 0 2
14.69679 8.6709003 0 1 20
19.069471 8.8679438 -0.24483529 7 18
9.5077839 5.6094594 -1.7174431 2 3
11.203087 5.8917346 -1.6111826 6 4
16.157545 8.4972982 -0.1061023 3 19
12.334448 7.2771511 -1.542626 4 5
15.821101 7.3573432 -1.6287519 1 6
15.192217 8.9631948 0.41045487 1 24
19.076723 8.871316 0.2449284 8 22
14.214217 8.3861885 -1.1540511 5 8
16.111301 8.4729786 -1.4860407 4 7
14.403292 9.4755974 0.50175357 1 25
16.180134 8.5091782 0.31909978 3 23
12.625756 8.3061972 -0.96857309 4 9
19.056608 8.8619623 -1.2239428 7 10
15.837841 9.3441048 1.0709208 2 27
16.172724 8.5052805 0.7444548 3 26
14.236935 8.3995914 -0.769997 4 12
16.093248 8.4634838 -0.95293313 5 11
14.293173 8.4327717 2.0376556 5 29
16.224215 8.5323601 1.4964554 4 28
12.941675 8.5140333 -0.63112575 5 13
19.066395 8.8665133 -0.73428541 7 14
14.385689 8.4873552 4.4754992 4 31
16.439095 8.6453657 3.3864841 12 30
15.512524 9.1521721 -0.41910875 1 16
12.556228 8.1946726 -0.26171628 1 17
16.199732 8.4438286 -0.53165859 3 15
5.3893557 3.1530712 -1.7479267 1 1
8.1528854 4.2495499 -1.8387959 0 2
14.683591 8.5907125 0 1 20
19.083681 8.7896194 -0.24460246 7 18
9.5453386 5.5845509 -1.7205176 2 3
12.521083 8.1717358 0.086899742 58 21
16.287899 8.4897842 -0.10675324 3 19
12.398799 7.253983 -1.5473382 4 5
15.887754 7.3176303 -1.6328415 1 6
15.22842 8.9094677 0.41054791 1 24
19.083681 8.7896194 0.24460246 8 22
14.320632 8.3783607 -1.1601896 6 8
16.244776 8.4673071 -1.4954791 4 7
14.431231 9.4183712 0.50152081 1 25
16.285692 8.4886332 0.32056579 1 23
19.063572 8.7803583 -1.2223148 7 10
15.840966 9.2678413 1.0688279 2 27
16.285307 8.4884329 0.74819988 1 26
14.364193 8.4038467 -0.77520847 4 12
16.226887 8.457983 -0.95900416 5 11
14.402802 8.4264345 2.0488675 5 29
16.361441 8.5281162 1.5062193 4 28
12.564466 8.2000494 -0.61126059 3 13
19.066088 8.781517 -0.73302907 10 14
14.45005 8.4540777 4.4858518 2 31
16.467184 8.5832329 3.3857667 4 30
15.269839 8.9337006 -0.41166455 1 16
12.588113 8.1529703 -0.2617861 1 17
17.80975 9.2041111 -0.58343977 2 15
5.3936658 3.1303735 -1.7457701 1 1
8.1397934 4.2066603 -1.8325201 0 2
15.280854 8.8686962 0 2 20
19.088774 8.7113314 -0.24427651 7 18
9.5750284 5.5571508 -1.7223623 1 3
11.262586 5.8205252 -1.613708 6 4
12.54953 8.1279812 0.086899742 73 21
17.905825 9.2537632 -0.11714493 2 19
12.437801 7.218646 -1.5490519 4 5
15.953056 7.2803183 -1.6369311 1 6
15.332056 8.8984127 0.41250199 1 24
19.088774 8.7113314 0.24427651 8 22
14.446421 8.384408 -1.1680025 6 8
16.96841 8.7693062 -1.559269 2 7
14.450593 9.3592463 0.50105536 1 25
17.910505 9.2561827 0.35191032 3 23
12.698272 8.2243176 -0.96959639 4 9
19.065042 8.7005005 -1.2204543 7 10
15.769608 9.1523581 1.0618511 2 27
17.916138 9.2590933 0.82163578 2 26
14.483289 8.4058056 -0.78004771 5 12
17.839005 9.2192307 -1.0523715 2 11
14.538573 8.437891 2.0639794 5 29
16.522152 8.5386791 1.5182612 4 28
12.542693 8.1235533 -0.60881811 5 13
19.071167 8.7032957 -0.73205191 10 14
14.606455 8.4772882 4.5251923 2 31
15.332056 8.8984127 -0.41250199 1 16
17.971819 9.2124891 -0.58774513 2 15
5.4073544 3.1143942 -1.7468485 0 1
8.1571884 4.1814356 -1.8333046 0 2
15.441895 8.8938398 0 2 20
19.084759 8.6331511 -0.24385743 5 18
9.6105289 5.5352345 -1.7254369 1 3
11.29948 5.7921982 -1.6162332 4 4
12.576413 8.0863237 0.086899742 76 21
18.068113 9.2618494 -0.1180051 2 19
12.485793 7.1912584 -1.5520506 4 5
16.020655 7.247077 -1.6413925 1 6
15.292174 8.8076086 0.41064095 1 24
19.092047 8.636447 0.24395056 8 22
14.570961 8.3922215 -1.1758151 6 8
17.032871 8.7311773 -1.5625234 2 7
14.468096 9.3026285 0.50058991 1 25
18.079905 9.2678938 0.35463291 3 23
19.079237 8.6306524 -1.2195243 7 10
15.737585 9.0641451 1.0576652 2 27
18.060555 9.2579756 0.82684636 2 26
14.621881 8.4215488 -0.78600371 5 12
17.972561 9.2128696 -1.0584425 2 11
14.655922 8.4411554 2.0766537 5 29
16.678095 8.5493164 1.5299777 4 28
19.067139 8.6251802 -0.73079544 7 14
14.731578 8.4847298 4.5552154 2 31
15.472367 8.9113913 -0.41547969 1 16
18.134146 9.2198839 -0.59205055 2 15
5.4109645 3.0926211 -1.7446917 0 1
8.150033 4.1436944 -1.8285978 0 2
15.578959 8.90411 0 2 20
19.178978 8.5992651 -0.24469557 5 18
9.6254005 5.50137 -1.7248219 2 3
11.827965 6.0136533 -1.6889638 4 4
18.234221 9.2707653 -0.11888852 2 19
12.540648 7.167572 -1.5559061 4 5
16.084574 7.2118292 -1.6454818 1 6
19.16803 8.5943565 0.24455589 8 22
14.688785 8.3953323 -1.1830698 6 8
17.075951 8.6818695 -1.5638254 2 7
14.724677 9.3987284 0.50838619 1 25
18.256706 9.282197 0.3574951 3 23
12.691973 8.1012583 -0.96499139 4 9
19.158766 8.5902023 -1.22278 3 10
15.719021 8.9841614 1.0544094 2 27
18.244352 9.2759161 0.833848 2 26
14.732987 8.4205961 -0.79047072 5 12
18.184614 9.2455435 -1.0691191 2 11
14.787243 8.4516058 2.0912783 6 29
16.830738 8.5571966 1.5413686 4 28
12.576083 8.0272856 -0.60784119 7 13
19.201424 8.6093292 -0.73484385 3 14
14.873687 8.5010128 4.5904145 2 31
15.661541 8.9513083 -0.41976011 1 16
12.738978 8.0657053 -0.26318228 3 17
18.292788 9.2163258 -0.59612322 2 15
5.4189115 3.0708702 -1.7436135 0 1
8.1616611 4.1120319 -1.8278134 0 2
15.75069 8.9258385 0 2 20
19.35659 8.5938377 -0.24655814 5 18
9.6661301 5.4777484 -1.7285115 2 3
11.885362 5.9881177 -1.6940145 4 4
12.629181 7.9961863 0.086876497 100 21
18.393101 9.2668657 -0.11970218 2 19
12.591054 7.1352882 -1.5589048 4 5
16.150938 7.170609 -1.6495714 1 6
19.367558 8.5987072 0.24669786 8 22
14.827075 8.4024305 -1.1917197 6 8
17.114775 8.6228161 -1.5644761 2 7
14.877256 9.4195595 0.51245886 1 25
18.422756 9.2818069 0.36007807 4 23
12.751932 8.0739069 -0.96729392 2 9
19.376253 8.6025677 -1.2346402 3 10
15.727524 8.9127102 1.0527815 2 27
18.403151 9.2719297 0.83954704 2 26
14.864561 8.4236736 -0.79586834 3 12
18.328962 9.2345514 -1.0756086 2 11
14.921741 8.4560766 2.1059024 6 29
16.993721 8.5618267 1.5534106 4 28
12.622302 7.9918313 -0.60865533 5 13
19.400915 8.6135168 -0.74126536 7 14
15.01231 8.5074024 4.6235433 2 31
15.725554 8.9115934 -0.42059755 1 16
12.704701 7.9851108 -0.26192573 3 17
18.462738 9.225318 -0.60066134 2 15
5.4290638 3.0528846 -1.7436135 0 1
8.1541996 4.0744267 -1.8231065 0 2
15.710469 8.8343496 0 2 20
19.68152 8.6600876 -0.25032988 7 18
9.6842403 5.4456658 -1.7285115 2 3
11.940648 5.9664102 -1.6990652 4 4
12.652238 7.952136 0.086853243 50 21
18.577587 9.2827044 -0.12070183 2 19
12.642377 7.1090927 -1.5623318 4 5
16.200144 7.128243 -1.6521739 1 6
15.71319 8.8358803 0.41948098 1 24
19.696163 8.6665297 0.25051612 8 22
14.945284 8.4040689 -1.1989744 6 8
17.143274 8.5660172 -1.5644761 2 7
15.175839 9.5382605 0.52165145 1 25
18.610847 9.2993231 0.36314967 2 23
12.765115 8.0230818 -0.96627057 2 9
15.715222 8.8370228 1.0499908 2 27
18.576803 9.2823114 0.84606016 2 26
14.989929 8.4291744 -0.80107987 5 12
18.495268 9.2415714 -1.0835637 2 11
15.043134 8.4590921 2.1190643 6 29
17.164671 8.5767088 1.5664289 4 28
19.711113 8.6731081 -0.75201434 10 14
15.134735 8.510602 4.6525316 2 31
17.389524 8.6890621 3.5443287 4 30
15.709704 8.8339195 -0.41938794 1 16
12.710129 7.9236784 -0.26143706 1 17
18.643339 9.2303162 -0.60543215 2 15
5.4200315 3.0217102 -1.7371436 0 1
8.1585331 4.0392895 -1.8207531 0 2
15.67986 8.7416449 0 4 20
19.815804 8.6326151 -0.25163367 2 18
9.7213974 5.4197555 -1.7315861 1 3
11.980217 5.9314055 -1.7015907 4 4
12.681301 7.9057069 0.086853243 58 21
18.758457 9.2873125 -0.12165499 2 19
12.685719 7.0723877 -1.5644739 2 5
16.255371 7.0815382 -1.655148 1 6
15.693079 8.7490149 0.41808516 1 24
19.837805 8.6421995 0.25191307 8 22
15.084028 8.4094639 -1.2076241 6 8
17.210285 8.5208111 -1.5677308 2 7
15.207307 9.4804554 0.5215351 1 25
18.773838 9.2949266 0.36566284 2 23
13.387242 8.3458014 -1.0110408 2 9
19.867825 8.6552782 -1.2620819 3 10
18.764715 9.29041 0.85306185 2 26
15.125423 8.4325418 -0.80666357 3 12
18.686527 9.2516994 -1.0927749 3 11
15.174603 8.4599609 2.1332014 6 29
17.324615 8.5774164 1.5781455 4 28
19.878372 8.659873 -0.7571795 7 14
15.260321 8.5077486 4.681519 2 31
17.438889 8.6339931 3.5479159 4 30
12.700955 7.8626542 -0.26073894 1 17
18.794266 9.2316313 -0.60938853 2 15
5.4463496 3.0139918 -1.7425351 1 1
8.1571016 4.0067196 -1.8176153 0 2
20.055799 8.6622982 -0.25433439 2 18
9.7556686 5.3987546 -1.7346605 1 3
12.016601 5.9024825 -1.704116 4 4
18.945513 9.3059225 -0.12267788 4 19
12.732233 7.0459757 -1.5674726 4 5
16.325073 7.0509605 -1.6599811 1 6
20.048454 8.6591253 0.25424126 8 22
15.215115 8.4199944 -1.2159948 6 8
17.269175 8.4825163 -1.5706599 2 7
15.192823 9.4052706 0.52002239 1 25
18.964487 9.3152428 0.36880428 6 23
20.070887 8.6688147 -1.2732447 7 10
15.652725 8.6621666 1.0418513 16 27
18.944477 9.3054142 0.85990065 4 26
15.253228 8.4410858 -0.81206119 3 12
18.855331 9.2616262 -1.1009393 3 11
15.308792 8.4718351 2.1483128 9 29
17.487453 8.5897331 1.5905128 4 28
13.796785 8.5410385 -0.66108632 2 13
20.092649 8.6782141 -0.76429904 7 14
15.388391 8.5158844 4.7125773 2 31
18.582054 9.1273937 3.7746382 5 30
15.654011 8.6628771 -0.41631714 22 16
14.694654 9.0260782 -0.3010191 2 17
5.4467063 2.9894032 -1.7393003 1 1
8.1534042 3.9696383 -1.8136928 0 2
15.677878 8.6047421 0 18 20
20.233006 8.6551657 -0.25619698 5 18
9.788312 5.3722763 -1.7371202 1 3
12.058537 5.8709254 -1.7071464 4 4
12.781154 7.0148859 -1.5704712 5 5
16.38254 7.0080338 -1.6633271 1 6
15.705187 8.61973 0.41687545 15 24
20.236683 8.6567383 0.25624353 4 22
15.352852 8.4263525 -1.2246447 4 8
17.352444 8.4483643 -1.5755417 2 7
15.198305 9.3354425 0.51909155 1 25
13.663392 8.3926334 -1.0276698 5 9
20.258894 8.6662397 -1.2832445 3 10
15.696869 8.6151648 1.0427816 7 27
15.38768 8.4454679 -0.81764489 3 12
15.442683 8.4756556 2.1629374 6 29
17.653542 8.5949593 1.6028802 4 28
13.894624 8.5346661 -0.66434294 2 13
20.284531 8.677207 -0.77044129 3 14
15.529796 8.5234671 4.7467413 2 31
15.698176 8.6158819 -0.41668937 9 16
14.753113 8.9841528 -0.30150777 2 17
19.030701 9.1752348 -0.61485755 6 15
5.4446092 2.9611073 -1.7349871 0 1
8.1579857 3.9331939 -1.8113394 0 2
15.721343 8.5502157 0 6 20
26.664162 11.285337 -0.33707923 4 18
9.8227568 5.3422084 -1.7395799 2 3
12.116731 5.8418159 -1.7121972 4 4
14.99767 9.1330805 0.10205722 2 21
19.070864 9.1945992 -0.12304985 7 19
12.821969 6.9733615 -1.5721848 5 5
16.46801 6.9699192 -1.6692756 1 6
15.713577 8.5459929 0.41622409 5 24
26.796766 11.34146 0.33875555 7 22
15.497262 8.4283476 -1.2335734 4 8
17.449394 8.4128428 -1.5814 2 7
15.251109 9.2874165 0.51967329 1 25
19.071882 9.1950903 0.36957216 6 23
13.780749 8.3920155 -1.0340656 5 9
20.615631 8.725358 -1.3037095 3 10
15.71229 8.5452929 1.0416187 5 27
19.062578 9.1906042 0.86218023 6 26
15.535829 8.4493217 -0.82378703 3 12
19.048645 9.1838875 -1.1082664 9 11
15.593697 8.480794 2.1795115 6 29
17.837238 8.5998335 1.6165494 4 28
13.961426 8.5020418 -0.66597116 2 13
20.663754 8.7457247 -0.78356355 4 14
15.6846 8.5302324 4.7840114 2 31
18.439322 8.8901148 3.7323072 44 30
15.706552 8.5421715 -0.41603801 6 16
14.901045 9.0101919 -0.30395111 2 17
19.026966 9.0998793 -0.61381024 6 15
5.4335461 2.9330108 -1.7285173 0 1
8.1490717 3.8973932 -1.8066328 0 2
15.716446 8.4836874 0 6 20
26.758495 11.226275 -0.33782426 4 18
9.8464451 5.3150797 -1.7408096 1 3
12.163661 5.8174195 -1.7162378 4 4
15.231658 9.210103 0.10345207 2 21
19.070787 9.1208372 -0.12286387 7 19
12.86131 6.9424939 -1.5743268 5 5
16.504517 6.924315 -1.6707628 1 6
15.729788 8.4908886 0.41594496 5 24
26.795378 11.24175 0.33828989 7 22
15.629004 8.4364853 -1.2419443 4 8
17.497316 8.3683062 -1.5833528 2 7
15.328111 9.268425 0.52130234 1 25
19.060989 9.1161518 0.36880428 6 23
13.899273 8.4044514 -1.0409731 7 9
20.88229 8.7609692 -1.3188257 4 10
15.728516 8.490202 1.0409211 5 27
19.062511 9.1168795 0.86087763 6 26
15.671294 8.4593143 -0.82955688 5 12
19.044971 9.1084909 -1.1063823 6 11
15.718082 8.4845705 2.1931608 6 29
18.008032 8.6125612 1.6295679 5 28
13.991486 8.4602098 -0.666134 2 13
20.85701 8.7503633 -0.78984547 4 14
15.823518 8.5414839 4.8181758 2 31
18.513309 8.8542166 3.7416344 22 30
15.72275 8.4870901 -0.41575888 4 16
15.076449 9.0445318 -0.30688313 2 17
19.03694 9.0231285 -0.61311209 6 15
5.4539394 2.9194784 -1.7317522 0 1
8.1626263 3.8689218 -1.8066328 0 2
15.784758 8.4495363 0 4 20
21.556215 8.9553423 -0.27174947 3 18
9.885848 5.2918663 -1.7444991 1 3
12.212579 5.788518 -1.7202784 4 4
15.243134 9.1445274 0.10331259 2 21
19.066362 9.037075 -0.12263139 7 19
12.902997 6.9069376 -1.5764686 5 5
16.580078 6.8880491 -1.6759676 1 6
15.80869 8.462347 0.41724768 5 24
26.786438 11.128193 0.33768457 7 22
15.760379 8.4364862 -1.250036 4 8
17.551641 8.3191261 -1.585631 2 7
15.315799 9.1881199 0.51978964 1 25
19.056555 9.0324259 0.36810616 6 23
14.014103 8.407218 -1.0473688 7 9
21.093441 8.7630863 -1.3302209 4 10
15.863675 8.4917803 1.0478977 6 27
19.068939 9.0382957 0.85973787 6 26
15.799364 8.4573545 -0.83476835 5 12
19.054993 9.0316858 -1.1051261 6 11
15.866614 8.4933538 2.2097349 6 29
18.178484 8.6162376 1.6422606 5 28
14.055204 8.4318752 -0.66776234 2 13
21.142151 8.7833233 -0.7994777 4 14
15.969054 8.5481892 4.853375 2 31
18.522768 8.7794218 3.7373295 16 30
15.836895 8.4774446 -0.41799212 3 16
15.174802 9.0280685 -0.30820951 2 17
19.051785 8.9448013 -0.61253029 6 15
5.4509931 2.8922489 -1.727439 0 1
8.1696501 3.8356459 -1.8050637 0 2
15.921622 8.4478722 0 4 20
9.9156513 5.261157 -1.7463439 1 3
12.244487 5.7487793 -1.7217935 4 4
15.242169 9.0681477 0.1030801 2 21
19.074013 8.9552374 -0.12246865 9 19
12.95633 6.8745146 -1.5798959 5 5
16.65678 6.8484397 -1.6811725 1 6
15.952639 8.4643297 0.42022538 3 24
15.903987 8.4385147 -1.2589648 6 8
17.646971 8.2852421 -1.5914892 2 7
15.339062 9.1257925 0.51944059 1 25
19.05695 8.9472265 0.36747789 6 23
14.137447 8.4109068 -1.0542762 7 9
21.321157 8.7662001 -1.3425463 4 10
15.99346 8.4859886 1.0544094 6 27
19.076612 8.9564581 0.85859805 6 26
15.960851 8.4686871 -0.84165502 6 12
19.055424 8.9465103 -1.1032422 6 11
16.023891 8.5021362 2.2272844 10 29
18.372335 8.6258011 1.6569062 5 28
14.147839 8.4170885 -0.67069316 4 13
21.351667 8.7787437 -0.80617833 4 14
16.106081 8.5457449 4.8854685 2 31
18.554821 8.7114773 3.7373295 11 30
15.98443 8.4811983 -0.42106283 3 16
15.166462 8.9479914 -0.3073718 2 17
19.062696 8.8647852 -0.61183214 6 15
5.4649677 2.8740394 -1.7285173 0 1
8.1694307 3.7990556 -1.8019259 0 2
16.072855 8.4527521 0 4 20
21.606466 8.7910471 -0.2715632 56 18
9.9453659 5.2302909 -1.7481886 1 3
12.305057 5.7222586 -1.7273493 4 4
15.220191 8.9796915 0.10270815 2 21
19.074072 8.8700743 -0.12225943 6 19
12.988484 6.8306742 -1.5807525 2 5
16.714973 6.8008399 -1.6845183 1 6
16.107437 8.4709387 0.42348221 3 24
21.60276 8.7895393 0.27151665 9 22
16.051359 8.4414473 -1.2681726 4 8
17.698915 8.2305813 -1.593442 2 7
15.461948 9.1223249 0.522466 1 25
19.053356 8.8604412 0.36677977 6 23
14.254139 8.4097347 -1.0606719 7 9
21.538092 8.7632275 -1.3541743 4 10
16.141092 8.4886379 1.0620837 4 27
19.080328 8.8729839 0.85729545 6 26
16.094345 8.4640532 -0.84705257 6 12
19.06274 8.8648052 -1.1017767 9 11
16.167397 8.5024719 2.2428837 10 29
18.555664 8.6289978 1.6705755 5 28
21.587362 8.7832737 -0.8138563 4 14
16.270668 8.5567818 4.9258442 2 31
18.67227 8.6832237 3.754549 5 30
16.128674 8.4821062 -0.42404053 3 16
15.184142 8.8942385 -0.30716234 2 17
19.043249 8.7830877 -0.61031944 6 15
5.4671397 2.8532929 -1.7263607 1 1
8.177762 3.7717302 -1.8011413 0 2
16.216351 8.4632921 0 4 20
9.9792662 5.2081661 -1.751263 1 3
12.344591 5.6935463 -1.7303798 4 4
15.231067 8.9217253 0.10259191 2 21
19.065517 8.7933578 -0.12202694 6 19
11.278753 5.8863668 -1.3704139 3 5
16.758419 6.7572336 -1.6867491 1 6
16.226143 8.4684019 0.42590156 4 24
21.645103 8.7276154 0.27170292 4 22
16.198071 8.4537525 -1.2776595 4 8
17.757263 8.1899681 -1.5963711 2 7
15.197279 8.9019337 0.51257521 1 25
19.055674 8.7888174 0.36629111 6 23
14.380372 8.4234238 -1.068091 8 9
21.66921 8.7373352 -1.3606857 4 10
16.280964 8.4970131 1.0695256 4 27
19.071812 8.7962608 0.85566711 6 26
16.212954 8.4615192 -0.85189182 4 12
19.061474 8.7914925 -1.1001018 9 11
16.239782 8.4755211 2.2492208 10 29
18.734728 8.6407919 1.6842448 5 28
14.370342 8.4175491 -0.67850906 4 13
21.755733 8.7722225 -0.81916106 4 14
16.410501 8.5646191 4.9600086 2 31
18.895988 8.715168 3.7940102 5 30
16.243868 8.4776535 -0.42636684 3 16
15.298087 8.88941 -0.3088378 2 17
19.048334 8.7049313 -0.60950488 6 15
5.4702239 2.8306525 -1.7242041 1 1
8.1766081 3.7366424 -1.7980034 0 2
17.819569 9.221014 0 7 20
10.011426 5.1805682 -1.7537228 2 3
12.382435 5.6586704 -1.7329051 4 4
15.369328 8.9308071 0.10331259 2 21
19.081545 8.720108 -0.12193396 6 19
16.841085 6.722322 -1.6926975 1 6
17.910641 9.2681398 0.46926406 2 24
22.22893 8.8729458 0.27864099 5 22
17.786793 9.2040529 -1.4004309 2 8
17.796623 8.1329088 -1.5973475 2 7
19.071686 8.7156029 0.36601186 6 23
14.502875 8.4273281 -1.0749984 8 9
22.003689 8.7830372 -1.3797553 4 10
17.906462 9.2659779 1.1741757 4 27
19.073318 8.7163496 0.85436451 6 26
17.828657 9.2257166 -0.93508947 2 12
19.052082 8.7066441 -1.0977992 6 11
16.297474 8.433382 2.2531207 7 29
18.924322 8.6482592 1.6985649 5 28
14.499849 8.4255695 -0.68323106 6 13
22.046108 8.7999697 -0.82893282 4 14
16.577557 8.5783148 5.0014195 2 31
19.087355 8.722764 3.8262966 5 30
17.878675 9.2515993 -0.46842661 2 16
15.401785 8.877902 -0.31030378 2 17
19.049463 8.6251974 -0.60857397 6 15
5.4697895 2.8062668 -1.7209692 1 1
8.1860285 3.7064621 -1.797219 0 2
17.97621 9.2226658 0 7 20
22.527597 8.9011278 -0.2819936 3 18
10.050548 5.1564174 -1.7574122 2 3
12.431027 5.628509 -1.7369457 4 4
15.476645 8.9210529 0.10382403 2 21
19.104578 8.6501522 -0.12188746 4 19
11.29834 5.7965956 -1.3678436 3 5
16.890375 6.6737432 -1.6953 1 6
18.021158 9.2457266 0.47131121 2 24
22.49412 8.8879004 0.28157455 5 22
17.943073 9.2056656 -1.4101969 2 8
17.814005 8.0658083 -1.5963711 2 7
19.091059 8.6440315 0.36580244 6 23
14.615204 8.4245005 -1.0811384 5 9
22.249617 8.7912922 -1.3932436 4 10
18.070156 9.2708654 1.1827804 4 27
19.099987 8.6480742 0.85420167 4 26
18.056282 9.2637472 -0.94532639 2 12
19.056883 8.6285582 -1.0963337 9 11
16.344475 8.3855066 2.255558 7 29
19.121456 8.657795 1.7135359 5 28
14.615736 8.4248075 -0.68730181 6 13
22.266304 8.7978859 -0.83605236 4 14
16.700214 8.5680189 5.0293717 2 31
19.293341 8.7356205 3.8614531 5 30
18.056738 9.2639809 -0.47224176 2 16
15.232832 8.7062826 -0.30625483 2 17
19.13203 8.5782175 -0.61020309 4 15
5.4869061 2.7896903 -1.7231257 1 1
8.1959801 3.6748271 -1.7964346 0 2
18.120428 9.2129116 0 5 20
10.086997 5.1285 -1.7604867 1 3
12.469679 5.591023 -1.7394712 4 4
15.655098 8.947628 0.10480044 2 21
19.238354 8.6258898 -0.1225384 4 19
13.184236 6.7032189 -1.5931758 2 5
16.977783 6.6364374 -1.7016201 1 6
18.16543 9.2357922 0.47419587 4 24
18.115414 9.2103624 -1.4210789 2 8
17.843451 8.0004578 -1.5963711 2 7
15.704276 8.9757357 0.52642232 1 25
19.257645 8.6345387 0.3683854 4 23
14.749955 8.4302959 -1.0888132 5 9
22.512281 8.7998152 -1.4076622 4 10
18.228601 9.26791 1.1909198 5 27
19.262846 8.6368713 0.86006349 4 26
18.200531 9.2536383 -0.95109618 2 12
19.139412 8.5815277 -1.0992646 6 11
16.399876 8.3381367 2.2589705 7 29
19.324039 8.6643085 1.7288325 5 28
14.771434 8.4425726 -0.69316363 6 13
22.547855 8.8137207 -0.8454054 4 14
16.886494 8.5855465 5.0759597 2 31
18.204641 9.2557287 -0.47521946 2 16
19.328442 8.5894203 -0.6155557 4 15
5.4823685 2.7645435 -1.7188126 1 1
8.2117052 3.6492224 -1.797219 0 2
18.290169 9.2230158 0 7 20
22.876402 8.8548117 -0.28557909 38 18
10.103947 5.0950241 -1.7604867 1 3
12.517159 5.5625348 -1.7435117 4 4
15.715993 8.9134264 0.10500967 2 21
19.467888 8.6513891 -0.12381702 4 19
13.224145 6.6684179 -1.5953177 5 5
17.04055 6.5959177 -1.7057097 1 6
18.338778 9.2475271 0.47791797 5 24
22.887592 8.8591433 0.28571877 16 22
18.284807 9.2203121 -1.4319609 2 8
17.917244 7.9622936 -1.600602 2 7
15.72352 8.917696 0.52607322 1 25
19.501801 8.6664591 0.37250417 4 23
14.875051 8.4364815 -1.0959766 5 9
22.74243 8.8029547 -1.4202201 4 10
18.380459 9.2685452 1.1988267 5 27
19.477646 8.6557245 0.86836779 4 26
18.380959 9.2687969 -0.95891345 5 12
19.321074 8.5861464 -1.108057 3 11
16.448702 8.2944355 2.2618952 7 29
14.907119 8.454668 -0.69821131 6 13
22.793182 8.8226004 -0.85350209 4 14
17.011465 8.5782156 5.1049471 2 31
19.785381 8.7924805 3.9475501 12 30
18.363773 9.2601309 -0.47856933 4 16
15.691055 8.8306341 -0.31428295 2 17
19.609301 8.6364708 -0.62358469 4 15
5.4949522 2.7480693 -1.7198908 1 1
8.2058134 3.614064 -1.7932966 0 2
18.460182 9.2320843 0 7 20
10.149069 5.0756302 -1.765406 2 3
12.557325 5.5305882 -1.7465421 4 4
15.696667 8.8337927 0.1046842 2 21
19.738071 8.6931849 -0.12535137 7 19
13.295985 6.6494284 -1.6013151 2 5
17.077206 6.5450683 -1.7071967 1 6
18.512411 9.2582045 0.48164004 2 24
22.920582 8.7846212 0.28576532 5 22
18.465179 9.2345829 -1.44368 2 8
17.990982 7.9237194 -1.604833 2 7
15.711194 8.8419685 0.52467686 1 25
19.761021 8.7032919 0.37690216 6 23
15.003833 8.4438782 -1.1033956 5 9
22.935566 8.7903643 -1.4304526 4 10
18.564674 9.2843418 1.2088267 2 27
19.736675 8.6925697 0.87862605 7 26
18.508087 9.2560415 -0.96393877 2 12
19.678455 8.6669283 -1.1268979 9 11
16.490324 8.2469425 2.263845 7 29
19.80431 8.7223577 1.7665856 5 28
15.029117 8.4581079 -0.70260769 4 13
22.949234 8.7956018 -0.85824841 4 14
17.191872 8.5977917 5.1504993 2 31
19.994495 8.8061209 3.9834235 12 30
18.548178 9.2760916 -0.48257059 2 16
19.796911 8.6367216 -0.62858826 4 15
5.490706 2.7220294 -1.7155776 1 1
8.2004023 3.577558 -1.7893744 0 2
18.610558 9.2262239 0 5 20
10.177345 5.0454412 -1.7672508 2 3
12.598374 5.4962444 -1.7495726 4 4
19.940607 8.6994123 -0.126444 2 19
13.329803 6.6082788 -1.6026003 2 5
17.133463 6.4981337 -1.7105428 1 6
18.684341 9.2628031 0.4852691 2 24
18.643873 9.2427406 -1.45512 3 8
18.055071 7.8768163 -1.6080877 2 7
19.937906 8.6982336 0.37969455 4 23
15.134294 8.4478798 -1.1108146 6 9
23.186398 8.7938032 -1.4441735 4 10
18.736496 9.2886591 1.2178963 2 27
19.913425 8.6875534 0.88513923 7 26
18.679897 9.2605991 -0.97119766 2 12
19.822081 8.6477032 -1.1333876 6 11
16.533236 8.1963882 2.265795 7 29
20.017338 8.7328873 1.7828585 5 28
15.1772 8.4718294 -0.70814389 7 13
23.271338 8.8260183 -0.86913711 4 14
17.356781 8.6046619 5.1908751 2 31
20.219879 8.821249 4.0221677 13 30
18.691509 9.2663565 -0.48545524 2 16
20.026646 8.6497097 -0.63487184 4 15
5.5041037 2.7035835 -1.716656 1 1
8.2098608 3.5459211 -1.78859 0 2
18.812992 9.2408314 0 2 20
24.11009 9.0431824 -0.29978117 3 18
10.195771 5.0081029 -1.7672508 2 3
12.640292 5.4594688 -1.7526031 4 4
15.650984 8.6612034 0.10396352 20 21
20.159636 8.7071495 -0.12762964 5 19
13.40391 6.5839219 -1.6085978 2 5
17.194456 6.4492745 -1.7142605 1 6
18.85815 9.2630129 0.48889816 2 24
18.80298 9.2359142 -1.4648861 3 8
18.127741 7.8295531 -1.611993 2 7
15.65162 8.6615553 0.52060419 13 25
20.149563 8.7027988 0.38311523 4 23
15.276923 8.4541998 -1.1190012 6 9
23.43907 8.7914972 -1.4578942 4 10
18.946043 9.3061857 1.2292916 5 27
20.110245 8.6858168 0.89246655 7 26
18.835651 9.2519617 -0.97752589 2 12
20.033337 8.6525993 -1.1436454 6 11
16.595238 8.1514835 2.2701821 7 29
20.224892 8.7353344 1.7984805 6 28
15.29208 8.4625874 -0.71205181 4 13
23.595486 8.8501644 -0.88002574 4 14
17.464497 8.5784588 5.2136512 2 31
20.418257 8.8188496 4.0551715 13 30
18.962242 9.3141422 -0.4915967 2 16
15.684505 8.6119423 -0.31232825 12 17
20.176519 8.63517 -0.63871181 2 15
5.4957237 2.6768837 -1.7112645 1 1
8.2035427 3.5109618 -1.7846675 0 2
18.994566 9.2519646 0 5 20
10.226535 4.9811897 -1.7697103 2 3
12.66927 5.4222083 -1.7541182 4 4
15.690138 8.6150351 0.10403327 12 21
20.284008 8.6811724 -0.12823407 2 19
13.436394 6.5446639 -1.609883 2 5
17.275486 6.4144049 -1.720209 1 6
18.980583 9.2451544 -1.476326 6 8
18.190254 7.7850862 -1.6152476 2 7
