# .PCD v0.7 - Point Cloud Data file format
VERSION 0.7
FIELDS x y z intensity ring
SIZE 4 4 4 4 2
TYPE F F F F U
COUNT 1 1 1 1 1
WIDTH 1263
HEIGHT 1
VIEWPOINT 0 0 0 1 0 0 0
POINTS 1263
DATA ascii
0.58591956 -8.7751207 -0.15351138 7 17
-0.17337069 -5.5787711 -1.1162997 6 2
-0.70519608 -8.8032017 -0.10281406 1 18
0.15901196 -8.9311285 -1.3896961 4 3
0.15676732 -8.8050556 -0.41021836 1 12
-0.2752032 -8.855566 -0.46432465 0 11
0.5911147 -8.8529272 -0.36148068 0 13
0.55528587 -8.777112 -0.15351138 7 17
-0.19270715 -5.5742116 -1.1155152 8 2
-0.73825294 -8.8285866 -0.10314 1 18
0.1278929 -8.9355812 -1.3903111 3 3
0.12591742 -8.7975588 -0.40984616 1 12
-0.30597436 -8.8505592 -0.46411529 0 11
0.52358699 -8.7870741 -0.153651 7 17
-0.21328701 -5.5773873 -1.1162997 10 2
-0.7681722 -8.7979298 -0.10281406 1 18
0.095140271 -8.9359903 -1.3903111 3 3
0.095285572 -8.9496374 -0.62585509 0 8
0.093798317 -8.809948 -0.41040453 1 12
-0.33749664 -8.825429 -0.46285927 0 11
0.49268809 -8.7848558 -0.15358117 7 17
-0.23291746 -5.5805283 -1.1170841 7 2
-0.79996282 -8.8071461 -0.10295375 1 18
0.063891515 -8.9283638 -1.3890812 4 3
0.063017495 -8.8062258 -0.41021836 1 12
0.46223104 -8.7905159 -0.153651 7 17
-0.25274974 -5.5875177 -1.1186532 6 2
-0.83032399 -8.8003168 -0.10290718 1 18
0.032349471 -8.8257685 -1.3730935 5 3
0.03234626 -8.824892 -0.95059347 0 5
-0.39940298 -8.8295689 -0.72154015 0 7
0.03230774 -8.8143835 -0.41059065 1 12
-0.40036297 -8.850791 -0.46432465 1 11
0.432881 -8.7880049 -0.15358117 7 17
-0.27146766 -5.5905662 -1.1194376 7 2
-0.86222506 -8.8253803 -0.10323313 1 18
0.0031175429 -8.9285908 -1.3890812 5 3
-0.86474711 -8.8511944 -0.83017647 0 6
0.0030762912 -8.8104467 -0.41040453 2 12
-0.42971137 -8.8494139 -0.46432465 0 11
0.40201944 -8.7854662 -0.15351138 7 17
-0.29077697 -5.5856676 -1.1186532 6 2
-0.89383197 -8.8302755 -0.10332626 1 18
-0.028049322 -8.9285479 -1.3890812 5 3
-0.027653063 -8.802412 -0.41003227 2 12
-0.46163756 -8.8678064 -0.46537137 0 11
0.37151861 -8.7908134 -0.15358117 7 17
-0.035739612 -5.3887138 -1.5085437 0 1
-0.31027299 -5.5846186 -1.1186532 7 2
-0.92590028 -8.839035 -0.10346595 1 18
-0.059242081 -8.9323463 -1.3896961 6 3
-6.1220798 -110.19162 -14.047593 63 4
-0.058458813 -8.8142481 -0.41059065 2 12
-0.49192461 -8.8541756 -0.46474332 0 11
0.34267607 -8.7999887 -0.1537208 7 17
-0.05337932 -5.3654552 -1.5020739 0 1
-0.32879075 -5.583559 -1.1186532 5 2
-0.9534874 -8.8200111 -0.1032797 1 18
-0.95365572 -8.8215685 -0.51673967 0 10
-0.087767437 -8.8219976 -0.41096291 2 12
-0.95554906 -8.8390827 -0.31046593 1 14
0.31027907 -8.7971907 -0.153651 6 17
-0.073201738 -5.3767781 -1.5053089 1 1
-0.3494983 -5.5862312 -1.1194376 6 2
-0.98758584 -8.8323565 -0.10346595 1 18
-0.12030885 -8.8368673 -1.3749382 4 3
-0.12018962 -8.8281088 -0.95102185 0 5
-0.1210793 -8.8934574 -0.62194872 0 8
-0.11993805 -8.8096313 -0.41040453 2 12
-0.55397588 -8.8545132 -0.46495271 1 11
-0.99104917 -8.8633299 -0.31144312 1 14
0.27944309 -8.7942219 -0.15358117 5 17
-0.36951244 -5.5928049 -1.1210065 6 2
-1.018868 -8.8328285 -0.10351252 1 18
-0.15284373 -8.9351892 -1.3903111 6 3
-1.0231977 -8.8703632 -0.83352244 0 6
-0.15061951 -8.8051624 -0.41021836 2 12
-0.58645976 -8.87644 -0.46620873 0 11
0.25005093 -8.7871037 -0.15344156 5 17
-0.10995536 -5.3838577 -1.5074655 2 1
-0.38778549 -5.587636 -1.1202221 6 2
-1.0486251 -8.8333731 -0.10355908 1 18
-0.18255411 -8.9385853 -1.390926 6 3
-0.18006277 -8.8165998 -0.41077676 2 12
-0.61506253 -8.8624916 -0.46558073 0 11
0.21957605 -8.7959204 -0.15358117 3 17
-0.1290243 -5.3949938 -1.5107003 2 1
-0.40700251 -5.5823359 -1.1194376 5 2
-1.0804237 -8.8375988 -0.10365221 1 18
-0.21366023 -8.9339418 -1.3903111 6 3
0.21975759 -8.8031921 -0.56436139 2 9
-0.21102868 -8.8239069 -0.41114902 2 12
-0.64773762 -8.8841934 -0.46683675 0 11
0.1889569 -8.8006315 -0.153651 4 17
-0.14806677 -5.4022121 -1.5128571 2 1
-0.4273828 -5.5926147 -1.121791 5 2
-1.1112665 -8.8337736 -0.10365221 1 18
-0.24506101 -8.9410439 -1.3915408 5 3
-1.1239158 -8.9343271 -0.524414 0 10
-0.24171932 -8.8191223 -0.41096291 2 12
-0.67722374 -8.8619652 -0.46579006 1 11
-0.24246374 -8.846283 -0.20592532 1 16
0.15677069 -8.8052626 -0.1537208 3 17
-0.16762666 -5.3939323 -1.5107003 2 1
-0.447878 -5.5910101 -1.121791 5 2
-1.1446642 -8.837575 -0.10374534 1 18
-0.27439255 -8.8294716 -1.3743234 2 3
-0.27387264 -8.8127422 -0.94973665 0 5
-0.27689302 -8.9099321 -0.62334388 0 8
-0.70799947 -8.8381929 -0.72381842 0 7
-0.27404156 -8.8181772 -0.41096291 2 12
-0.71033806 -8.8673859 -0.46620873 1 11
0.1274554 -8.7977371 -0.15358117 7 17
-0.18551223 -5.3933473 -1.5107003 2 1
-0.46674174 -5.5934033 -1.1225755 5 2
-1.1734365 -8.8297653 -0.10369877 1 18
-0.30747426 -8.9391155 -1.3915408 5 3
-0.30383089 -8.8331938 -0.4117074 2 12
-0.74372476 -8.9127502 -0.46872085 0 11
-0.29993558 -3.449079 -1.6144018 0 0
0.096788533 -8.8021278 -0.153651 8 17
-0.20448339 -5.3965154 -1.5117787 2 1
-0.48626363 -5.5917397 -1.1225755 5 2
-1.2058735 -8.8375034 -0.10383847 1 18
-0.33852631 -8.9340382 -1.390926 4 3
-0.33451158 -8.8280859 -0.41152129 2 12
-0.77102512 -8.8663254 -0.46641809 0 11
-0.31099296 -3.4371796 -1.6093304 0 0
0.066063568 -8.802412 -0.153651 6 17
-0.22331902 -5.3957691 -1.5117787 2 1
-0.50577897 -5.5900087 -1.1225755 4 2
-1.2378234 -8.8411636 -0.1039316 1 18
-0.36970907 -8.9328032 -1.390926 4 3
-9.8310881 -108.65589 -13.88698 63 4
0.066088147 -8.805687 -0.56436139 2 9
-0.3651593 -8.8228722 -0.41133514 2 12
-0.80484843 -8.8954058 -0.46809283 0 11
-0.32366809 -3.4432919 -1.6127114 0 0
0.035383876 -8.8145857 -0.15386041 3 17
-0.24215317 -5.3949566 -1.5117787 2 1
-0.52565652 -5.592114 -1.1233599 3 2
-1.2686785 -8.8367891 -0.1039316 1 18
-0.40053487 -8.9235592 -1.3896961 4 3
-0.83591342 -8.8927326 -1.1369191 1 4
-0.39731535 -8.8518314 -0.954449 1 5
-1.2739955 -8.8738241 -0.52208847 0 10
-0.39559758 -8.8135605 -0.41096291 2 12
-0.33603704 -3.445749 -1.6144018 0 0
-0.26116931 -5.3979263 -1.5128571 2 1
-0.5444116 -5.582437 -1.121791 6 2
-1.2995161 -8.8323078 -0.1039316 1 18
-0.42747852 -8.8352556 -1.3761681 2 3
-0.42590445 -8.8027229 -0.94930828 1 5
-0.42828891 -8.852006 -0.61971653 0 8
-0.42732489 -8.8320808 -0.41189352 2 12
-0.86654282 -8.8855953 -0.4678835 0 11
-0.34891719 -3.4590435 -1.6211637 0 0
-0.27906823 -5.3970304 -1.5128571 2 1
-0.56370813 -5.5884061 -1.1233599 5 2
-1.3299891 -8.8358593 -0.10402473 1 18
-0.46065319 -8.9087858 -1.3878515 6 3
-0.45681748 -8.8346052 -0.4120796 2 12
-0.35948378 -3.4433818 -1.6144018 0 0
-0.055383872 -8.8144836 -0.15386041 1 17
-0.29705653 -5.3806391 -1.5085437 2 1
-0.5836193 -5.5903058 -1.1241444 5 2
-1.3626512 -8.8430214 -0.10416441 1 18
-0.49283752 -8.926856 -1.390926 5 3
-11.253292 -107.79174 -13.795056 63 4
-0.48743322 -8.8289671 -0.41189352 2 12
-0.37090054 -3.4421709 -1.6144018 0 0
-0.084652141 -8.8182516 -0.15393023 1 17
-0.31534806 -5.3873148 -1.5107003 2 1
-0.60215437 -5.5883398 -1.1241444 5 2
-1.392591 -8.8424063 -0.10421099 1 18
-0.5222066 -8.9212255 -1.3903111 5 3
-0.51740921 -8.8392696 -0.41245189 2 12
-0.38351393 -3.4407883 -1.6144018 0 0
-0.11697128 -8.8178816 -0.15393023 1 17
-0.33485171 -5.382278 -1.5096221 2 1
-0.62306654 -5.589993 -1.1249288 4 2
-1.4249897 -8.8372431 -0.10421099 1 18
-0.55440927 -8.9113626 -1.3890812 5 3
-0.98679835 -8.853301 -1.1338887 0 4
-0.55093718 -8.8555536 -0.95573419 1 5
-1.4404739 -8.9332695 -0.84467572 0 6
-0.54905808 -8.8253489 -0.41189352 2 12
-0.39593643 -3.4430299 -1.6160923 0 0
-0.14781789 -8.8214178 -0.15400003 1 17
-0.35389012 -5.3849201 -1.5107003 2 1
-0.64302373 -5.5916805 -1.1257133 5 2
-1.4571301 -8.840107 -0.10430411 1 18
-0.58110642 -8.8423262 -1.3786278 3 3
-0.58002019 -8.825798 -0.95273548 1 5
-0.58483273 -8.8990269 -0.62362289 0 8
-1.0211397 -8.8797455 -0.72967666 0 7
-1.465155 -8.888793 -0.52464652 0 10
-0.58090931 -8.8393269 -0.41263798 2 12
-1.0222198 -8.8891373 -0.46893018 0 11
-0.40624562 -3.427227 -1.6093304 0 0
-0.1787717 -8.828846 -0.15413967 1 17
-0.37321702 -5.3913379 -1.5128571 2 1
-0.66253859 -5.5894022 -1.1257133 5 2
-1.4886435 -8.8389111 -0.10435068 1 18
-0.61578995 -8.8954458 -1.3872365 6 3
-0.61148506 -8.8332596 -0.41245189 2 12
-0.41804686 -3.4294596 -1.6110209 0 0
-0.20767058 -8.8122101 -0.15386041 0 17
-0.39081407 -5.3862286 -1.5117787 2 1
-0.68201882 -5.5949612 -1.1272823 5 2
-1.5193001 -8.8418093 -0.1044438 2 18
-0.64585632 -8.9012394 -1.3884664 6 3
-13.021831 -106.82497 -13.698083 63 4
-0.20906387 -8.8713322 -0.56871051 0 9
-0.64048404 -8.827198 -0.41226578 2 12
-0.43091792 -3.4351735 -1.6144018 0 0
-0.40932113 -5.3809905 -1.5107003 2 1
-0.7005685 -5.5847631 -1.1257133 6 2
-1.5536103 -8.8561516 -0.10467663 1 18
-0.6772235 -8.9028711 -1.3890812 5 3
-0.67220229 -8.8368616 -0.41282415 2 12
-0.23880914 -8.8254461 -0.35968956 1 13
-0.44350564 -3.4335711 -1.6144018 0 0
-0.27182946 -8.8464766 -0.1544887 0 17
-0.42934704 -5.3832941 -1.5117787 2 1
-0.7210331 -5.5821576 -1.1257133 6 2
-1.5846484 -8.8425236 -0.10458349 2 18
-0.70922136 -8.8924503 -1.3878515 5 3
-1.1477677 -8.8858891 -1.1404546 1 4
-0.70761746 -8.8723402 -0.9587329 1 5
-1.5849212 -8.8440456 -0.8387273 0 6
-0.70426887 -8.8303547 -0.41263798 2 12
-0.45536575 -3.4356751 -1.6160923 0 0
-0.30089223 -8.837533 -0.15434909 0 17
-0.44687757 -5.3780022 -1.5107003 2 1
-0.74108648 -5.5914006 -1.1280668 4 2
-1.6132443 -8.8332844 -0.10453694 1 18
-0.73477864 -8.842783 -1.3804725 3 3
-0.736377 -8.8620176 -0.95787609 1 5
-0.7385022 -8.8875942 -0.62362289 0 8
-1.1791252 -8.8963461 -0.73260581 0 7
-1.6221036 -8.881793 -0.52580935 0 10
-0.73487145 -8.8438997 -0.41338253 2 12
-1.1767027 -8.8780689 -0.46934891 0 11
-0.46746564 -3.4303913 -1.6144018 0 0
-0.33313069 -8.8323736 -0.15427928 0 17
-0.46758515 -5.3878407 -1.5139352 2 1
-0.76210475 -5.5925336 -1.1288512 4 2
-1.6492741 -8.8469715 -0.10476975 1 18
-0.76728117 -8.8411465 -0.41338253 2 12
-0.47824043 -3.4289057 -1.6144018 0 0
-0.36087716 -8.8312836 -0.15427928 0 17
-0.48381928 -5.3786726 -1.5117787 2 1
-0.78021258 -5.5939965 -1.1296357 5 2
-1.6792963 -8.8535366 -0.10490944 2 18
-0.80061829 -8.9005613 -1.3903111 5 3
-14.829439 -106.32466 -13.664748 63 4
-0.36312693 -8.8863392 -0.56998968 0 9
-0.79541099 -8.8426714 -0.41356865 2 12
-0.48985881 -3.4162786 -1.6093304 0 0
-0.39514038 -8.8378239 -0.1544189 0 17
-0.50554711 -5.3882799 -1.5150136 2 1
-0.80168545 -5.5909595 -1.1296357 4 2
-1.7140381 -8.8509502 -0.10495602 2 18
-0.83441764 -8.893486 -1.3896961 5 3
-0.82935739 -8.8395519 -0.41356865 2 12
-1.7222304 -8.8932533 -0.31632903 0 14
-0.49907923 -3.4002881 -1.6025686 0 0
-0.52229512 -5.3750725 -1.5117787 2 1
-0.82079118 -5.5921512 -1.1304202 5 2
-1.74338 -8.8452168 -0.10495602 2 18
-0.86314082 -8.882803 -1.3884664 6 3
-1.3068883 -8.9039907 -1.1455054 1 4
-0.86234605 -8.8746233 -0.96044642 1 5
-1.7467335 -8.8622313 -0.84318864 1 6
-0.86021197 -8.8526611 -0.41431314 2 12
-0.51465911 -3.4272945 -1.6160923 0 0
-0.45354158 -8.8310146 -0.15434909 0 17
-0.54165781 -5.3886409 -1.5160918 2 1
-0.83991355 -5.593277 -1.1312046 5 2
-1.7758484 -8.8550739 -0.10514227 2 18
-0.88982582 -8.8523636 -1.3841619 3 3
-1.3328727 -8.8760633 -1.1424749 2 4
-0.88938439 -8.8479719 -0.95787609 1 5
-1.7823772 -8.8876295 -0.84616286 1 6
-0.89634109 -8.9171801 -0.62669218 0 8
-1.7745349 -8.8485241 -0.52557677 0 10
-0.88996375 -8.853735 -0.41449922 2 12
-1.3376333 -8.9077663 -0.47207037 0 11
-0.52272004 -3.4040699 -1.6059495 0 0
-0.48325971 -8.8374481 -0.1544887 0 17
-0.55872786 -5.3791528 -1.5139352 2 1
-0.85726589 -5.5827079 -1.1296357 6 2
-1.8084003 -8.8648119 -0.10532852 2 18
-0.92203403 -8.8768826 -1.3884664 6 3
-16.203646 -105.52178 -13.588986 63 4
-0.92055649 -8.8626585 -0.4150576 2 12
-0.537413 -3.4201307 -1.6144018 0 0
-0.51387316 -8.8317165 -0.1544189 0 17
-0.57750136 -5.3771696 -1.5139352 2 1
-0.88040113 -5.6029296 -1.1343426 4 2
-1.8385204 -8.8545294 -0.10528196 2 18
-0.95343679 -8.8775396 -1.3890812 6 3
-16.547253 -105.30779 -13.568784 63 4
-0.51614535 -8.8707676 -0.56947798 0 9
-0.9506343 -8.8514452 -0.4146854 2 12
-0.54994482 -3.4181383 -1.6144018 0 0
-0.54599285 -8.8257818 -0.15434909 0 17
-0.59678054 -5.3711891 -1.5128571 2 1
-0.89968503 -5.5919204 -1.1327736 5 2
-1.8726166 -8.8555584 -0.10537509 2 18
-0.98684126 -8.8818426 -1.3903111 5 3
-1.4381853 -8.9389267 -0.73911494 0 7
-1.8844465 -8.9115009 -0.53046048 1 10
-0.98395264 -8.8558445 -0.4150576 2 12
-1.4428955 -8.9682026 -0.4760479 0 11
-0.56069601 -3.4090436 -1.6110209 0 0
-0.57731807 -8.8318024 -0.1544887 0 17
-0.61596406 -5.3728995 -1.5139352 2 1
-0.92047155 -5.5964866 -1.1343426 6 2
-1.9060395 -8.8606987 -0.10551478 2 18
-1.0160372 -8.8626375 -1.3878515 6 3
-1.4611787 -8.883997 -1.1460104 2 4
-1.0155514 -8.8583994 -0.96044642 1 5
-1.0157688 -8.8602953 -0.41542989 2 12
-1.022516 -8.9191504 -0.208903 0 16
-0.57139087 -3.3999152 -1.6076399 0 0
-0.60896814 -8.8417044 -0.15469813 0 17
-0.63471544 -5.3707166 -1.5139352 1 1
-0.94000161 -5.5932393 -1.1343426 5 2
-1.9378129 -8.8578997 -0.10556135 2 18
-1.0460399 -8.8511858 -1.3866216 3 3
-1.4934964 -8.8866692 -1.1470206 1 4
-1.0474006 -8.8626986 -0.96130323 0 5
-1.9482805 -8.9057474 -0.8509959 0 6
-1.0537032 -8.916029 -0.62780821 0 8
-1.0471599 -8.8606625 -0.41561598 2 12
-0.58388728 -3.405148 -1.6110209 0 0
-0.63828409 -8.8396368 -0.15469813 0 17
-0.65345091 -5.3762298 -1.5160918 2 1
-0.95920658 -5.5939569 -1.1351269 4 2
-1.9697784 -8.8631372 -0.10570104 2 18
-1.0772926 -8.8633623 -1.3890812 6 3
-17.946878 -104.66366 -13.516761 63 4
-1.0775007 -8.8650751 -0.41598827 2 12
-0.59511274 -3.3958433 -1.6076399 0 0
-0.67067999 -8.8372374 -0.15469813 0 17
-0.67315209 -5.3737988 -1.5160918 2 1
-0.98038083 -5.5942669 -1.1359115 7 2
-2.0031333 -8.8597584 -0.10574761 2 18
-1.1102635 -8.8632755 -1.3896961 4 3
-18.318054 -104.52682 -13.50767 63 4
-0.67635661 -8.9120359 -0.5728038 0 9
-1.1099868 -8.8610659 -0.41598827 1 12
-0.60951549 -3.4080198 -1.6144018 0 0
-0.70342231 -8.8587637 -0.15511699 0 17
-0.69092137 -5.3637753 -1.5139352 2 1
-1.0012832 -5.5985332 -1.1374804 5 2
-2.0385249 -8.8722038 -0.10598043 2 18
-1.1416996 -8.8632669 -1.3903111 5 3
-2.055702 -8.9469624 -0.85694438 0 6
-1.1449727 -8.8886757 -0.62669218 0 8
-1.5869524 -8.8732204 -0.73586035 0 7
-2.0486279 -8.9161739 -0.53278601 1 10
-1.1419309 -8.8650627 -0.41636047 1 12
-1.5928625 -8.9062653 -0.4741638 0 11
-0.62081409 -3.4059799 -1.6144018 0 0
-0.7314772 -8.8404388 -0.15483776 0 17
-0.70870525 -5.361455 -1.5139352 2 1
-1.0205473 -5.5990415 -1.1382649 6 2
-2.0688453 -8.8692913 -0.10602699 2 18
-1.1700504 -8.8515949 -1.3890812 6 3
-2.0836277 -8.9326649 -0.53418136 1 10
-1.1718473 -8.8651896 -0.41654664 2 12
-0.63402402 -3.4109199 -1.6177827 0 0
-0.76336205 -8.8497849 -0.15504719 0 17
-0.72845173 -5.3665819 -1.5160918 2 1
-1.039368 -5.5915875 -1.1374804 7 2
-2.1016355 -8.8697977 -0.10612012 2 18
-1.198814 -8.8317919 -1.3866216 6 3
-1.6504422 -8.8790417 -1.1495459 1 4
-1.2035829 -8.8669243 -0.96387345 0 5
-1.2043971 -8.8729229 -0.41710502 1 12
-0.64390141 -3.3980007 -1.6127114 0 0
-0.79317522 -8.8351173 -0.15483776 0 17
-0.74771106 -5.3678217 -1.5171702 2 1
-1.0588795 -5.5879259 -1.1374804 5 2
-2.1335192 -8.8662977 -0.10616669 2 18
-1.2318157 -8.8432112 -1.3890812 5 3
-19.758963 -104.27213 -13.50868 63 4
-1.2353612 -8.8686647 -0.41710502 1 12
-0.65241915 -3.3816085 -1.6059495 0 0
-0.8250652 -8.8603134 -0.15532643 0 17
-0.76441932 -5.357686 -1.5150136 2 1
-1.0811193 -5.6036401 -1.1414027 4 2
-2.1629093 -8.8591738 -0.10616669 2 18
-1.2622509 -8.8469038 -1.3903111 5 3
-20.118917 -104.28005 -13.518276 63 4
-0.82905304 -8.9031391 -0.57305956 0 9
-1.2641999 -8.8605633 -0.41691884 1 12
-0.66771555 -3.3970962 -1.6144018 0 0
-0.85637444 -8.8613596 -0.15539622 0 17
-0.78311735 -5.3549852 -1.5150136 2 1
-1.0999174 -5.5959835 -1.1406183 5 2
-2.1976707 -8.8670988 -0.10635295 2 18
-1.293126 -8.8424435 -1.3903111 6 3
-2.209384 -8.91436 -0.85731608 0 6
-1.2979879 -8.8756895 -0.62725019 0 8
-1.7477107 -8.8917227 -0.73976582 1 7
-1.2962792 -8.8640041 -0.41729113 1 12
-1.7495807 -8.9012365 -0.47541988 0 11
-0.6802808 -3.3982997 -1.6160923 0 0
-0.88730037 -8.8583164 -0.15539622 0 17
-1.7776206 -8.8799906 -0.26356024 0 15
-0.80237514 -5.3560281 -1.5160918 2 1
-1.1217535 -5.6036482 -1.1429716 4 2
-2.2305596 -8.8671303 -0.10644607 1 18
-1.3222265 -8.826149 -1.3884664 6 3
-1.7842151 -8.9129324 -0.74204409 0 7
-2.2434986 -8.9185667 -0.5355767 1 10
-1.3289875 -8.8712797 -0.41784951 1 12
-1.7822083 -8.9029083 -0.47583854 0 11
-0.68924266 -3.3816955 -1.6093304 0 0
-0.91367811 -8.8114071 -0.15462832 0 17
-0.82164979 -5.3570023 -1.5171702 2 1
-1.1428733 -5.6073856 -1.1445407 5 2
-2.2634761 -8.8670425 -0.1065392 2 18
-1.3548243 -8.8332005 -1.3903111 5 3
-1.8043988 -8.8530903 -1.1500511 1 4
-1.3602219 -8.868391 -0.96644384 0 5
-1.3605508 -8.8705359 -0.4180356 1 12
-0.70030695 -3.3757193 -1.6076399 0 0
-0.94954795 -8.8558826 -0.15546604 0 17
-0.84034491 -5.3541017 -1.5171702 2 1
-1.1616437 -5.5995207 -1.1437562 5 2
-2.2964211 -8.8668308 -0.10663233 2 18
-1.3874896 -8.8401318 -1.3921558 5 3
-21.633396 -104.28038 -13.556157 63 4
-1.3933665 -8.8775759 -0.418594 1 12
-0.71492273 -3.3837707 -1.6127114 0 0
-0.98243994 -8.8563185 -0.15553585 0 17
-0.85874003 -5.343379 -1.5150136 2 1
-1.1854019 -5.6105757 -1.146894 4 2
-2.3329713 -8.8738279 -0.10681859 2 18
-1.420507 -8.8388891 -1.3927706 4 3
-0.98541903 -8.8831739 -0.5728038 0 9
-2.3576121 -8.9675531 -0.53999525 1 10
-1.4265279 -8.8763523 -0.41878009 1 12
-0.72537875 -3.3778369 -1.6110209 0 0
-0.87707871 -5.3443031 -1.5160918 2 1
-1.2031775 -5.6027794 -1.1461096 4 2
-2.3623855 -8.8660421 -0.10681859 2 18
-1.4504505 -8.8380289 -1.3933855 2 3
-1.9128375 -8.9074202 -1.1596473 1 4
-1.4617386 -8.9068108 -0.63115656 0 8
-1.4566029 -8.8755178 -0.41896626 1 12
-1.0142957 -8.8748169 -0.36392313 0 13
-0.73561823 -3.368201 -1.6076399 0 0
-0.89700276 -5.3488073 -1.5182486 2 1
-1.2252383 -5.6100416 -1.148463 4 2
-2.3964493 -8.8693256 -0.10695828 2 18
-1.4786776 -8.8173208 -1.390926 3 3
-2.4142866 -8.9353418 -0.86400813 0 6
-1.4868807 -8.8662357 -0.6286453 0 8
-1.9463009 -8.9115953 -0.74464774 0 7
-1.4888971 -8.8782597 -0.41933846 1 12
-1.9509513 -8.932889 -0.47918805 0 11
-0.75208586 -3.3868465 -1.6177827 0 0
-1.0846661 -8.937048 -0.15714148 0 17
-0.91566765 -5.3456435 -1.5182486 2 1
-1.2473639 -5.6172175 -1.1508164 3 2
-2.4305639 -8.8724794 -0.10709798 1 18
-1.5127826 -8.8315849 -1.3940005 3 3
-1.5188183 -8.8668213 -0.96901417 0 5
-1.5212275 -8.8808861 -0.41971076 1 12
-0.7591148 -3.362983 -1.6076399 0 0
-1.1094127 -8.8816156 -0.15623395 0 17
-0.93432266 -5.3424144 -1.5182486 2 1
-1.2678285 -5.6166549 -1.1516008 4 2
-2.4658022 -8.8793564 -0.10728423 2 18
-1.5429217 -8.8223553 -1.3933855 3 3
-23.289288 -103.17475 -13.463224 63 4
-1.5529078 -8.8794556 -0.41989684 1 12
-0.77247 -3.3673799 -1.6110209 0 0
-1.1358216 -8.8419886 -0.15560566 0 17
-0.95296496 -5.3391209 -1.5182486 2 1
-1.288303 -5.6160183 -1.1523854 5 2
-2.5000319 -8.882246 -0.10742392 2 18
-1.5757906 -8.8285904 -1.3952303 2 3
-23.635086 -103.03094 -13.455142 63 4
-2.5163553 -8.9402399 -0.86698228 0 6
-2.0430794 -8.9062681 -0.74594951 0 7
-1.1377375 -8.8569031 -0.57229209 0 9
-2.5111191 -8.9216366 -0.53976274 2 10
-1.5824884 -8.8661156 -0.41952464 1 12
-2.0568914 -8.9664774 -0.4821189 0 11
-0.78586549 -3.3717239 -1.6144018 0 0
-1.1719134 -8.8776188 -0.15630375 0 17
-0.9709062 -5.3319716 -1.5171702 2 1
-1.3078989 -5.6114869 -1.1523854 5 2
-2.5354102 -8.8888502 -0.10761018 2 18
-1.6073071 -8.8269243 -1.3958453 2 3
-2.0779099 -8.9151878 -1.1652032 1 4
-1.6457853 -9.0382366 -0.98957682 0 5
-1.6169614 -8.8799429 -0.63115656 1 8
-1.1702147 -8.8647509 -0.57305956 1 9
-2.5433414 -8.9166565 -0.53999525 1 10
-1.6148592 -8.8683987 -0.41989684 1 12
-2.5307479 -8.8725042 -0.32219216 0 14
-0.79812229 -3.3762941 -1.6177827 0 0
-1.2019413 -8.8897467 -0.15658298 0 17
-0.98835456 -5.3326831 -1.5182486 2 1
-1.3282288 -5.6188021 -1.1547388 4 2
-2.563323 -8.8808403 -0.10761018 2 18
-1.6335894 -8.8140583 -1.3946154 2 3
-2.1040821 -8.9008923 -1.164193 1 4
-1.6484867 -8.8944368 -0.63255173 0 8
-1.6470815 -8.8868551 -0.42101362 1 12
-2.1291792 -9.007061 -0.48504969 0 11
-0.81074893 -3.3770132 -1.6194733 0 0
-1.2318649 -8.8775759 -0.15644337 0 17
-1.0083929 -5.3367705 -1.5204051 4 1
-1.3469177 -5.6103177 -1.1539543 4 2
-2.5987971 -8.8871946 -0.10779643 1 18
-1.6643455 -8.8083019 -1.3946154 5 3
-24.507315 -102.08034 -13.362714 63 4
-1.6803172 -8.8928299 -0.421572 1 12
-0.81624722 -3.3458433 -1.6059495 0 0
-1.2638303 -8.8690405 -0.15637356 0 17
-1.0264884 -5.3254743 -1.5182486 3 1
-1.37119 -5.620585 -1.1570921 5 2
-2.6336262 -8.8852797 -0.10788957 2 18
-24.814522 -101.71613 -13.326854 63 4
-2.652046 -8.9474239 -0.54348361 1 10
-1.7121437 -8.8826885 -0.42138588 1 12
-0.82879263 -3.3464928 -1.6076399 0 0
-1.2947806 -8.8645744 -0.15637356 0 17
-1.0450711 -5.3218584 -1.5182486 3 1
-1.3908007 -5.6157646 -1.1570921 4 2
-2.6703751 -8.8951864 -0.10812239 2 18
-1.7311406 -8.8155584 -1.3976899 7 3
-2.2091148 -8.9199476 -0.75018048 0 7
-1.2934804 -8.8556738 -0.57357126 0 9
-1.7454487 -8.8884201 -0.42194426 1 12
-2.2134259 -8.9373541 -0.48253757 0 11
-1.7522624 -8.9231176 -0.21160154 1 16
-0.84312087 -3.3541267 -1.6127114 0 0
-1.3298601 -8.8876905 -0.15686224 0 17
-1.0628867 -5.3144007 -1.5171702 3 1
-1.411352 -5.6146798 -1.1578766 5 2
-2.706064 -8.9011183 -0.10830865 1 18
-1.7626786 -8.8133392 -1.3983049 5 3
-1.7892224 -8.9460564 -0.98272264 0 5
-2.7142262 -8.9279671 -0.87107188 0 6
-1.3279302 -8.8747921 -0.57510626 0 9
-1.7772492 -8.8861914 -0.42213038 1 12
-2.2426636 -8.9218264 -0.4821189 0 11
-1.7794791 -8.8973408 -0.21113627 0 16
-0.85334325 -3.3477995 -1.6110209 0 0
-1.0812718 -5.3146214 -1.5182486 3 1
-1.4309316 -5.6137695 -1.1586611 5 2
-2.7355654 -8.8920956 -0.10830865 2 18
-1.7926823 -8.8113165 -1.3989198 4 3
-2.272824 -8.916646 -1.1712641 1 4
-1.8093635 -8.8933077 -0.97758192 1 5
-1.8153971 -8.9229641 -0.63673711 0 8
-1.8082997 -8.8880787 -0.42250264 1 12
-0.86593181 -3.3483102 -1.6127114 0 0
-1.0990355 -5.3070426 -1.5171702 4 1
-1.453465 -5.6201324 -1.1610144 4 2
-2.7677774 -8.8863125 -0.10835521 2 18
-1.8234288 -8.8050051 -1.3989198 4 3
-26.212606 -101.35664 -13.325844 63 4
-1.8409345 -8.8895378 -0.42287484 1 12
-0.87209439 -3.3242278 -1.6025686 0 0
-1.1199362 -5.3144817 -1.5204051 4 1
-1.4730735 -5.615025 -1.1610144 6 2
-2.8035896 -8.8918543 -0.10854147 1 18
-1.8565972 -8.8101902 -1.4007645 3 3
-2.8239789 -8.9565201 -0.87664849 0 6
-1.8768963 -8.906517 -0.42399162 1 12
-0.8902185 -3.3456864 -1.6144018 0 0
-1.1360589 -5.2992406 -1.5171702 5 1
-1.4946827 -5.6174297 -1.1625835 6 2
-2.8382609 -8.893445 -0.10868116 1 18
-1.8873407 -8.8036556 -1.4007645 2 3
-2.3752563 -8.9268675 -1.1758097 1 4
-1.92463 -8.9775953 -0.64203858 0 8
-2.8506489 -8.9322624 -0.54604173 1 10
-1.9071385 -8.8960047 -0.42380551 1 12
-2.3747056 -8.924798 -0.48400295 1 11
-0.90094697 -3.3390586 -1.6127114 0 0
-1.15537 -5.2990069 -1.5182486 5 1
-1.5142815 -5.6121778 -1.1625835 6 2
-2.8717451 -8.8910961 -0.10877429 1 18
-1.9205847 -8.8085995 -1.4026092 2 3
-1.9435236 -8.9138069 -0.98272264 1 5
-2.404273 -8.910634 -0.75343508 0 7
-1.4869986 -8.8859577 -0.57740873 0 9
-1.9407324 -8.9010048 -0.42436388 1 12
-2.4037626 -8.908742 -0.48358428 0 11
-0.91201478 -3.3360527 -1.6127114 1 0
-1.172936 -5.295146 -1.5182486 4 1
-1.5349525 -5.6146922 -1.1641524 5 2
-2.9036973 -8.8891277 -0.10886741 1 18
-1.94893 -8.7983227 -1.4019943 2 3
-27.543758 -100.75212 -13.295034 63 4
-1.9704922 -8.8956642 -0.98143744 0 5
-1.971967 -8.9023218 -0.42473608 1 12
-0.92462254 -3.3363423 -1.6144018 0 0
-1.1939508 -5.3022923 -1.5214833 5 1
-1.5566373 -5.6168599 -1.1657213 4 2
-2.9384747 -8.8903313 -0.10900711 1 18
-1.9831033 -8.8068905 -1.404454 2 3
-27.932373 -100.7892 -13.312712 63 4
-2.9725516 -8.9934311 -0.55162311 1 10
-2.0039077 -8.8992815 -0.4249222 0 12
-0.93430239 -3.3261142 -1.6110209 0 0
-1.5828203 -8.8948917 -0.15769994 0 17
-2.5117953 -8.9419851 -0.27030927 0 15
-1.2124523 -5.2980928 -1.5214833 5 1
-1.578356 -5.6189437 -1.1672902 4 2
-2.9745636 -8.8951921 -0.10919336 1 18
-2.0155966 -8.80762 -1.4056838 2 3
-2.5109959 -8.9391394 -0.75799143 0 7
-2.0385258 -8.907814 -0.42566675 0 12
-2.5137358 -8.9488935 -0.48714313 0 11
-0.94292897 -3.3123727 -1.6059495 0 0
-1.2291934 -5.2863245 -1.5193268 4 1
-1.5979596 -5.6134005 -1.1672902 6 2
-3.0094399 -8.896122 -0.10933305 1 18
-2.0481184 -8.8082294 -1.4069136 2 3
-3.0463896 -9.0053473 -0.88743001 0 6
-2.069515 -8.9002495 -0.6389693 0 8
-2.0705116 -8.9045353 -0.42585284 2 12
-0.9574998 -3.3195107 -1.6110209 0 0
-1.2494097 -5.2894993 -1.5214833 4 1
-1.6208057 -5.6190948 -1.1696436 4 2
-3.0443604 -8.8969164 -0.10947275 1 18
-2.0824869 -8.8164139 -1.4093732 2 3
-2.568934 -8.9061155 -1.1798503 1 4
-2.0978186 -8.8813219 -0.63813221 0 8
-1.6533895 -8.9295893 -0.58201367 0 9
-2.1052558 -8.9128075 -0.42659733 0 12
-0.96704745 -3.3091886 -1.6076399 0 0
-1.267866 -5.2851057 -1.5214833 4 1
-1.6415105 -5.6171675 -1.1704282 3 2
-3.0793221 -8.8975744 -0.10961244 1 18
-2.1132493 -8.8090906 -1.4093732 2 3
-2.1458533 -8.9450006 -0.99086201 0 5
-3.0978296 -8.9510508 -0.55162311 1 10
-2.1382189 -8.9131756 -0.42696962 0 12
-0.98579556 -3.3301258 -1.6194733 0 0
-1.2863061 -5.2806482 -1.5214833 4 1
-1.663334 -5.6189256 -1.1719971 5 2
-3.1156461 -8.9018726 -0.1097987 1 18
-2.1458559 -8.8093414 -1.410603 1 3
-29.490017 -99.620522 -13.224324 63 4
-3.1207895 -8.9165678 -0.8818534 0 6
-2.1674261 -8.8978939 -0.42659733 0 12
-0.9938277 -3.3126009 -1.6127114 0 0
-1.768622 -9.0147448 -0.16035272 0 17
-1.3075031 -5.2833767 -1.52364 4 1
-1.6861719 -5.6203046 -1.173566 5 2
-3.154928 -8.9092445 -0.11003152 1 18
-2.1790791 -8.805253 -1.4112179 1 3
-2.6886902 -8.9618731 -1.190962 1 4
-3.1627555 -8.9313488 -0.88445586 1 6
-1.7522051 -8.9310675 -0.58329284 0 9
-3.1724651 -8.9587679 -0.55348355 1 10
-2.2038639 -8.9054041 -0.42734182 0 12
-1.7451111 -8.8949089 -0.36929649 1 13
-1.0032771 -3.3021743 -1.6093304 0 0
-1.3249992 -5.2750444 -1.5225617 4 1
-1.7069204 -5.6181378 -1.1743505 5 2
-3.1900527 -8.9094734 -0.11017122 1 18
-2.2117279 -8.8052607 -1.4124478 1 3
-2.2516198 -8.964077 -0.99557424 0 5
-2.7177451 -8.9451551 -0.76319879 0 7
-2.7160821 -8.9396811 -0.48965529 0 11
-1.7769328 -8.892683 -0.3694593 0 13
-1.0174178 -3.3092248 -1.6144018 0 0
-1.3434349 -5.2743545 -1.52364 4 1
-1.7266935 -5.6161957 -1.1751349 5 2
-3.2250226 -8.9138908 -0.11035748 1 18
-2.2428653 -8.8055372 -1.4136776 1 3
-2.2692418 -8.9090919 -0.64287567 0 8
-2.2742915 -8.9289179 -0.42920306 0 12
-1.027886 -3.3021917 -1.6127114 0 0
-1.359911 -5.2621732 -1.5214833 5 1
-1.7497854 -5.6213694 -1.1774883 7 2
-3.260241 -8.9138479 -0.11049717 1 18
-2.2735903 -8.7976542 -1.4136776 1 3
-30.703539 -98.638344 -13.149573 63 4
-3.2819176 -8.973114 -0.89189136 0 6
-3.2796366 -8.9668779 -0.5560416 2 10
-2.3004484 -8.9015818 -0.42827246 0 12
-1.0399822 -3.2984021 -1.6127114 0 0
-1.3811437 -5.2646055 -1.52364 4 1
-1.772736 -5.6223998 -1.1790572 6 2
-3.2998285 -8.9205942 -0.11072998 1 18
-2.3068233 -8.7930851 -1.4142926 1 3
-2.8184619 -8.9390182 -0.76515156 0 7
-3.3166366 -8.966032 -0.55673927 1 10
-2.3421843 -8.9278736 -0.42994761 0 12
-2.8275657 -8.9678917 -0.49279541 0 11
-3.3216197 -8.9795027 -0.3343372 0 14
-1.0492381 -3.2916648 -1.6110209 0 0
-1.3986647 -5.2639632 -1.5247183 4 1
-1.7927725 -5.6242776 -1.1806263 7 2
-3.3320346 -8.9214249 -0.11086968 1 18
-2.3354502 -8.7896156 -1.4149075 1 3
-2.8476009 -8.9334803 -1.1934873 2 4
-2.3803306 -8.9585257 -0.64817721 0 8
-1.9072065 -8.9115019 -0.58406025 0 9
-2.3794541 -8.9552269 -0.43162268 1 12
-1.062948 -3.2948823 -1.6144018 0 0
-1.4150269 -5.2516108 -1.5225617 5 1
-1.8160068 -5.6291833 -1.1829796 7 2
-3.3702188 -8.9284506 -0.11110251 1 18
-2.367146 -8.7852249 -1.4155223 1 3
-2.8812041 -8.9310379 -1.1944973 1 4
-2.4056416 -8.9280939 -0.99600261 1 5
-1.9323591 -8.8774862 -0.58226949 0 9
-2.4023833 -8.9160023 -0.4301337 1 12
-1.0705142 -3.2771802 -1.6076399 0 0
-1.4342648 -5.2463894 -1.5225617 5 1
-1.8354082 -5.6187615 -1.1821952 5 2
-3.4043458 -8.9197741 -0.11114907 1 18
-2.4003708 -8.780304 -1.4161373 1 3
-32.012436 -98.00013 -13.122804 63 4
-2.4320548 -8.8962002 -0.99343228 0 5
-3.4154017 -8.9487419 -0.89412206 0 6
-3.432991 -8.9948282 -0.56069273 1 10
-2.4403131 -8.9264088 -0.43106437 0 12
-1.0836502 -3.2804968 -1.6110209 0 0
-1.4537109 -5.2490282 -1.5247183 4 1
-1.8589522 -5.6275415 -1.185333 5 2
-3.4367838 -8.9159002 -0.1112422 1 18
-2.4273648 -8.764677 -1.4149075 1 3
-3.4541829 -8.9610386 -0.55929744 2 10
-2.485898 -8.9760275 -0.43385619 0 12
-1.0973928 -3.2835705 -1.6144018 0 0
-1.4730659 -5.2476306 -1.5257967 4 1
-1.879828 -5.6247382 -1.1861175 6 2
-3.4751437 -8.9224844 -0.11147501 1 18
-2.4590127 -8.7599554 -1.4155223 1 3
-2.9959514 -8.9643545 -1.2030838 1 4
-3.4863529 -8.9512644 -0.89672446 0 6
-2.5204551 -8.978837 -0.43441457 0 12
-2.5160205 -8.9630394 -0.21662636 0 16
-1.106526 -3.2728515 -1.6110209 0 0
-1.4903206 -5.2387514 -1.5247183 4 1
-1.9044757 -5.6330047 -1.1892554 7 2
-3.5121257 -8.9251871 -0.11166127 1 18
-2.4906576 -8.7551203 -1.4161373 1 3
-2.5561795 -8.9854422 -1.006284 1 5
-2.535224 -8.9117804 -0.64789808 0 8
-2.9866266 -8.8337603 -0.76124609 0 7
-3.0436301 -9.0023632 -0.49802902 0 11
-1.1191162 -3.2723994 -1.6127114 0 0
-1.5085975 -5.2335172 -1.5247183 5 1
-1.9266646 -5.6337457 -1.1908243 7 2
-3.5536017 -8.9388914 -0.11198723 1 18
-2.5212023 -8.7463732 -1.4161373 1 3
-33.322063 -97.436798 -13.107653 63 4
-2.5599895 -8.8809299 -0.99557424 1 5
-2.567421 -8.9067106 -0.64817721 0 8
-2.1025856 -8.9084568 -0.58661866 0 9
-3.5832357 -9.0134344 -0.56487876 1 10
-2.5808628 -8.9533424 -0.4340423 0 12
-1.1335152 -3.2789488 -1.6177827 0 0
-1.5248655 -5.2247887 -1.52364 5 1
-1.9453366 -5.6273251 -1.1908243 6 2
-3.5891845 -8.941905 -0.11217348 1 18
-2.5513005 -8.7417583 -1.4167522 1 3
-33.586658 -97.156998 -13.084924 63 4
-2.6139388 -8.9563818 -1.0049988 1 5
-1.1437577 -3.2715502 -1.6160923 0 0
-1.5441864 -5.2231274 -1.5247183 6 1
-1.9688512 -5.6316085 -1.1931777 6 2
-3.6188734 -8.9256163 -0.11212692 1 18
-2.5818 -8.7328005 -1.4167522 1 3
-3.6333816 -8.9613991 -0.90267289 0 6
-3.1313751 -8.9568367 -0.77458984 1 7
-3.137486 -8.9743166 -0.49823835 0 11
-1.1581584 -3.2741716 -1.6194733 1 0
-1.564425 -5.2211227 -1.5257967 7 1
-1.9947104 -5.6391459 -1.1963155 6 2
-3.6636937 -8.9419012 -0.11249944 1 18
-2.6183269 -8.7384224 -1.4192117 1 3
-2.6903274 -8.9787178 -0.65543187 0 8
-3.1641817 -8.9453001 -0.77458984 0 7
-2.2177825 -8.9750814 -0.59250271 0 9
-2.6870947 -8.9679289 -0.43608969 0 12
-3.1676924 -8.955225 -0.49781963 0 11
-1.1629084 -3.2532446 -1.6110209 0 0
-1.582848 -5.2195921 -1.5268748 7 1
-2.0147197 -5.6361928 -1.1971 6 2
-3.6994407 -8.9444866 -0.11268569 1 18
-2.6427023 -8.7145634 -1.4167522 1 3
-3.1975033 -8.9450388 -1.2091445 1 4
-2.7110467 -8.9399347 -1.006284 1 5
-3.7224317 -9.0000734 -0.56720436 1 10
-1.1742578 -3.2491655 -1.6110209 0 0
-1.6010588 -5.214035 -1.5268748 8 1
-2.0357156 -5.6328149 -1.1978846 8 2
-3.7352664 -8.9425898 -0.11282539 1 18
-2.6765876 -8.7166195 -1.418597 1 3
-34.834724 -96.387512 -13.045528 63 4
-2.7410705 -8.9266157 -1.0058556 1 5
-3.7393053 -8.9522591 -0.90564704 1 6
-1.184348 -3.2416418 -1.6093304 0 0
-3.2696922 -8.9493723 -0.27729097 0 15
-1.619249 -5.2084146 -1.5268748 8 1
-2.0553648 -5.6256752 -1.1978846 7 2
-3.772676 -8.9442387 -0.11301164 1 18
-2.7058237 -8.7034492 -1.4179819 1 3
-3.776722 -8.9538307 -0.90713418 0 6
-3.2739124 -8.9609232 -0.77882081 0 7
-3.2789307 -8.974659 -0.50075048 0 11
-1.199424 -3.2476897 -1.6144018 0 0
-1.6385766 -5.2064052 -1.5279531 6 1
-2.0790663 -5.6295042 -1.2002379 7 2
-3.8101442 -8.9457359 -0.11319791 1 18
-2.7350018 -8.6901808 -1.4173671 1 3
-3.3143692 -8.9743423 -1.2177308 2 4
-2.826081 -8.9795761 -0.43850932 0 12
-1.2082179 -3.2366908 -1.6110209 0 0
-1.6590788 -5.207994 -1.5301098 6 1
-2.1028197 -5.6332369 -1.2025913 7 2
-3.8476682 -8.9470778 -0.11338416 1 18
-2.7641201 -8.676815 -1.4167522 1 3
-3.3373494 -8.9404144 -1.2147005 1 4
-2.8573332 -8.9694195 -1.0139949 1 5
-2.8402154 -8.9156857 -0.65431571 0 8
-2.3735471 -8.9392805 -0.59275854 0 9
-3.8335319 -8.9142075 -0.56511134 1 10
-1.2195084 -3.2324536 -1.6110209 0 0
-1.6784297 -5.2058377 -1.5311881 7 1
-2.1252391 -5.6332016 -1.2041602 6 2
-3.8836541 -8.9445992 -0.11352386 1 18
-2.7980289 -8.6784 -1.418597 1 3
-35.983814 -95.379425 -12.975828 63 4
-3.8924842 -8.9649353 -0.91233909 0 6
-2.8774416 -8.9247074 -0.65571088 0 8
-2.4016225 -8.9193773 -0.59199107 0 9
-2.9070919 -9.0166712 -0.44130117 0 12
-1.2294931 -3.2247894 -1.6093304 0 0
-1.6942023 -5.1926227 -1.5290315 7 1
-2.1448903 -5.6257486 -1.2041602 7 2
-3.9212766 -8.9456406 -0.11371011 1 18
-2.8234022 -8.6535482 -1.4161373 1 3
-3.9253535 -8.9549408 -0.91271085 0 6
-3.4242728 -8.98139 -0.784679 0 7
-3.9437656 -8.9969454 -0.572088 1 10
-3.4679546 -9.0959625 -0.51017094 0 11
-1.2420454 -3.223861 -1.6110209 0 0
-1.7135246 -5.1903353 -1.5301098 5 1
-2.1701548 -5.6328673 -1.2072982 6 2
-3.9589524 -8.9465294 -0.11389636 1 18
-2.8523512 -8.6398869 -1.4155223 1 3
-3.4521861 -8.960516 -1.2222764 1 4
-1.253291 -3.219506 -1.6110209 0 0
-1.7328516 -5.1879759 -1.5311881 5 1
-2.1926494 -5.6325688 -1.2088671 6 2
-3.9983134 -8.9509153 -0.11412919 1 18
-2.8837445 -8.6336279 -1.4161373 1 3
-3.4863214 -8.9558077 -1.2232866 1 4
-2.9985521 -8.9773493 -0.66184944 0 8
-2.5272372 -9.0090418 -0.59966594 0 9
-3.0013525 -8.985734 -0.44130117 1 12
-3.512532 -9.023139 -0.50744945 0 11
-2.5141306 -8.9623203 -0.37922904 0 13
-4.0271263 -9.0154181 -0.34480703 1 14
-1.2599815 -3.2052104 -1.6059495 0 0
-1.7512789 -5.1858511 -1.5322665 4 1
-2.2156205 -5.6362176 -1.2112205 5 2
-4.0394778 -8.9631329 -0.11445514 1 18
-2.9136238 -8.6277628 -1.4167522 1 3
-37.186569 -94.597252 -12.937948 63 4
-3.0233307 -8.9526243 -1.0178504 2 5
-4.0500836 -8.9866657 -0.92014635 0 6
-3.0193689 -8.9408932 -0.65989619 1 8
-3.0260205 -8.9605894 -0.44055668 0 12
-2.5383766 -8.9347115 -0.37841493 1 13
-4.0405755 -8.9655685 -0.34341103 2 14
-1.274616 -3.211123 -1.6110209 0 0
-2.5653076 -8.9169149 -0.16195834 0 17
-1.7709552 -5.187305 -1.534423 5 1
-2.2357461 -5.6324854 -1.2120049 5 2
-4.0758009 -8.9642525 -0.11464139 1 18
-2.9434955 -8.6217937 -1.4173671 1 3
-37.46347 -94.381218 -12.925322 63 4
-3.0427227 -8.9124393 -1.0144233 1 5
-4.081511 -8.9768105 -0.9205181 1 6
-2.5725853 -8.9422121 -0.59634012 0 9
-4.1237245 -9.0696554 -0.58022749 1 10
-1.2863768 -3.20643 -1.6110209 0 0
-1.7861823 -5.169857 -1.5311881 4 1
-2.2607565 -5.6351738 -1.2143583 5 2
-4.115304 -8.9637928 -0.11482765 1 18
-2.9789486 -8.6221533 -1.4192117 1 3
-3.6138158 -9.0078173 -1.2354083 1 4
-3.5978236 -8.9679546 -0.50640279 1 11
-1.2989229 -3.2052798 -1.6127114 0 0
-1.8067582 -5.1708632 -1.5333447 4 1
-2.2804127 -5.6272483 -1.2143583 7 2
-4.1549759 -8.9675198 -0.11506048 1 18
-3.0064189 -8.6042404 -1.4179819 1 3
-3.1825891 -9.1084318 -0.67468464 0 8
-3.6340151 -8.9674578 -0.78988636 1 7
-4.1499076 -8.9565811 -0.57487869 1 10
-3.1407752 -8.9887629 -0.44353467 0 12
-3.6261044 -8.947937 -0.50598407 0 11
-1.3109175 -3.2043099 -1.6144018 0 0
-1.8251784 -5.1684756 -1.534423 4 1
-2.3020313 -5.6269155 -1.2159272 7 2
-4.1931577 -8.9718084 -0.11529329 1 18
-3.0349357 -8.594223 -1.4179819 1 3
-3.1689918 -8.9738388 -1.025133 1 5
-4.202271 -8.9913073 -0.92646652 0 6
-2.6775222 -8.9530268 -0.59889847 0 9
-1.3226532 -3.1994839 -1.6144018 1 0
-1.8479973 -5.1726336 -1.537658 3 1
-2.3316307 -5.6401892 -1.2206341 7 2
-4.2294269 -8.9636154 -0.11538643 1 18
-3.0690739 -8.5904865 -1.4192117 1 3
-38.680267 -93.567154 -12.887441 63 4
-3.1965094 -8.9471836 -1.0234195 2 5
-4.2317982 -8.9686413 -0.92572296 0 6
-3.2044835 -8.9695044 -0.66603482 0 8
-2.6998987 -8.9087715 -0.59659594 0 9
-4.2498236 -9.0068426 -0.57999492 1 10
-1.33521 -3.1981926 -1.6160923 0 0
-1.8634249 -5.158905 -1.5355012 4 1
-2.3528154 -5.6356354 -1.2214185 8 2
-4.2675672 -8.9632406 -0.11557268 1 18
-3.1017277 -8.5871553 -1.4204416 1 3
-3.7774501 -9.0480251 -1.2480352 1 4
-3.7473078 -8.9758263 -0.50975227 0 11
-1.3449576 -3.190172 -1.6144018 0 0
-1.8840643 -5.159606 -1.537658 4 1
-2.3816161 -5.6490736 -1.2261254 6 2
-4.3040257 -8.9591064 -0.11571237 1 18
-3.1316841 -8.5762758 -1.4204416 1 3
-3.7836473 -8.9746218 -0.79509366 1 7
-4.3610163 -9.0777359 -0.58650649 1 10
-3.2933836 -9.0190992 -0.44725716 0 12
-3.7817206 -8.9700518 -0.51017094 0 11
-3.2850897 -8.9963856 -0.2228609 0 16
-1.3526901 -3.179023 -1.6110209 0 0
-1.9011633 -5.1533298 -1.537658 4 1
-2.4003353 -5.6411452 -1.2261254 7 2
-4.3459182 -8.9699812 -0.11603832 1 18
-3.1614742 -8.5695524 -1.4210565 1 3
-39.599751 -93.0653 -12.873803 63 4
-3.3270133 -9.0182657 -1.0354143 1 5
-4.3551836 -8.9891043 -0.93241495 1 6
-3.3008182 -8.9472618 -0.66687191 0 8
-2.8369787 -9.0252047 -0.60631752 0 9
-3.3065989 -8.9629307 -0.22230259 1 16
-1.372365 -3.1942668 -1.6211637 0 0
-1.921832 -5.1538806 -1.5398146 5 1
-2.4246571 -5.6435437 -1.2284788 6 2
-4.3824725 -8.9655371 -0.11617801 1 18
-3.1955111 -8.5695744 -1.4229013 0 3
-39.976063 -93.046829 -12.890471 63 4
-4.3970294 -8.9953165 -0.93464565 0 6
-3.3334241 -8.9394236 -0.66715091 0 8
-4.3753562 -8.9509783 -0.58022749 1 10
-3.349113 -8.9814978 -0.44651267 0 12
-1.3811769 -3.1825638 -1.6177827 0 0
-1.9420679 -5.1504059 -1.5408927 2 1
-2.4531331 -5.6526089 -1.2324011 5 2
-4.4223824 -8.9637613 -0.11636427 1 18
-3.2268987 -8.5578051 -1.4229013 1 3
-3.9239483 -9.0417204 -1.2546011 1 4
-3.9028144 -8.9930229 -0.80030102 2 7
-3.9008896 -8.9885883 -0.51352042 0 11
-1.3882613 -3.1715672 -1.6144018 0 0
-1.9596095 -5.1478791 -1.5419711 2 1
-2.4708793 -5.6448741 -1.2324011 5 2
-4.4594264 -8.9677296 -0.1165971 1 18
-3.2537682 -8.5476246 -1.4229013 1 3
-3.9294496 -8.977066 -0.79997557 1 7
-4.4984136 -9.0461311 -0.58836699 1 10
-3.9243038 -8.9653101 -0.51289243 0 11
-1.3974962 -3.1595826 -1.6110209 0 0
-1.9793615 -5.140317 -1.5419711 2 1
-2.4988825 -5.6496935 -1.235539 9 2
-4.5135679 -8.9898605 -0.11710931 1 18
-3.2851446 -8.5313807 -1.4222864 1 3
-3.9998164 -9.0431376 -1.2586417 1 4
-4.501483 -8.9657907 -0.93650448 1 6
-3.4484823 -8.9555607 -0.67105728 0 8
-3.4603376 -8.9863491 -0.44856003 1 12
-1.4103687 -3.1617982 -1.6144018 0 0
-2.0010817 -5.1484342 -1.5462843 3 1
-2.5182164 -5.6453977 -1.2363235 8 2
-4.5453997 -8.9827757 -0.11720244 1 18
-3.3104978 -8.517333 -1.4216714 1 3
-41.095127 -92.128036 -12.840468 63 4
-3.4780109 -8.9483156 -1.0341291 2 5
-4.5404158 -8.9729261 -0.93873513 0 6
-3.4737082 -8.9372454 -0.67049921 0 8
-2.9798658 -8.9369726 -0.60375923 0 9
-3.4784186 -8.9493647 -0.44725716 0 12
-1.4159921 -3.1433861 -1.6076399 0 0
-4.036479 -8.9606514 -0.28601813 0 15
-2.0241644 -5.1518207 -1.5495192 2 1
-2.5437241 -5.6468582 -1.2386769 7 2
-4.5873871 -8.9838657 -0.11743525 1 18
-3.3460295 -8.5161781 -1.4235162 1 3
-3.516603 -8.9503145 -1.0358428 1 5
-4.0526352 -8.9965172 -0.80550838 1 7
-3.0177081 -8.9411201 -0.60478252 0 9
-4.0589037 -9.0104322 -0.51791668 0 11
-1.4249084 -3.1353729 -1.6059495 0 0
-4.0711346 -8.9581366 -0.28636724 0 15
-2.0483398 -5.162982 -1.5549107 4 1
-2.57055 -5.6562462 -1.2425992 6 2
-4.6244769 -8.9828281 -0.1176215 1 18
-3.3669643 -8.4866667 -1.4204416 1 3
-4.6886263 -9.1074352 -0.95620859 0 6
-4.0807972 -8.9793987 -0.80518293 1 7
-4.6644893 -9.0605507 -0.59348315 1 10
-4.0871081 -8.9932861 -0.51770729 0 11
-1.44189 -3.1435604 -1.6127114 0 0
-2.0663497 -5.1558003 -1.5549107 4 1
-2.5902786 -5.6472392 -1.2425992 6 2
-4.6631775 -8.9808302 -0.11780778 1 18
-3.3965681 -8.4748611 -1.4204416 1 3
-4.1192427 -8.9806347 -1.2576315 1 4
-3.6057029 -8.9966784 -0.67775393 0 8
-4.6832075 -9.0194054 -0.59185529 1 10
-3.6061332 -8.9977522 -0.45153803 0 12
-1.4518782 -3.1349652 -1.6110209 0 0
-2.0852323 -5.1481929 -1.5549107 3 1
-2.6224968 -5.6626215 -1.2480905 5 2
-4.7071981 -8.9849358 -0.11808715 1 18
-3.4320579 -8.4733467 -1.4222864 1 3
-42.214985 -91.152626 -12.786427 63 4
-3.6340237 -8.9719763 -1.042697 2 5
-4.7111673 -8.9925108 -0.94765776 0 6
-3.1361768 -8.9806337 -0.60964334 0 9
-3.6270862 -8.9548492 -0.45004904 0 12
-3.1426415 -8.9991455 -0.38834751 0 13
-1.4612775 -3.1265938 -1.6093304 0 0
-2.1090243 -5.1551428 -1.559224 2 1
-2.637265 -5.6427727 -1.2457371 5 2
-4.7441387 -8.9790583 -0.11822684 1 18
-3.4676006 -8.4759464 -1.424746 0 3
-4.2506032 -9.0947199 -1.2778345 1 4
-3.6562846 -8.9371519 -1.0401267 1 5
-4.2048593 -8.9968452 -0.81071568 2 7
-4.2130651 -9.0144024 -0.52147555 0 11
-3.1554034 -8.935358 -0.38606787 0 13
-4.6948833 -8.8858347 -0.35094935 1 14
-1.4721825 -3.1214738 -1.6093304 0 0
-2.1270065 -5.1477499 -1.559224 2 1
-2.6619654 -5.6441751 -1.2480905 5 2
-4.7886186 -8.9871531 -0.11855279 1 18
-3.4956574 -8.4601383 -1.4241312 0 3
-4.8169069 -9.0402441 -0.95620859 0 6
-4.243041 -8.9965353 -0.8120175 1 7
-4.822154 -9.0500917 -0.59720403 1 10
-4.2462096 -9.0032539 -0.52168489 0 11
-3.1906068 -8.9355822 -0.38655636 0 13
-4.8029447 -9.01404 -0.35667285 2 14
-1.4887549 -3.1296694 -1.6160923 0 0
-2.1485138 -5.1513329 -1.5624589 2 1
-2.6874075 -5.6494846 -1.2512283 6 2
-4.8297505 -8.9923668 -0.11883218 1 18
-3.5343432 -8.4740343 -1.4284356 0 3
-3.7570765 -9.0080652 -0.68249732 0 8
-4.8521395 -9.0340519 -0.59720403 1 10
-3.7544813 -9.0018435 -0.45432991 0 12
-3.2242899 -8.9362307 -0.38704485 0 13
-4.8592911 -9.0473671 -0.35862723 1 14
-1.494964 -3.1146493 -1.6110209 0 0
-2.1709671 -5.1544518 -1.5656937 2 1
-2.7071109 -5.6400695 -1.2512283 5 2
-4.8725386 -8.9965553 -0.11911157 1 18
-3.5608327 -8.454361 -1.4272057 0 3
-43.399071 -90.418823 -12.766223 63 4
-3.7805369 -8.975997 -1.0491228 1 5
-3.3007376 -9.0490417 -0.61731821 0 9
-3.778125 -8.9702711 -0.45339927 1 12
-3.2677896 -8.9587135 -0.38851035 0 13
-1.5047891 -3.1058862 -1.6093304 0 0
-2.1943691 -5.1570935 -1.5689286 2 1
-2.7346056 -5.6442289 -1.2543663 6 2
-4.9208221 -9.0067167 -0.11948409 1 18
-3.587153 -8.4303427 -1.4253609 0 3
-4.3962021 -9.0737658 -1.2833903 1 4
-3.8180814 -8.9730587 -1.050408 1 5
-3.838625 -9.0213385 -0.6855666 0 8
-4.9224033 -9.0096121 -0.5979017 1 10
-4.3663821 -9.0122175 -0.52482504 1 11
-3.3061361 -8.9616747 -0.38916165 1 13
-1.5145392 -3.1011436 -1.6093304 1 0
-3.3379278 -8.9610538 -0.16691481 0 17
-2.2105601 -5.1501741 -1.5689286 2 1
-2.757488 -5.6461835 -1.2567197 5 2
-4.9548793 -9.0017242 -0.11962377 1 18
-3.6182973 -8.4299278 -1.4272057 0 3
-4.9702549 -9.0296583 -0.96215707 0 6
-4.3966112 -9.0024223 -0.81787568 1 7
-4.9622378 -9.0150928 -0.59929705 2 10
-4.3946738 -8.998456 -0.52482504 1 11
-3.3300889 -8.9400091 -0.38867316 0 13
-1.5269575 -3.0990899 -1.6110209 0 0
-2.2346509 -5.1565638 -1.5732419 3 1
-2.7841146 -5.6505971 -1.2598575 6 2
-4.9979167 -9.0053568 -0.11990316 1 18
-3.6398435 -8.3991127 -1.4241312 0 3
-4.9959464 -9.0018063 -0.96104169 0 6
-3.8951995 -8.9883595 -0.68500859 0 8
-5.0343699 -9.0710382 -0.60418075 1 10
-3.9147811 -9.0335445 -0.45861077 0 12
-3.3683162 -8.947032 -0.38948733 0 13
-1.5442203 -3.1067259 -1.6177827 0 0
-2.2557249 -5.1557899 -1.5753984 2 1
-2.814297 -5.6619186 -1.2645644 9 2
-5.0371337 -9.0018177 -0.12008943 1 18
-3.6754768 -8.4008408 -1.4265908 0 3
-3.9278476 -8.9776707 -1.0555487 1 5
-3.9185536 -8.9564285 -0.68361342 1 8
-3.9286726 -8.9795561 -0.45656338 1 12
-3.4037905 -8.9464264 -0.38997582 0 13
-1.5469303 -3.0851138 -1.6093304 1 0
-2.2768195 -5.154932 -1.5775551 2 1
-2.8340425 -5.6520605 -1.2645644 5 2
-5.0783496 -9.0015984 -0.12032224 1 18
-3.704777 -8.3879604 -1.4265908 0 3
-4.5388799 -9.0520964 -1.288946 1 4
-3.9511256 -8.9457169 -1.0534066 1 5
-5.0958486 -9.0326157 -0.96810549 0 6
-3.9723623 -8.9937992 -0.68751985 0 8
-5.1270046 -9.087841 -0.60766912 1 10
-4.5298419 -9.034071 -0.52963996 2 11
-3.437865 -8.9419518 -0.39030144 0 13
-1.561501 -3.0858927 -1.6127114 0 0
-2.2956982 -5.1465521 -1.5775551 2 1
-2.8582814 -5.6486354 -1.2661333 6 2
-5.1231771 -9.0037842 -0.12060163 1 18
-3.7322755 -8.3671064 -1.4253609 0 3
-4.5630355 -9.0176296 -0.82503581 1 7
-3.4837372 -8.9630499 -0.61629492 0 9
-5.1405301 -9.0342827 -0.60534352 2 10
-4.5647264 -9.0209713 -0.52984929 1 11
-3.4966784 -8.9963446 -0.39323238 0 13
-1.5700784 -3.0774684 -1.6110209 1 0
-2.3159139 -5.145936 -1.5797117 2 1
-2.882345 -5.6496072 -1.2684867 6 2
-5.160965 -9.0006237 -0.12078788 1 18
-3.7616236 -8.3582869 -1.4259758 0 3
-5.1686897 -9.0140963 -0.96996439 0 6
-4.0782423 -9.0618105 -0.46289164 0 12
-3.5133502 -8.9512167 -0.39176691 0 13
-4.0553007 -9.0108347 -0.22993289 0 16
-2.337049 -5.144835 -1.5818683 2 1
-2.9074326 -5.6499743 -1.2708402 6 2
-5.208365 -9.0102568 -0.1211604 1 18
-3.7940462 -8.3523026 -1.4272057 0 3
-45.736908 -88.879913 -12.723292 63 4
-4.090642 -9.0052366 -1.0654016 1 5
-4.0795288 -8.9807711 -0.68975204 1 8
-4.6881576 -9.1104326 -0.83642685 1 7
-5.2378774 -9.0613117 -0.6095295 1 10
-4.091671 -9.0075016 -0.46084425 1 12
-3.5475214 -8.9463301 -0.39209259 0 13
-4.0801144 -8.9820595 -0.22956066 0 16
-1.5887187 -3.0597196 -1.6076399 1 0
-2.362314 -5.150239 -1.5861815 2 1
-2.938966 -5.6601658 -1.2755469 5 2
-5.2534409 -9.0118389 -0.12143978 1 18
-3.8262813 -8.3419323 -1.4278204 0 3
-4.6810226 -9.0151997 -1.2929868 1 4
-4.1186466 -8.9793386 -1.0641164 1 5
-5.2872162 -9.0697784 -0.98000234 0 6
-4.1223993 -8.9875193 -0.69142616 0 8
-3.5996814 -8.981657 -0.62013233 0 9
-5.2730656 -9.0455036 -0.60976213 1 10
-4.6810312 -9.0152168 -0.53236145 2 11
-3.5906951 -8.9592352 -0.39323238 0 13
-1.6005377 -3.057646 -1.6093304 4 0
-2.3809972 -5.1458731 -1.5872599 2 1
-2.9613578 -5.6573386 -1.2771158 6 2
-5.2974772 -9.0185099 -0.12176573 1 18
-3.8439651 -8.3076773 -1.4241312 0 3
-4.699851 -8.9785337 -1.2899562 1 4
-3.6234567 -8.9548693 -0.61910903 0 9
-5.3151674 -9.0486259 -0.61115742 1 10
-4.7201638 -9.0173378 -0.53340811 1 11
-3.6263816 -8.9620981 -0.39388371 0 13
-1.6128938 -3.0552464 -1.6110209 3 0
-2.3989453 -5.1375303 -1.5872599 1 1
-2.9865813 -5.657373 -1.2794693 6 2
-5.3350391 -9.0102873 -0.12190542 1 18
-3.8712687 -8.2906265 -1.4235162 0 3
-46.435432 -87.96096 -12.660663 63 4
-4.235816 -9.0713329 -0.70007598 1 8
-4.219583 -9.0365686 -0.46456674 0 12
-3.6606674 -8.9567833 -0.39420933 0 13
-5.3219671 -8.9882107 -0.36476955 1 14
-1.6235487 -3.0495977 -1.6110209 2 0
-4.8006916 -9.0173931 -0.29730526 0 15
-2.4250741 -5.1465473 -1.5926514 2 1
-3.0099976 -5.6538382 -1.2810383 5 2
-5.3746581 -9.0053482 -0.12209169 1 18
-3.896816 -8.2699118 -1.4222864 0 3
-4.246491 -9.0120001 -1.0731125 1 5
-5.4476867 -9.1277094 -0.99227095 0 6
-4.8111558 -9.0370483 -0.83577591 1 7
-5.4314179 -9.1004515 -0.61720389 1 10
-4.813036 -9.0405807 -0.53675765 1 11
-3.6903856 -8.9402571 -0.39404652 1 13
-1.6307536 -3.0375242 -1.6076399 1 0
-2.451293 -5.1554451 -1.5980428 2 1
-3.0352793 -5.6536651 -1.2833916 5 2
-5.4225516 -9.0139523 -0.1224642 1 18
-3.9273548 -8.2598295 -1.4229013 0 3
-4.836782 -9.0092354 -1.3015729 1 4
-4.2642589 -8.9683905 -1.0696855 1 5
-4.2767649 -8.9946928 -0.69644862 0 8
-3.7508214 -8.9974928 -0.62473732 0 9
-5.4363894 -9.0369539 -0.61418062 3 10
-4.8483415 -9.0307665 -0.53717631 2 11
-3.743098 -8.9789658 -0.39632609 1 13
-5.3845844 -8.9508381 -0.36476955 1 14
-1.6442684 -3.0384762 -1.6110209 3 0
-2.4667101 -5.1438141 -1.5969645 1 1
-3.0596116 -5.6539168 -1.285745 6 2
-5.4669256 -9.0198631 -0.12279015 1 18
-3.9547241 -8.2467604 -1.4229013 0 3
-4.8722973 -9.0036144 -1.3030882 1 4
-5.4745955 -9.0325174 -0.98595077 0 6
-3.7682524 -8.9555693 -0.62269062 0 9
-3.7728531 -8.9665041 -0.39632609 1 13
-5.503335 -9.0799351 -0.37077227 1 14
-1.6566012 -3.0359006 -1.6127114 1 0
-2.4947166 -5.1559768 -1.6034343 1 1
-3.0830865 -5.6500888 -1.2873139 6 2
-5.5067182 -9.0143785 -0.12297641 1 18
-3.9869297 -8.2400217 -1.4241312 0 3
-47.535446 -87.113838 -12.631874 63 4
-4.3848157 -9.062355 -0.70398229 1 8
-4.3768392 -9.0458698 -0.46810311 0 12
-3.8119445 -8.971673 -0.39714026 1 13
-5.5245767 -9.0436125 -0.37007424 1 14
-1.6671885 -3.0300992 -1.6127114 1 0
-2.5042508 -5.12993 -1.5980428 0 1
-3.1103537 -5.6530385 -1.2904519 6 2
-5.5549278 -9.0223494 -0.12334893 1 18
-4.0156689 -8.2260542 -1.4241312 0 3
-4.9828558 -9.0562925 -1.3157148 1 4
-4.3895321 -8.9919081 -1.0778247 1 5
-5.5792823 -9.0619068 -0.99338627 0 6
-4.3884158 -8.9896221 -0.69951797 2 8
-4.9698911 -9.0327291 -0.84163421 1 7
-5.5794044 -9.0621052 -0.619762 1 10
