# .PCD v0.7 - Point Cloud Data file format
VERSION 0.7
FIELDS x y z intensity ring
SIZE 4 4 4 4 2
TYPE F F F F U
COUNT 1 1 1 1 1
WIDTH 1288
HEIGHT 1
VIEWPOINT 0 0 0 1 0 0 0
POINTS 1288
DATA ascii
-1.9876966 5.0203471 0.21998216 0 26
-2.2778671 5.0215292 -0.25685182 2 12
-2.0763185 5.2441807 -0.2955935 3 11
-3.1243927 6.8876843 0.92864448 15 29
-1.9533975 4.9337177 0.4331845 0 28
-2.5064745 4.8770714 -0.22340158 0 13
-1.6618785 4.8817344 -0.18008141 0 14
-7.4299078 16.379137 4.819211 2 31
-1.9802601 5.0015645 0.98078895 0 30
-2.3094556 5.0911655 -0.13008749 7 16
-3.5714521 7.0093727 -0.13731554 1 17
-2.064328 5.2675462 -0.16465242 3 15
-2.4174323 5.3790331 -1.6508795 2 1
-1.9063098 4.8643317 -1.0449129 9 2
-2.2988477 5.11517 0 4 20
-1.649545 4.9015265 -0.060207687 0 18
-2.192132 4.877717 -0.83197296 15 3
-1.9125767 4.8803225 -0.66720134 11 4
-2.4969049 4.900454 0.031965528 0 21
-2.1147895 5.3963089 -0.033685856 4 19
-2.1927011 4.878983 -0.57618213 12 5
-1.6425158 4.88064 -0.48070678 28 6
-2.3408461 5.2086205 0.13287906 6 24
-1.6520964 4.9091082 0.060300816 0 22
-2.2000129 4.8952527 -0.37528983 8 8
-1.915797 4.8885398 -0.42862806 16 7
-2.5049663 4.9162755 0.16057976 0 25
-2.4791491 4.8656058 -0.34997568 5 9
-1.6443187 4.8859973 -0.30022991 1 10
-3.2869318 7.3137574 0.46697265 5 27
-1.9380765 4.9453907 0.21639994 0 26
-2.2586856 5.0258055 -0.25666568 2 12
-2.0652864 5.2699924 -0.29664022 2 11
-3.0921924 6.8804426 0.92620707 14 29
-1.9317983 4.9293709 0.43220812 0 28
-2.4985063 4.9035969 -0.22421573 0 13
-1.6410013 4.8761396 -0.17966262 1 14
-1.9383787 4.9461617 0.96859181 0 30
-2.2834723 5.0809584 -0.12962222 4 16
-3.5458064 7.0134196 -0.13717592 0 17
-2.0651364 5.3187318 -0.16604877 3 15
-2.3989546 5.3830824 -1.6498013 3 1
-1.8881804 4.8629837 -1.043344 9 2
-2.2746265 5.1040988 0 4 20
-1.6366668 4.9142737 -0.060300816 0 18
-2.1719716 4.8737488 -0.83012819 15 3
-1.8943636 4.8789086 -0.66619116 11 4
-2.4833028 4.9118433 0.031988773 0 21
-2.0876925 5.3768249 -0.03352312 1 19
-2.1708879 4.8713169 -0.57446861 12 5
-1.6234003 4.8744402 -0.47959143 28 6
-2.3293555 5.2269073 0.13315822 6 24
-1.6303476 4.8952999 0.060067993 0 22
-2.1813757 4.8948507 -0.37473178 8 8
-1.8975447 4.8871017 -0.42797714 17 7
-7.713872 15.257636 0.49756446 1 25
-1.9035672 4.9026122 0.091799662 0 23
-2.4620509 4.8698077 -0.34971985 5 9
-1.6289618 4.8911386 -0.30022991 1 10
-3.2395577 7.2693357 0.46348432 2 27
-1.9181917 4.9402776 0.21591145 0 26
-2.2380071 5.0219274 -0.2561073 2 12
-2.0747459 5.3434811 -0.30040842 2 11
-3.0657144 6.8792434 0.92474467 14 29
-1.9206328 4.9465647 0.4331845 0 28
-1.6256753 4.8812709 -0.17966262 0 14
-1.9427718 5.0035834 0.9786365 0 30
-2.265872 5.0844545 -0.12952916 7 16
-2.4542027 4.8987908 -0.095639192 0 17
-2.0456295 5.3262644 -0.16604877 2 15
-2.37921 5.3918386 -1.6498013 4 1
-1.8661262 4.8588862 -1.0409906 10 2
-2.2542901 5.1087413 0 4 20
-1.6136454 4.9050412 -0.060114555 0 18
-2.1524997 4.8780603 -0.82951331 15 3
-1.8736248 4.8784103 -0.66518104 11 4
-2.4599097 4.910183 0.031919032 0 21
-2.0722752 5.3956418 -0.033592865 1 19
-2.1514149 4.8756022 -0.57404023 12 5
-1.6030358 4.8727908 -0.47884789 27 6
-2.3117979 5.2390671 0.13325126 7 24
-1.6161454 4.9126406 0.060207687 0 22
-2.1553674 4.8845592 -0.37333664 8 8
-1.8767624 4.88658 -0.42732626 20 7
-2.4678645 4.9260612 0.16034701 0 25
-1.9013596 4.9506245 0.092567563 0 23
-2.4406109 4.8716607 -0.34920818 5 9
-1.6072816 4.8856969 -0.29953226 1 10
-3.2080584 7.2701998 0.46278664 4 27
-1.8914753 4.9248886 0.21493447 0 26
-2.2179742 5.0264406 -0.25592119 2 12
-2.0508518 5.3398614 -0.29978037 2 11
-3.0340707 6.8759041 0.92279476 13 29
-1.8810505 4.8977451 0.42830265 0 28
-3.2276881 6.4427319 -0.29358095 1 13
-1.6065257 4.883399 -0.17952301 0 14
-1.9215991 5.0033226 0.97720158 0 30
-2.2391508 5.0744319 -0.1290639 5 16
-2.4344513 4.904171 -0.09556938 0 17
-2.0033755 5.2739234 -0.16418697 2 15
-2.3609726 5.4040527 -1.6508795 3 1
-1.8510896 4.8730278 -1.0425596 11 2
-2.2451575 5.1389627 0 2 20
-1.5907117 4.8957071 -0.059928298 0 18
-2.1298578 4.875052 -0.82766861 16 3
-1.8571397 4.8889546 -0.66568613 11 4
-2.438338 4.9120007 0.031872537 0 21
-2.0311778 5.3471131 -0.033244148 1 19
-2.1287525 4.8725219 -0.57275504 12 5
-1.5839335 4.8748455 -0.47847611 29 6
-2.2813721 5.2218547 0.13259991 4 24
-1.5981277 4.9185314 0.060207687 0 22
-2.1374488 4.892427 -0.37333664 9 8
-1.856007 4.8859725 -0.42667535 18 7
-2.4444587 4.9243307 0.15999794 0 25
-1.8746794 4.9351282 0.092148706 0 23
-2.4191878 4.8734226 -0.34869653 5 9
-1.5881287 4.8877573 -0.29929969 1 10
-3.1717958 7.259954 0.4613913 4 27
-1.867734 4.9168439 0.21428315 0 26
-2.194736 5.0235519 -0.25536281 2 12
-1.9404824 5.1083555 -0.28638238 1 11
-3.0056682 6.8797026 0.92181975 13 29
-1.8715798 4.9269681 0.43025535 0 28
-3.1898344 6.42588 -0.29227829 2 13
-1.5886152 4.8892546 -0.17952301 0 14
-1.8976573 4.9956179 0.97433162 0 30
-2.2125309 5.0642829 -0.12859865 3 16
-0.15951252 0.42415112 -0.21130913 31 0
-1.9450613 5.1720076 -0.16081248 2 15
-2.3445704 5.4153867 -1.6519579 3 1
-1.8307787 4.868125 -1.0402062 11 2
-2.2455864 5.1867571 0 2 20
-1.5756927 4.9047632 -0.059974868 0 18
-2.1089694 4.8712058 -0.82582384 16 3
-1.8339343 4.8765159 -0.66316074 11 4
-2.4114373 4.8985267 0.031733051 0 21
-1.850108 4.9195228 -0.03054742 0 19
-2.1078436 4.8686051 -0.5714699 12 5
-1.5653238 4.872488 -0.47773257 31 6
-2.2703993 5.2440691 0.13297211 5 24
-1.5818094 4.9238033 0.060207687 0 22
-2.1180432 4.8921638 -0.37277859 8 8
-1.8355851 4.8809052 -0.42569897 17 7
-2.4228187 4.9216466 0.15964885 0 25
-1.8568965 4.9375734 0.092078894 0 23
-2.3959627 4.8670921 -0.34767321 4 9
-1.5694697 4.8853927 -0.29883459 1 10
-3.1397722 7.2521086 0.46022853 4 27
-1.8443854 4.9043059 0.21346901 0 26
-2.1701283 5.0124679 -0.2544322 2 12
-2.7615631 7.3431234 -0.41115132 1 11
-1.859442 4.9443421 0.43123174 0 28
-2.4112444 4.8981347 -0.2224246 1 13
-1.5711714 4.8906898 -0.17938341 0 14
-6.2339649 14.39894 4.204257 3 31
-1.8700001 4.9724169 0.96859181 0 30
-2.2195578 5.1266375 -0.12999444 1 16
-0.15803108 0.42470533 -0.21130913 31 0
-3.2042778 6.5668263 -0.1275422 0 17
-1.9200253 5.1600289 -0.16023067 2 15
-2.3241363 5.4199967 -1.6508795 4 1
-1.8151435 4.8781614 -1.0409906 11 2
-2.236927 5.2166209 0 2 20
-1.5585632 4.9102335 -0.059974868 0 18
-2.0872812 4.8676395 -0.82397914 16 3
-1.8155181 4.8791685 -0.66265565 11 4
-2.3925707 4.9033189 0.031709805 0 21
-1.8301357 4.9184527 -0.030500924 0 19
-2.0877028 4.8686223 -0.57061309 12 5
-1.5458974 4.8703294 -0.476989 34 6
-2.242626 5.2299104 0.1324138 6 24
-1.5634034 4.9254823 0.060161121 0 22
-2.0962369 4.8885245 -0.37194151 9 8
-1.8157568 4.8798099 -0.42504805 18 7
-2.403872 4.9264803 0.15953249 0 25
-1.8326774 4.9252834 0.091729842 0 23
-2.3737082 4.8646626 -0.34690574 3 9
-1.5499918 4.8832293 -0.2983695 1 10
-3.109719 7.2520132 0.45953086 3 27
-1.8244684 4.9032221 0.21314333 0 26
-2.1541944 5.023684 -0.25461832 2 12
-2.7345223 7.3489738 -0.41094196 1 11
-2.9572086 6.8963518 0.9213323 26 29
-1.8185375 4.8872828 0.42569897 0 28
-2.4519711 5.0250535 -0.22779796 1 13
-1.5492535 4.8809028 -0.17882502 0 14
-6.1714864 14.392201 4.1959743 3 31
-1.8581223 4.9936662 0.97146177 0 30
-2.1275787 4.9616151 -0.12562096 1 16
-1.9227191 5.2229819 -0.1619761 2 15
-2.3021896 5.4209867 -1.6487229 4 1
-1.7940381 4.873426 -1.0386373 12 2
-1.5414125 4.9156442 -0.059974868 0 18
-2.0718207 4.8785348 -0.82459402 17 3
-1.7943619 4.8743057 -0.66114044 11 4
-2.373697 4.9080405 0.031686556 0 21
-1.8032819 4.8985362 -0.030338192 0 19
-2.06603 4.8648992 -0.56932795 13 5
-1.525311 4.8642955 -0.47587368 32 6
-2.218102 5.2229848 0.13204159 7 24
-4.6409917 14.800364 0.1805765 2 22
-2.0775988 4.8921404 -0.37166247 9 8
-1.7973334 4.8823771 -0.42472258 18 7
-2.3814368 4.9240437 0.1591834 0 25
-1.8154722 4.9316511 0.091729842 0 23
-2.3514974 4.8621387 -0.34613824 3 9
-1.5305456 4.8809891 -0.29790434 1 10
-3.0843835 7.2628255 0.45953086 1 27
-1.8087212 4.913312 0.21330617 0 26
-2.1335201 5.023819 -0.25424606 2 12
-1.799461 4.8881569 -0.27298436 1 11
-2.9315636 6.9029794 0.92084479 25 29
-1.8014653 4.8936014 0.42569897 0 28
-2.4344137 5.0335832 -0.22779796 1 13
-1.5334013 4.8900957 -0.17896461 0 14
-6.1166759 14.402991 4.1928687 3 31
-1.839319 4.9964294 0.97074425 0 30
-2.1805866 5.1346469 -0.12980832 2 16
-1.8771112 5.1545238 -0.15964885 2 15
-2.2802651 5.4218893 -1.6465664 3 1
-1.7716457 4.8649168 -1.0354993 11 2
-2.2035527 5.2394867 0 2 20
-1.5242429 4.9209952 -0.059974868 0 18
-2.0471163 4.8675208 -0.82151949 16 3
-1.7759775 4.876812 -0.66063541 11 4
-2.3513625 4.9054761 0.031616811 0 21
-1.7875392 4.9085603 -0.03036144 0 19
-2.0459509 4.8647499 -0.56847113 12 5
-1.5071424 4.8657866 -0.47550189 33 6
-2.1983054 5.2270103 0.13194853 5 24
-4.5833793 14.797371 0.18034367 2 22
-2.0558674 4.888329 -0.37082544 10 8
-1.77755 4.8811302 -0.42407167 18 7
-7.0529494 14.714055 0.4748739 1 25
-1.7872972 4.907896 0.091171376 0 23
-2.3345098 4.8703179 -0.34613824 3 9
-1.5111343 4.878674 -0.29743925 1 10
-2.2029214 5.2379856 0.33092734 1 27
-1.7833524 4.8970633 0.21232919 0 26
-2.1252635 5.0533352 -0.25536281 2 12
-1.7755514 4.8756418 -0.27193764 0 11
-2.8982134 6.8912134 0.91791999 19 29
-1.7884636 4.9110985 0.42667535 0 28
-2.4099171 5.0276346 -0.22714666 1 13
-1.5127726 4.8839631 -0.17854583 0 14
-6.0573721 14.402887 4.186657 3 31
-1.8178259 4.9917274 0.96859181 0 30
-2.1828027 5.1901484 -0.13101801 2 16
-2.4256883 5.1084862 -0.098710813 4 17
-1.8473727 5.1312733 -0.15871796 2 15
-2.2618592 5.4337664 -1.6476448 4 1
-1.751147 4.863996 -1.0339304 10 2
-2.1781864 5.2327557 0 6 20
-1.4980115 4.8997731 -0.059648912 0 18
-2.0231876 4.860395 -0.81905985 16 3
-1.7554041 4.8758206 -0.65962523 11 4
-2.3453784 4.9393544 0.031779546 0 21
-1.7736025 4.9263687 -0.030431181 0 19
-2.0281081 4.8722157 -0.56847113 12 5
-1.4892994 4.8712773 -0.47550189 33 6
-2.1837442 5.2461071 0.1322277 5 24
-1.5015197 4.9112482 0.059788607 0 22
-2.0333378 4.8847795 -0.36998835 10 8
-1.7555976 4.876358 -0.42309529 20 7
-6.974966 14.68924 0.47324485 1 25
-1.774717 4.9294643 0.091450609 0 23
-2.3097959 4.8644176 -0.34511492 3 9
-1.4944115 4.8879981 -0.29767182 1 10
-2.2051938 5.2976365 0.3341831 5 27
-1.7640393 4.899806 0.21216637 0 26
-1.7603769 4.8896332 -0.27235636 1 11
-2.8729379 6.9017887 0.91791999 13 29
-1.7677517 4.9101176 0.42602441 0 28
-2.3846173 5.0219913 -0.22649533 1 13
-1.4925255 4.8818293 -0.17826663 0 14
-5.9986057 14.410721 4.1825156 3 31
-1.8008524 5.0020585 0.96930933 0 30
-2.1760602 5.2276478 -0.13176243 2 16
-2.40784 5.1169233 -0.098710813 6 17
-1.7892113 5.0246921 -0.15522709 1 15
-2.2414086 5.4380679 -1.6465664 4 1
-1.7315249 4.86269 -1.0323615 10 2
-2.1568575 5.2329316 0 5 20
-4.4727507 14.814474 -0.18015741 1 18
-2.0062079 4.8674283 -0.81905985 16 3
-1.7357099 4.8744426 -0.65861505 12 4
-1.7550522 4.9287624 -0.030407935 0 19
-2.0080562 4.871912 -0.56761438 12 5
-1.4722852 4.8764467 -0.47550189 34 6
-2.1684649 5.2610931 0.1324138 8 24
-1.4889902 4.9317765 0.059974868 0 22
-2.0117114 4.8807807 -0.36915126 10 8
-1.7345518 4.8711905 -0.4221189 17 7
-2.3169606 4.9237947 0.15836887 0 25
-1.7481065 4.9092565 0.090961948 0 23
-2.2894013 4.8652282 -0.34460327 2 9
-1.4761847 4.8893628 -0.29743925 1 10
-2.1851652 5.3016109 0.33395058 3 27
-1.7536271 4.9247599 0.21298052 0 26
-2.1164556 5.1349092 -0.25871307 6 12
-1.7446367 4.8995123 -0.27256569 1 11
-2.8427751 6.8970933 0.91597003 13 29
-1.7506 4.9162593 0.42602441 0 28
-2.3653698 5.0266695 -0.22633252 1 13
-1.477785 4.8946633 -0.17854583 0 14
-5.9438462 14.420859 4.17941 5 31
-1.7780994 4.9934864 0.96643949 0 30
-2.1623693 5.246304 -0.13204159 6 16
-2.3730628 5.0890489 -0.098012716 3 17
-1.7172107 4.8762836 -0.15045625 1 15
-2.2238688 5.4494243 -1.6476448 4 1
-1.7145416 4.8687038 -1.0323615 10 2
-2.1400902 5.2441306 0 4 20
-1.4649109 4.9139452 -0.059695479 0 18
-1.9862194 4.8670821 -0.81783003 17 3
-1.7134135 4.8655009 -0.65659481 12 4
-2.3987408 5.1441159 0.032988425 6 21
-1.7245517 4.8971295 -0.030175459 0 19
-1.9865307 4.8678446 -0.56632924 12 5
-1.4529796 4.8739223 -0.47475833 34 6
-2.1500881 5.2686296 0.1324138 4 24
-1.4649109 4.9139452 0.059695479 0 22
-1.9961705 4.8914661 -0.3694303 10 8
-1.7175387 4.8772149 -0.4221189 21 7
-2.2946911 4.92098 0.15801978 0 25
-1.7322887 4.9191003 0.091031753 0 23
-2.2707183 4.8695707 -0.34434742 2 9
-1.457969 4.8906584 -0.2972067 1 10
-2.1696639 5.3165989 0.33441567 1 27
-1.7284615 4.9082322 0.21200353 0 26
-2.1211653 5.1977568 -0.26150492 4 12
-1.724871 4.8980365 -0.272147 1 11
-2.8141832 6.8959451 0.91450763 11 29
-1.7400507 4.9411411 0.42765167 0 28
-2.3393648 5.0167832 -0.22551836 1 13
-1.4641178 4.9112844 -0.17896461 0 14
-5.8803353 14.409321 4.1700926 5 31
-1.7567378 4.9885268 0.96428704 0 30
-2.141022 5.2464142 -0.13185549 6 16
-2.3537068 5.0892191 -0.097873099 4 17
-1.701884 4.8816538 -0.15045625 1 15
-2.2024066 5.4456706 -1.6444098 4 1
-1.695365 4.8629546 -1.0300081 9 2
-2.1251059 5.2545366 0 5 20
-4.3653607 14.813118 -0.17978491 1 18
-1.9664748 4.8623052 -0.81598526 16 3
-1.6955082 4.8633657 -0.65558463 11 4
-2.3825693 5.1516261 0.032988425 8 21
-1.7117931 4.9100771 -0.030221954 0 19
-1.9697382 4.8703747 -0.56590086 11 5
-1.4342841 4.8670015 -0.473643 33 6
-2.135026 5.2790651 0.13250685 3 24
-1.4472058 4.9108491 0.05960235 0 22
-1.9733145 4.8792171 -0.36803514 10 8
-1.7008965 4.8788214 -0.42179343 20 7
-3.3986912 7.3486996 0.23563333 0 25
-1.715511 4.9207411 0.090961948 0 23
-2.2520585 4.8694339 -0.34383577 1 9
-1.4403404 4.8875532 -0.29674158 1 10
-2.9314883 7.2483974 0.45534483 2 27
-1.7077718 4.8985419 0.21135223 0 26
-2.1153135 5.2303243 -0.26280779 6 12
-1.705531 4.8921146 -0.27151898 1 11
-2.7865529 6.8900304 0.91255772 8 29
-1.7022091 4.8825865 0.4221189 0 28
-2.3252711 5.0277348 -0.22568119 1 13
-5.829247 14.413396 4.1659517 3 31
-1.7384673 4.986589 0.962852 0 30
-2.1455214 5.305016 -0.13315822 8 16
-0.14760724 0.42843965 -0.21130913 31 0
-2.3317058 5.0905404 -0.097733475 6 17
-1.6826766 4.8840785 -0.15033989 1 15
-2.182431 5.4537067 -1.6444098 3 1
-1.6762509 4.8654275 -1.0292236 10 2
-2.1117759 5.2771454 0 4 20
-1.4325454 4.9276443 -0.059742045 0 18
-1.9471706 4.8658113 -0.81537038 15 3
-1.6776704 4.8695478 -0.65558463 12 4
-2.3453476 5.1203227 0.032732703 4 21
-1.6924809 4.9125366 -0.030198704 0 19
-1.9503953 4.8738694 -0.56547248 12 5
-1.4142113 4.8645782 -0.47289947 35 6
-2.1216042 5.3017058 0.13287906 2 24
-1.4280791 4.9122806 0.059555784 0 22
-1.9524516 4.8790078 -0.36747709 10 8
-1.6778077 4.8699465 -0.42049164 21 7
-1.6974627 4.9269962 0.090961948 0 23
-2.229208 4.8667688 -0.34306827 1 9
-1.4224157 4.8928003 -0.29674158 1 10
-2.9019327 7.2516789 0.45487973 4 27
-1.6937104 4.9161053 0.21184072 0 26
-2.1094885 5.2714295 -0.26448292 6 12
-1.6849854 4.89078 -0.27110028 1 11
-2.7583289 6.8928261 0.91158277 7 29
-1.6985855 4.9302554 0.42569897 0 28
-2.3018336 5.0253239 -0.2251927 1 13
-5.7720699 14.423905 4.1628461 5 31
-1.7163323 4.9817667 0.96069968 0 30
-2.11269 5.2794299 -0.13232075 6 16
-2.3040063 5.0767965 -0.097314619 6 17
-1.6630404 4.8823524 -0.15010716 1 15
-2.1605446 5.4541287 -1.6422532 3 1
-1.6554642 4.8601103 -1.0268701 9 2
-2.1080747 5.3216729 0 2 20
-1.9258078 4.8615541 -0.81352568 15 3
-1.6593838 4.8716178 -0.65507954 11 4
-2.3225019 5.1175504 0.032662958 5 21
-1.6714547 4.9070554 -0.030128961 1 19
-1.930442 4.8732524 -0.56461567 12 5
-1.3961245 4.8656564 -0.47252765 33 6
-2.1310682 5.3797178 0.13464706 6 24
-1.4109243 4.9172354 0.059555784 0 22
-1.9310011 4.8746638 -0.36664 10 8
-1.6569427 4.8644514 -0.41951525 18 7
-1.6763864 4.9215336 0.090752512 0 23
-2.2105572 4.8708844 -0.34281245 1 9
-1.4042277 4.8938971 -0.29650903 1 10
-2.8721912 7.2506266 0.45418206 4 27
-1.6804066 4.9333363 0.21232919 0 26
-2.0822465 5.2564716 -0.26336616 4 12
-1.6627523 4.8815064 -0.2702629 1 11
-2.7313285 6.8950291 0.91060776 6 29
-1.6697972 4.9021893 0.42276981 0 28
-2.2809756 5.0260487 -0.22486703 1 13
-1.523723 5.3103518 -0.19292443 1 14
-5.7117281 14.418819 4.1555991 5 31
-1.6963955 4.9802766 0.95926464 0 30
-2.0986676 5.2979255 -0.13259991 5 16
-2.2674685 5.0406413 -0.096476905 3 17
-1.637903 4.8613186 -0.14929263 2 15
-2.1424448 5.4612641 -1.6422532 3 1
-1.6393368 4.8655744 -1.0268701 9 2
-2.1108658 5.3807669 0 6 20
-1.5538059 5.4837294 -0.066354178 1 18
-1.908231 4.8642344 -0.81291074 16 3
-1.6394175 4.8658137 -0.65356433 11 4
-2.2973125 5.1069856 0.032546721 4 21
-1.6564486 4.9163623 -0.030152211 1 19
-1.9142699 4.8796277 -0.56461567 13 5
-1.3788946 4.8664279 -0.47215593 34 6
-1.3935186 4.9180393 0.059509221 0 22
-1.9133672 4.877327 -0.36636099 10 8
-1.6395283 4.8661423 -0.41918981 21 7
-1.6549473 4.9119062 0.090473272 0 23
-2.1862032 4.8599873 -0.34153327 1 9
-1.384724 4.887001 -0.29581136 1 10
-2.8452132 7.252677 0.45371696 4 27
-2.0735581 5.2856665 -0.26448292 3 12
-1.6478295 4.8907804 -0.27047226 1 11
-2.7055473 6.8966575 0.90963286 4 29
-1.657349 4.9190345 0.4237462 0 28
-2.2577362 5.0190067 -0.22421573 1 13
-1.5082829 5.3230681 -0.19320361 2 14
-5.6596451 14.426891 4.152493 5 31
-1.6798694 4.9858756 0.95926464 0 30
-2.0942299 5.3383608 -0.13343737 4 16
-2.2408431 5.0306511 -0.09612786 3 17
-1.6213382 4.8710818 -0.14940898 1 15
-2.1238086 5.4726701 -1.6433314 2 1
-1.6190164 4.8641062 -1.0253012 9 2
-2.0954728 5.3996539 0 1 20
-1.5250876 5.4585686 -0.065981664 1 18
-1.8889611 4.8675108 -0.81229585 16 3
-1.6215737 4.871789 -0.65356433 13 4
-2.2736976 5.1044087 0.032476977 4 21
-1.635893 4.9148092 -0.030105716 0 19
-1.8934958 4.8791957 -0.56375891 13 5
-1.3610501 4.8714485 -0.47215593 33 6
-1.9068272 4.9135485 0.12264328 0 24
-1.3765612 4.9269652 0.059555784 0 22
-1.8940355 4.8805861 -0.36608195 10 8
-1.620424 4.8683352 -0.41886434 21 7
-2.3280883 5.2265148 0.16651422 3 25
-1.6331453 4.9065542 0.090263851 0 23
-2.1667528 4.8643203 -0.34127748 1 9
-1.364655 4.8843513 -0.29534626 1 10
-2.8128345 7.2481651 0.45278674 4 27
-1.6383513 4.922195 0.21135223 0 26
-2.0744107 5.3453803 -0.26708865 5 12
-1.6261094 4.8854156 -0.2698442 1 11
-2.6788168 6.9028258 0.90914541 2 29
-1.6292374 4.8948135 0.42114252 0 28
-2.234448 5.0162945 -0.22372724 1 13
-1.4661742 5.2477074 -0.19027205 1 14
-5.6151199 14.469148 4.1587048 3 31
-1.6603427 4.988265 0.95854723 0 30
-2.0804381 5.3609123 -0.13380958 3 16
-2.2232678 5.0384431 -0.09612786 2 17
-1.6055732 4.8805103 -0.14952534 1 15
-2.1033099 5.4764552 -1.6422532 2 1
-1.5995749 4.862277 -1.0237323 9 2
-2.0852149 5.4293408 0 1 20
-1.4932691 5.4175887 -0.065422893 1 18
-1.8705403 4.8703856 -0.81168091 16 3
-1.6020766 4.8698816 -0.65255421 12 4
-2.267168 5.1379313 0.032639708 3 21
-1.6162258 4.9128909 -0.03005922 0 19
-1.8735993 4.8783503 -0.56290209 13 5
-1.3419194 4.8684912 -0.47141233 34 6
-1.8867953 4.9127092 0.12245718 0 24
-1.3997405 5.0782661 0.06132523 0 22
-1.872694 4.8759933 -0.3652449 10 8
-1.6034191 4.8739624 -0.41886434 21 7
-1.6185066 4.9198241 0.090403467 0 23
-2.15137 4.8755064 -0.34153327 1 9
-1.3433515 4.8736863 -0.29441601 1 10
-2.7846508 7.2504845 0.45232162 4 27
-1.6199092 4.9240875 0.21118939 0 26
-2.0543048 5.3488593 -0.26690251 4 12
-1.6065482 4.8834739 -0.26942554 1 11
-1.6133859 4.9042587 0.42146802 0 28
-2.2217634 5.0350337 -0.22421573 1 13
-1.4329747 5.1988401 -0.18831769 1 14
-5.5493369 14.448986 4.1473165 3 31
-1.6379999 4.9790783 0.95567727 0 30
-2.0402048 5.3121467 -0.1324138 1 16
-2.2097533 5.0531158 -0.096267477 2 17
-1.5893812 4.8858075 -0.14952534 1 15
-2.085139 5.4833999 -1.6422532 2 1
-1.5798031 4.8563643 -1.0213789 9 2
-1.8667359 4.9090533 0 0 20
-1.4553461 5.3491812 -0.064538166 1 18
-1.8515706 4.8691726 -0.81045115 17 3
-1.5846924 4.8713937 -0.65204912 13 4
-2.2677481 5.1857343 0.032895435 4 21
-1.5949768 4.9030085 -0.02996623 0 19
-1.8545859 4.8771024 -0.56204534 13 5
-1.3247231 4.869071 -0.47104058 34 6
-1.8761802 4.9338899 0.12282939 0 24
-1.8536791 4.8747172 -0.36468685 10 8
-1.5847821 4.8716698 -0.41821343 21 7
-1.6021841 4.9251642 0.090403467 0 23
-2.1287942 4.8679838 -0.34050998 1 9
-1.3271834 4.8781142 -0.29441601 1 10
-2.7577553 7.252214 0.45185649 4 27
-1.5986272 4.9142299 0.21053809 0 26
-2.7906802 7.338798 -0.36573464 1 12
-1.5928177 4.8963714 -0.2698442 1 11
-1.6045148 4.9323292 0.42342076 0 28
-2.1986499 5.0277257 -0.2235644 1 13
-1.3747988 5.0531268 -0.18287337 1 14
-1.6226982 4.988225 0.95639479 0 30
-2.0041015 5.2702913 -0.13120411 2 16
-2.2182317 5.1235743 -0.097454235 1 17
-1.5653495 4.8725662 -0.14894354 1 15
-2.0609608 5.4801888 -1.6390183 2 1
-1.5607945 4.8583875 -1.0205945 10 2
-1.8416917 4.8971424 0 0 20
-1.4491981 5.4047017 -0.065143503 1 18
-1.8309304 4.8685274 -0.80922133 18 3
-1.5644009 4.8696136 -0.651039 13 4
-2.2614408 5.2233768 0.033081416 4 21
-1.5757732 4.9050131 -0.029942982 0 19
-1.8352991 4.8801441 -0.56161702 13 5
-1.3058378 4.8700471 -0.47066879 34 6
-1.8552697 4.9332466 0.12264328 0 24
-1.3321435 4.968153 0.059881732 1 22
-1.8315871 4.8702736 -0.36384976 10 8
-1.5620394 4.8622627 -0.41691157 21 7
-2.2573447 5.2139153 0.1653506 4 25
-1.5877925 4.9424262 0.090612896 0 23
-2.1061807 4.8647637 -0.33974248 1 9
-1.3113648 4.8906598 -0.29488114 1 10
-2.7283461 7.254797 0.4513914 4 27
-1.5744938 4.9010305 0.20972393 0 26
-2.7525129 7.3190575 -0.36424565 2 12
-1.5834143 4.9287977 -0.27130961 1 11
-2.5952058 6.9007702 0.90524554 0 29
-1.5778913 4.9116063 0.42114252 0 28
-2.1786206 5.0320821 -0.22340158 1 13
-1.3707645 5.1121879 -0.18482774 1 14
-1.5935731 4.9604197 0.94993752 0 30
-1.9749192 5.2514 -0.13055275 2 16
-2.1246762 4.9548526 -0.094103374 0 17
-1.5495397 4.8818116 -0.14905989 1 15
-2.0471904 5.50179 -1.6433314 1 1
-1.5414512 4.856329 -1.0190254 10 2
-1.8204001 4.8922949 0 0 20
-1.4374787 5.4367952 -0.065469451 1 18
-1.8125451 4.8711843 -0.80860639 17 3
-1.544991 4.8674808 -0.65002882 12 4
-2.2305818 5.2018294 0.032895435 7 21
-1.5562202 4.9028587 -0.029896485 0 19
-1.8182517 4.8865213 -0.56161702 13 5
-1.2888288 4.8745756 -0.47066879 34 6
-1.462016 5.5296001 0.066587001 1 22
-1.8131826 4.8728981 -0.36357075 10 8
-1.5438499 4.8638859 -0.41658613 21 7
-2.2454326 5.2364626 0.16581605 4 25
-4.6789184 14.740891 0.26995382 2 23
-2.084466 4.8610802 -0.33897498 1 9
-1.2912217 4.883626 -0.29418349 1 10
-2.6974332 7.2493067 0.45046115 4 27
-1.5622115 4.9217339 0.21037525 0 26
-2.7269459 7.3286214 -0.36424565 1 12
-1.5504884 4.8848004 -0.26858816 0 11
-2.5683308 6.9023457 0.90427065 1 29
-1.5607357 4.9170847 0.42114252 0 28
-2.1531656 5.0212908 -0.22258744 1 13
-1.3723247 5.190372 -0.18748009 1 14
-1.5821996 4.9847059 0.95352489 0 30
-1.9482075 5.235775 -0.12999444 1 16
-1.5321467 4.8831086 -0.14894354 1 15
-2.0329297 5.5193915 -1.6465664 1 1
-1.5241655 4.8576722 -1.018241 11 2
-1.8055502 4.9020576 0 0 20
-1.4184331 5.4376621 -0.065422893 1 18
-1.7936506 4.8697505 -0.80737656 17 3
-1.5276544 4.8687916 -0.64952374 13 4
-2.2148848 5.2128782 0.03291868 4 21
-1.5387568 4.9041762 -0.029873239 0 19
-1.7965401 4.8775954 -0.55990338 13 5
-1.2716526 4.8749695 -0.47029704 36 6
-1.4426625 5.5305476 0.066540435 1 22
-1.7942563 4.8713946 -0.3630127 10 8
-1.5265197 4.8651748 -0.41626066 21 7
-2.2186754 5.2218003 0.16511787 4 25
-4.637197 14.779222 0.27037269 1 23
-2.0683355 4.8679652 -0.33897498 1 9
-1.2810682 4.9110646 -0.29557881 1 10
-2.6678598 7.2432227 0.44953093 3 27
-1.5470794 4.9307013 0.21053809 0 26
-1.7994515 4.8855 -0.24252023 1 12
-1.5342823 4.889915 -0.26858816 0 11
-1.8030694 4.8953223 0.64054531 0 29
-1.5444226 4.9222331 0.42114252 0 28
-1.5680182 4.9974346 0.95495987 0 30
-1.9225425 5.2196908 -0.12943611 2 16
-2.1861622 5.1981354 -0.098431572 2 17
-1.5095056 4.873414 -0.14847808 1 15
-2.0153213 5.5340452 -1.6487229 2 1
-1.5051893 4.859479 -1.0174565 12 2
-1.7930448 4.923677 0 0 20
-1.4024736 5.4583201 -0.06560915 1 18
-1.7757888 4.8762922 -0.80737656 18 3
-1.5097979 4.8743577 -0.64952374 14 4
-2.1880088 5.2025261 0.032802444 6 21
-1.5231376 4.9174247 -0.029919734 0 19
-1.7759278 4.8766742 -0.55904663 14 5
-1.2517929 4.8718824 -0.46955344 37 6
-1.8007698 4.94489 0.12245718 0 24
-1.4203902 5.5280504 0.066447303 2 22
-1.7750231 4.8741894 -0.36273366 10 8
-1.507497 4.8669291 -0.41593525 22 7
-2.1979702 5.2262115 0.16500151 5 25
-4.580627 14.788479 0.27023306 1 23
-2.0442882 4.8607955 -0.33795169 1 9
-1.2590835 4.9002566 -0.29464859 1 10
-2.637193 7.2416964 0.44883326 4 27
-4.5834398 14.797561 0.63112575 1 26
-1.7760627 4.8770447 -0.24177572 1 12
-1.5163484 4.8955054 -0.26858816 0 11
-1.5169334 4.8973942 0.41853887 0 28
-2.1351013 5.0767255 -0.22437854 1 13
-1.3887814 5.4050312 -0.19487879 1 14
-5.2513728 14.420199 4.1121173 30 31
-1.542704 4.9805942 0.95065498 0 30
-1.8801349 5.1628256 -0.12785423 1 16
-2.1695423 5.2094254 -0.098501377 2 17
-1.4901466 4.8710065 -0.14824536 0 15
-1.9972981 5.5446692 -1.6498013 2 1
-1.4836285 4.8497 -1.0143187 11 2
-1.7650032 4.8997989 0 0 20
-1.3824314 5.4593053 -0.065562584 1 18
-1.7560786 4.8750234 -0.8061468 18 3
-1.4939358 4.8833923 -0.65002882 14 4
-2.1775253 5.2285943 0.03291868 8 21
-1.504794 4.9188857 -0.029896485 0 19
-1.7548519 4.8716178 -0.55776149 14 5
-1.2347803 4.8762221 -0.46955344 37 6
-1.7753675 4.9285707 0.12189886 0 24
-1.3893042 5.4864464 0.065888532 2 22
-1.7539423 4.8690925 -0.36189657 10 8
-1.4893337 4.8683491 -0.41560975 23 7
-2.1781778 5.2301607 0.16488515 4 25
-1.4987404 4.8990979 0.08942613 0 23
-2.0273094 4.8679013 -0.33795169 1 9
-1.2488334 4.9317188 -0.29627648 1 10
-2.6091938 7.2433429 0.44836816 3 27
-1.5070797 4.9263573 0.20988676 0 26
-1.7685082 4.9095287 -0.2430786 1 12
-2.2471244 7.3454227 -0.40256822 0 11
-2.4824562 6.8915091 0.89939582 2 29
-1.5021628 4.9102845 0.41918981 0 28
-2.1158319 5.0804577 -0.22421573 2 13
-1.3385053 5.2858381 -0.19041166 1 14
-5.1918421 14.412994 4.1048703 27 31
-1.52531 4.9859486 0.95065498 0 30
-1.8349981 5.0941105 -0.12599318 1 16
-1.471977 4.8723512 -0.148129 1 15
-1.9818084 5.5624943 -1.6530362 1 1
-1.4644209 4.8473401 -1.0127497 11 2
-1.7465453 4.902163 0 0 20
-1.3565869 5.4369326 -0.065236636 1 18
-1.7350701 4.8699546 -0.80430204 19 3
-1.4734366 4.8771825 -0.64851362 14 4
-2.154685 5.2250705 0.032848939 7 21
-1.4841433 4.9126225 -0.029826745 0 19
-1.7378348 4.8777146 -0.55776149 13 5
-1.2167863 4.8766389 -0.46918169 37 6
-1.7635198 4.9498067 0.12227106 0 24
-1.3749846 5.5106668 0.066121355 2 22
-1.7342557 4.8676686 -0.36133853 10 8
-1.4700236 4.8658857 -0.41495886 22 7
-2.1538095 5.2229476 0.16441971 2 25
-1.4839423 4.9119573 0.089565754 0 23
-2.0072601 4.867568 -0.33743998 1 9
-1.2258093 4.9128017 -0.29488114 1 10
-2.578531 7.2373614 0.44743794 2 27
-1.4829381 4.9086332 0.20890979 0 26
-1.7674507 4.9608397 -0.24531209 1 12
-1.480979 4.9021482 -0.26837882 1 11
-2.4557185 6.8926539 0.89842087 2 29
-1.4815533 4.9040494 0.41821343 0 28
-2.0843704 5.0545592 -0.22275026 1 13
-1.3064958 5.2361774 -0.18845728 1 14
-5.1363091 14.416474 4.100729 30 31
-1.5044811 4.9799418 0.94850254 0 30
-1.7433883 4.893302 -0.12087528 0 16
-2.1542861 5.2762833 -0.099478714 5 17
-1.4538186 4.8736281 -0.14801264 1 15
-1.9585403 5.5584784 -1.6498013 1 1
-1.4463716 4.8486633 -1.0119653 11 2
-1.7214479 4.8855929 0 0 20
-1.3185064 5.3639522 -0.064305343 1 18
-1.7180611 4.8759809 -0.80430204 19 3
-1.4518672 4.8670864 -0.64649338 14 4
-2.1318979 5.2214499 0.032779194 5 21
-1.4681304 4.9216051 -0.029849991 0 19
-1.7181555 4.8762488 -0.55690467 16 5
-1.1969051 4.8692536 -0.46806636 39 6
-1.7382585 4.9333024 0.12171275 0 24
-1.3557416 5.5154324 0.066121355 2 22
-1.7159284 4.8699284 -0.36105949 10 8
-1.4518911 4.8671665 -0.41463339 23 7
-2.1385887 5.2378368 0.16465242 2 25
-1.4656451 4.9132738 0.089495942 0 23
-1.988749 4.8708496 -0.33718419 1 9
-1.2105604 4.9248061 -0.29534626 1 10
-1.4726506 4.9367585 0.20988676 0 26
-1.7182555 4.8765326 -0.2408451 1 12
-2.4316449 6.9011831 0.89842087 1 29
-2.1607423 7.2434444 0.61706823 0 28
-2.1105273 5.1691084 -0.22747231 4 13
-1.2691268 5.1630659 -0.18566532 1 14
-5.0769696 14.408805 4.093482 27 31
-1.4859649 4.9813924 0.94778508 0 30
-1.7236401 4.8918142 -0.12068918 1 16
-2.1352787 5.2796893 -0.099408902 5 17
-1.4376498 4.8784223 -0.14801264 1 15
-1.9388301 5.561305 -1.6487229 2 1
-1.4313943 4.8571949 -1.0127497 11 2
-1.706555 4.8950515 0 0 20
-1.2809334 5.2866626 -0.063327491 1 18
-1.6966788 4.8667221 -0.80184233 20 3
-1.4368417 4.87568 -0.64699841 15 4
-2.1145723 5.2284904 0.032779194 4 21
-1.4450184 4.9034262 -0.029710507 0 19
-1.69674 4.8668981 -0.5551911 15 5
-1.1816903 4.8770671 -0.46843815 39 6
-1.7192576 4.9314871 0.12152665 0 24
-1.3374453 5.5198979 0.066121355 3 22
-1.6971437 4.8680558 -0.36050147 10 8
-1.4334899 4.864306 -0.41398248 24 7
-2.1272049 5.259726 0.16511787 2 25
-1.4493448 4.918107 0.089495942 0 23
-1.9666001 4.8626142 -0.33616084 1 9
-1.1932831 4.9249125 -0.29511368 1 10
-1.7089268 4.901854 0.30232292 0 27
-1.4551429 4.9377818 0.20972393 0 26
-1.7033914 4.8859768 -0.24103123 1 12
-2.1276956 7.2199764 0.61446458 0 28
-2.1233447 5.2501812 -0.23072889 3 13
-1.2425858 5.1283946 -0.18426934 1 14
-5.024076 14.410968 4.0893412 29 31
-1.4649891 4.9711933 0.94491512 0 30
-1.7047769 4.8899508 -0.12050307 1 16
-0.12657781 0.43511665 -0.21130913 21 0
-2.1153486 5.2833986 -0.099339098 4 17
-1.9131277 5.5498314 -1.6433314 4 1
-1.4122384 4.8546305 -1.0111808 11 2
-1.6907601 4.9047608 0 0 20
-1.677103 4.8651428 -0.80061257 19 3
-1.4175956 4.8730464 -0.64598823 15 4
-2.0977938 5.2395535 0.032802444 3 21
-1.4267749 4.9045997 -0.029687257 0 19
-1.6784437 4.8690319 -0.55476278 15 5
-1.1618847 4.8695402 -0.46732283 39 6
-1.698122 4.9261169 0.12124749 0 24
-1.3181677 5.5245333 0.066121355 2 22
-1.6775386 4.8664064 -0.35994342 10 8
-1.4176137 4.8731084 -0.41430792 24 7
-2.1073446 5.2634077 0.16500151 1 25
-1.4344016 4.9308171 0.089635558 0 23
-1.9466457 4.8620381 -0.33564919 1 9
-1.1751566 4.9251637 -0.29488114 1 10
-1.6996127 4.9304419 0.30371827 0 27
-1.4323146 4.9236431 0.20890979 0 26
-1.6824179 4.8805609 -0.24047285 1 12
-1.506295 5.1779537 -0.28261417 2 11
-1.7053288 4.9470239 0.64249521 0 29
-2.1047056 7.2350159 0.61511546 0 28
-2.1035182 5.2538509 -0.23056605 3 13
-1.2571479 5.268795 -0.18915527 2 14
-4.9699602 14.41746 4.0862355 27 31
-1.4443288 4.9649425 0.94276267 0 30
-1.6863929 4.8920918 -0.12041001 1 16
-2.099839 5.2981868 -0.099478714 3 17
-1.5138971 5.272644 -0.15964885 1 15
-1.9011974 5.578352 -1.6498013 4 1
-1.3931179 4.8519907 -1.0096118 11 2
-1.6645949 4.8841305 0 0 20
-1.2796652 5.4473324 -0.065143503 1 18
-1.6601089 4.8709679 -0.80061257 20 3
-1.3994807 4.8741512 -0.6454832 16 4
-2.0853856 5.2617192 0.032895435 1 21
-1.65887 4.8673329 -0.55390602 15 5
-1.1457891 4.8774428 -0.46769458 39 6
-1.6744648 4.9130898 0.12078223 0 24
-1.2961298 5.5174189 0.065981664 1 22
-1.6579657 4.8646793 -0.35938537 10 8
-1.3994935 4.8741961 -0.41398248 25 7
-5.7247458 14.444333 0.45218328 2 25
-1.4149723 4.9281063 0.089495942 0 23
-1.9267194 4.861382 -0.33513755 1 9
-1.157043 4.9253483 -0.29464859 1 10
-1.6785258 4.9250054 0.3030206 0 27
-1.409603 4.9094057 0.20809565 0 26
-1.662792 4.87884 -0.24010061 1 12
-1.4661626 5.1063929 -0.2784273 2 11
-1.680364 4.9303989 0.63957036 0 29
-2.0816364 7.2499828 0.61576635 0 28
-2.0866375 5.2648778 -0.23072889 1 13
-1.2177206 5.1836433 -0.18594451 1 14
-4.9133673 14.416436 4.081059 29 31
-1.4356756 5.0002122 0.94850254 0 30
-1.6628544 4.8790236 -0.11994475 1 16
-2.0906265 5.3319106 -0.099967383 3 17
-1.5054564 5.3166275 -0.16081248 2 15
-1.8819696 5.5889325 -1.6508795 2 1
-1.3742577 4.8532896 -1.0088273 12 2
-1.2560908 5.4363976 -0.064957246 1 18
-1.6372007 4.8620362 -0.79815292 21 3
-1.3794457 4.8716111 -0.64447302 15 4
-2.1128116 5.3884912 0.033639356 1 21
-1.6397513 4.8696103 -0.55347759 15 5
-1.1261128 4.8738489 -0.46695101 39 6
-1.2759 5.5221324 0.065981664 1 22
-1.6375788 4.8631592 -0.35882729 11 8
-1.3783619 4.867784 -0.4130061 25 7
-5.6776071 14.480106 0.4526487 1 25
-1.3979914 4.9371071 0.089565754 0 23
-1.9103467 4.8721271 -0.33539337 1 9
-1.1317922 4.8984299 -0.29278812 1 10
-1.6579161 4.9235549 0.3025555 0 27
-1.3970454 4.9337659 0.20890979 0 26
-1.6436249 4.881114 -0.23991448 1 12
-1.421319 5.0194902 -0.27340308 1 11
-1.6622832 4.9365239 0.63957036 0 29
-2.0452762 7.2230401 0.61283726 0 28
-2.0877531 5.3245821 -0.2330085 2 13
-1.1447185 4.9543753 -0.17756864 1 14
-4.8580332 14.427023 4.0789886 30 31
-1.403403 4.9562187 0.93917531 0 30
-1.6462381 4.8888745 -0.12003781 1 16
-0.12396673 0.44340095 -0.21469009 21 0
-2.0729349 5.3388138 -0.099967383 1 17
-1.5093498 5.398603 -0.16313972 3 15
-1.8585582 5.580524 -1.6465664 1 1
-1.3581568 4.85782 -1.0088273 11 2
-1.6266671 4.8842459 0 0 20
-1.2327322 5.4171319 -0.064677864 1 18
-1.6210694 4.8674383 -0.79815292 20 3
-1.3622158 4.8723378 -0.64396799 17 4
-2.0630813 5.3134356 0.033127911 1 21
-1.5250415 5.4547286 -0.03291868 2 19
-1.6210815 4.8674746 -0.55262083 15 5
-1.1090616 4.873673 -0.46657929 42 6
-1.6426536 4.9322467 0.12096833 0 24
-1.2629071 5.5497332 0.066261053 1 22
-1.6214439 4.8685622 -0.35882729 11 8
-1.3611395 4.8684883 -0.41268063 25 7
-1.8972635 4.886375 0.15255077 0 25
-1.378382 4.9301605 0.089356326 0 23
-1.8884014 4.8635502 -0.33437005 1 9
-1.1146573 4.898262 -0.29255557 1 10
-1.6504132 4.9555459 0.30418339 0 27
-1.3817537 4.9422202 0.2090726 0 26
-1.6299554 4.8941193 -0.24028672 1 12
-1.43048 5.1165032 -0.2784273 1 11
-1.6571953 4.9759102 0.64395767 0 29
-2.0266809 7.2489796 0.61446458 0 28
-2.0700855 5.3314753 -0.2330085 1 13
-1.1469114 5.04 -0.18050021 1 14
-4.801621 14.417391 4.0717411 30 31
-1.3922586 4.979794 0.94276267 0 30
-1.6287541 4.8905125 -0.11994475 1 16
-0.12137752 0.44035742 -0.21299961 21 0
-2.0347135 5.2978392 -0.099059857 1 17
-1.4938036 5.419517 -0.16360515 2 15
-1.8429083 5.601934 -1.6508795 2 1
-1.3393016 4.858984 -1.0080429 12 2
-1.6175058 4.9167724 0 0 20
-1.2067578 5.3942909 -0.064351909 1 18
-1.6019844 4.8695917 -0.79753798 21 3
-1.3422406 4.8696465 -0.64295781 16 4
-1.8758041 4.8840823 0.030407935 0 21
-1.4975995 5.4332886 -0.032755949 2 19
-1.5982603 4.8582716 -0.55090725 15 5
-1.0911922 4.8777051 -0.46657929 44 6
-1.6145687 4.9078445 0.12022391 0 24
-1.2443054 5.5621309 0.066354178 1 22
-1.6035899 4.8744721 -0.35882729 11 8
-1.3432873 4.8734441 -0.41268063 25 7
-5.5720854 14.50819 0.45229962 1 25
-1.3581781 4.9274678 0.089216709 0 23
-1.8677015 4.8629856 -0.3338584 1 9
-1.0966977 4.9023147 -0.29255557 1 10
-1.6210091 4.927422 0.30209038 0 27
-1.3593831 4.9318395 0.2084213 0 26
-1.6095105 4.8924689 -0.23991448 1 12
-1.463729 5.3104062 -0.28868517 2 11
-1.6253002 4.9404655 0.6385954 0 29
-1.9948031 7.2371421 0.61283726 0 28
-1.1589774 5.1807094 -0.18538614 2 14
-4.7427125 14.416542 4.066565 29 31
-1.375044 4.9886575 0.94348019 0 30
-1.6070707 4.8850527 -0.11966559 0 16
-1.9958098 5.2484846 -0.098012716 1 17
-1.464276 5.3820028 -0.16232519 2 15
-1.8207453 5.5970263 -1.6476448 2 1
-1.3211205 4.8558292 -1.006474 12 2
-1.588817 4.8840718 0 0 20
-1.1897218 5.4021697 -0.064398475 1 18
-1.5833808 4.8673611 -0.79630822 21 3
-1.3271253 4.8779001 -0.6434629 17 4
-1.8610178 4.8940148 0.030431181 0 21
-1.4743218 5.4189267 -0.032639708 1 19
-1.5821395 4.8635449 -0.55090725 15 5
-1.07244 4.8696284 -0.46546394 45 6
-1.5995207 4.9169755 0.12031697 0 24
-1.2249919 5.5623207 0.066307612 1 22
-1.5849468 4.8721747 -0.35826924 11 8
-1.3271177 4.877872 -0.41268063 30 7
-1.8616827 4.8957634 0.15243439 0 25
-1.3670279 5.0245638 0.090892136 0 23
-1.8515637 4.869153 -0.3338584 1 9
-1.0769982 4.8903255 -0.29162535 1 10
-1.6034237 4.9289737 0.30185783 0 27
-1.3388227 4.9208946 0.20776998 0 26
-1.5932764 4.8977799 -0.23991448 1 12
-1.4261849 5.2419977 -0.28470761 1 11
-1.6125911 4.9571543 0.64005786 0 29
-1.9697442 7.2398705 0.61251181 0 28
-1.8566655 4.8825693 -0.21281768 0 13
-1.1263137 5.1142521 -0.18287337 1 14
-4.6877046 14.410147 4.0603533 30 31
-1.3626243 5.008378 0.9463501 0 30
-1.5958095 4.9055672 -0.12003781 0 16
-0.1183771 0.44117346 -0.21299961 21 0
-1.9859265 5.2778797 -0.098431572 1 17
-1.4019594 5.2248898 -0.15743797 1 15
-1.803553 5.6106825 -1.6498013 2 1
-1.3031449 4.8566232 -1.0056895 12 2
-1.5680851 4.8781643 0 0 20
-1.1674697 5.3906541 -0.064212218 1 18
-1.5651699 4.8690953 -0.79569328 20 3
-1.3090608 4.8786707 -0.64295781 17 4
-1.8411045 4.8929944 0.030384686 0 21
-1.4678355 5.4703999 -0.03291868 2 19
-1.5639347 4.8652525 -0.55047888 17 5
-1.0554341 4.873343 -0.46546394 48 6
-1.5786749 4.911108 0.12003781 0 24
-1.0582575 4.8863792 0.058205418 1 22
-1.5654866 4.8700805 -0.3577112 13 8
-1.3090485 4.8786254 -0.41235518 29 7
-1.8303372 4.8643789 -0.3330909 1 9
-1.05992 4.8940558 -0.29162535 1 10
-1.3247437 4.9371185 0.20825846 0 26
-2.3599737 7.3416548 -0.35922027 1 12
-1.3116032 4.8881459 -0.26523864 1 11
-1.9423926 7.2390022 0.61186087 0 28
-1.8564996 4.9339089 -0.21477163 0 13
-1.1211456 5.1767578 -0.18496734 1 14
-4.636189 14.422745 4.0593181 29 31
-1.3400334 4.994101 0.94276267 0 30
-1.5762273 4.9034939 -0.11985171 0 16
-0.11776376 0.4450886 -0.21469009 21 0
-1.952143 5.2435498 -0.097663663 1 17
-1.4021221 5.2993264 -0.15953249 2 15
-1.7827921 5.6132722 -1.6487229 2 1
-1.2851818 4.8573499 -1.004905 13 2
-1.5498377 4.8797956 0 0 20
-1.1528115 5.4142561 -0.064445041 1 18
-1.5457723 4.8669949 -0.79446346 21 3
-1.292024 4.8832102 -0.64295781 16 4
-1.8254102 4.9031396 0.030407935 0 21
-1.4518017 5.4870901 -0.032988425 2 19
-1.5457392 4.8668909 -0.5500505 16 5
-1.0367587 4.869206 -0.46472037 50 6
-1.5651547 4.9280224 0.12031697 0 24
-1.0453603 4.9096041 0.058438245 1 22
-1.5472703 4.8717117 -0.35743216 13 8
-1.2889527 4.8716021 -0.4113788 28 7
-5.4084396 14.527328 0.45113599 1 25
-1.4526281 5.4902139 0.099129669 1 23
-1.8077762 4.8557734 -0.33206758 1 9
-1.0419995 4.8938198 -0.29139277 1 10
-2.3039017 7.2540298 0.44325194 4 27
-1.2983024 4.906939 0.20679301 0 26
-2.3294954 7.3346143 -0.35847577 1 12
-1.3272287 5.0162663 -0.27193764 1 11
-2.1980658 6.9207964 0.8915962 2 29
-1.9150738 7.238029 0.61120999 1 28
-1.0672718 5.0125132 -0.17896461 1 14
-4.577632 14.413062 4.0520711 30 31
-1.3215871 4.9949441 0.94204527 0 30
-1.5566812 4.9013429 -0.11966559 0 16
-0.11537136 0.44196901 -0.21299961 21 0
-1.9167641 5.20121 -0.096756138 1 17
-1.7653204 5.622829 -1.6498013 2 1
-1.2680751 4.8577905 -1.0041206 12 2
-1.5360423 4.8925414 0 0 20
-1.1364894 5.425879 -0.064538166 1 18
-1.5260712 4.8607817 -0.79261869 21 3
-1.2718133 4.8721108 -0.64093751 18 4
-1.7994576 4.8828945 0.030245202 0 21
-1.4346066 5.4957457 -0.033011671 2 19
-1.5272079 4.8644023 -0.54919374 16 5
-1.0206047 4.8726172 -0.46472037 50 6
-4.636826 14.769034 0.36020648 1 24
-1.0282522 4.9091287 0.058391675 2 22
-1.5299101 4.8730092 -0.35715315 13 8
-1.2727892 4.8758497 -0.4113788 30 7
-5.3298154 14.46265 0.44857606 1 25
-1.4354224 5.4988713 0.099199481 1 23
-1.7902824 4.8579969 -0.33181176 1 9
-1.0241266 4.8894315 -0.29092768 1 10
-2.2774396 7.2540102 0.44278681 4 27
-1.2880784 4.9344201 0.20776998 0 26
-1.5355755 4.8910546 -0.23879774 1 12
-1.3368173 5.1211305 -0.27738059 2 11
-2.1667771 6.9015331 0.88818389 2 29
-1.8890449 7.2366257 0.61055905 1 28
-1.8795348 5.1001873 -0.22144762 1 13
-1.1104685 5.3016486 -0.18915527 1 14
-4.5228634 14.406046 4.0458593 29 31
-1.3070023 5.0069146 0.94348019 0 30
-1.5464071 4.9255548 -0.12013085 0 16
-0.11375079 0.44238886 -0.21299961 10 0
-1.8045847 4.9526753 -0.09200909 1 17
-1.7435607 5.6255817 -1.6487229 2 1
-1.2502631 4.8624053 -1.0041206 12 2
-4.5827227 14.786111 0 1 20
-1.0883994 5.2928863 -0.062908418 1 18
-1.5082463 4.8663421 -0.79261869 23 3
-1.2519726 4.8690538 -0.63992739 19 4
-1.7829193 4.8932147 0.030268449 0 21
-1.4204319 5.52421 -0.033151161 4 19
-1.5046604 4.8547721 -0.54748017 16 5
-1.0019379 4.8724241 -0.46434861 50 6
-4.5826669 14.78593 0.36020648 1 24
-1.0062256 4.8932753 0.058158856 0 22
-1.5096779 4.8709612 -0.3565951 14 8
-1.2539182 4.8766203 -0.41105333 30 7
-5.2754059 14.478331 0.44845966 1 25
-1.4142637 5.5002213 0.099129669 2 23
-1.7751991 4.8720269 -0.3323234 1 9
-1.0037874 4.8814182 -0.29023001 1 10
-2.2484741 7.2546806 0.44232169 4 27
-1.265009 4.919754 0.20695584 0 26
-1.5152738 4.8890162 -0.23842548 1 12
-1.2961552 5.040885 -0.27277502 1 11
-2.1426439 6.9132199 0.88867134 2 29
-1.8389384 5.0469589 -0.21884237 1 13
-1.0080963 4.9023728 -0.17477669 2 14
-4.4643164 14.404074 4.0406828 29 31
-1.2778639 4.969748 0.93558794 0 30
-1.5224255 4.9120913 -0.11966559 0 16
-1.7574532 4.8761692 -0.090473272 0 17
-1.2964621 5.1160526 -0.15359803 1 15
-1.7239143 5.6316333 -1.6487229 2 1
-1.23232 4.8629375 -1.0033361 13 2
-1.4951409 4.8842831 0 0 20
-0.98518002 4.8771553 -0.057926033 0 18
-1.4877807 4.8602386 -0.79077399 22 3
-1.2349697 4.873394 -0.63992739 19 4
-1.7631164 4.8918819 0.030221954 0 21
-1.3981936 5.5175023 -0.033081416 2 19
-1.4877058 4.8599944 -0.54748017 17 5
-0.98334777 4.8680844 -0.46360505 50 6
-4.5275178 14.790364 0.35992733 1 24
-0.98755586 4.8889165 0.058065727 0 22
-1.4926668 4.8762007 -0.3565951 14 8
-1.236889 4.8809676 -0.41105333 30 7
-5.2194152 14.481609 0.44799423 1 25
-1.3960394 5.5090013 0.099199481 2 23
-1.7568293 4.8744378 -0.33206758 1 9
-0.98753351 4.8888059 -0.29046258 1 10
-2.2208006 7.2548475 0.44185659 4 27
-1.252738 4.9435105 0.20776998 0 26
-1.4923518 4.8751717 -0.23749486 1 12
-1.27659 5.0376344 -0.27235636 1 11
-2.1138523 6.9054713 0.88672143 2 29
-1.8362367 7.2460928 0.6102336 1 28
-1.8104699 5.0232673 -0.21753973 1 13
-0.98939562 4.8980246 -0.17449749 1 14
-4.4128814 14.415874 4.0396481 27 31
-1.2624428 4.9818072 0.93702298 0 30
-1.5064414 4.9211993 -0.11975865 0 16
-1.7431062 4.8898096 -0.090612896 0 17
-1.3212143 5.2912326 -0.15871796 2 15
-1.7064735 5.6449914 -1.6508795 2 1
-1.2124857 4.8557935 -1.0009826 15 2
-1.4861834 4.916275 0 0 20
-0.96736985 4.8766413 -0.057879467 0 18
-1.4696614 4.8616199 -0.79015911 21 3
-1.2179495 4.8776755 -0.63992739 19 4
-1.739313 4.879169 0.030105716 0 21
-1.3643885 5.464138 -0.032732703 3 19
-1.4695801 4.861351 -0.54705179 17 5
-0.96712238 4.8753939 -0.4639768 52 6
-1.4857812 4.9149442 0.11947949 0 24
-0.97515243 4.915874 0.058345109 0 22
-1.4721714 4.8699236 -0.35575804 13 8
-1.2198423 4.8852558 -0.41105333 28 7
-1.745319 4.8960171 0.15127078 0 25
-1.3797059 5.5254817 0.099408902 1 23
-1.7371216 4.8730211 -0.3315559 1 9
-0.96812999 4.8804731 -0.28976491 1 10
-2.1919947 7.2510891 0.44115892 4 27
-1.2248224 4.9052 0.20597887 0 26
-1.4926671 4.9377227 -0.24028672 2 12
-1.2502867 5.0071802 -0.27047226 1 11
-2.0874352 6.9052081 0.88574642 2 29
-1.8061008 7.233119 0.60860634 1 28
-1.7446107 4.8940301 -0.21167788 0 13
-0.97073531 4.8936067 -0.17421828 1 14
-4.3558216 14.409 4.0334363 27 31
-1.2469506 4.9938197 0.93845791 0 30
-1.4869385 4.9187722 -0.11957254 0 16
-1.7246981 4.8920918 -0.090543084 0 17
-1.2387468 5.0356808 -0.15092169 1 15
-1.6867596 5.6509132 -1.6508795 2 1
-1.1955295 4.8599963 -1.0009826 14 2
-1.4610058 4.8946018 0 0 20
-0.9518714 4.8878398 -0.057972595 0 18
-1.4481612 4.8515706 -0.7876994 21 3
-1.1990212 4.8741913 -0.63891727 21 4
-1.7209419 4.8814373 0.030082466 0 21
-1.3500854 5.4882879 -0.032848939 5 19
-1.4514654 4.8626399 -0.54662335 16 5
-0.94857669 4.8709211 -0.46323326 53 6
-1.4697608 4.9239326 0.11957254 0 24
-0.95875245 4.9231739 0.058391675 0 22
-1.4528817 4.8673849 -0.35519996 14 8
-1.198974 4.8739991 -0.4097515 30 7
-1.7308778 4.9096203 0.1515035 0 25
-1.3585005 5.5224967 0.099269286 2 23
-1.7187748 4.8752904 -0.33130008 1 9
-0.95108908 4.8838224 -0.28976491 1 10
-2.166672 7.2586956 0.44115892 4 27
-1.2067389 4.9055643 0.20581603 0 26
-1.4777091 4.9505606 -0.24065898 2 12
-1.2175349 4.9494514 -0.26712275 1 11
-2.0621848 6.9086475 0.88525897 2 29
-1.7808431 7.2393794 0.60860634 1 28
-1.72486 4.8925509 -0.21135223 0 13
-0.94906372 4.8734221 -0.1733807 1 14
-4.3032913 14.416712 4.0313659 30 31
-1.2285725 4.9943209 0.93774039 0 30
-1.4663293 4.912437 -0.11929338 0 16
-0.82609749 3.406873 -1.6346875 0 0
-1.7084645 4.8977847 -0.090543084 1 17
-1.2399415 5.1135893 -0.15313257 1 15
-1.6680095 5.656476 -1.6508795 2 1
-1.1794052 4.863934 -1.0009826 14 2
-1.4413711 4.8879104 0 0 20
-0.93866247 4.9066839 -0.058158856 0 18
-1.4320635 4.8563466 -0.7876994 22 3
-1.1800447 4.8665714 -0.63740206 18 4
-1.7047436 4.8871179 0.030082466 0 21
-1.3328191 5.4966216 -0.032872185 4 19
-1.4330812 4.859798 -0.54576659 16 5
-0.93241763 4.8740406 -0.46323326 53 6
-1.4511608 4.9211087 0.11938644 0 24
-0.93941391 4.9106121 0.058205418 0 22
-1.4367315 4.8721766 -0.35519996 15 8
-1.1809244 4.8701992 -0.40910062 30 7
-1.7132692 4.9115586 0.15138716 0 25
-1.3401783 5.5269713 0.099269286 2 23
-1.6960232 4.8621182 -0.33002093 1 9
-0.93413693 4.8830276 -0.28953233 1 10
-2.1391988 7.2543507 0.44046125 4 27
-1.1961145 4.9328442 0.20679301 0 26
-1.222764 5.0427485 -0.27193764 1 11
-2.0347698 6.9002161 0.88330907 2 29
-1.7549456 7.2374954 0.6079554 1 28
-1.7073084 4.8944707 -0.21118939 0 13
-0.93214518 4.8726163 -0.17324111 0 14
-4.2499919 14.412374 4.0261893 30 31
-1.210148 4.9907188 0.93630546 0 30
-0.81925285 3.4308925 -1.6448303 1 0
-1.6848384 4.8848138 -0.090194039 0 17
-1.2610879 5.2812228 -0.15801978 2 15
-1.6482558 5.6622634 -1.6508795 2 1
-1.1605988 4.8603911 -0.99941379 14 2
-1.4254194 4.8967524 0 0 20
-0.91562772 4.8784814 -0.057786342 0 18
-1.4162086 4.8651104 -0.78831434 22 3
-1.1621294 4.8668017 -0.63689691 18 4
-1.681154 4.8741317 0.02996623 0 21
-1.3108382 5.4895687 -0.032802444 2 19
-1.4149981 4.8609514 -0.54533821 17 5
-0.91393006 4.8694363 -0.46248972 54 6
-1.4317397 4.9184642 0.11920033 0 24
-0.92300588 4.9177928 0.058251984 0 22
-1.4186015 4.8733306 -0.35492095 14 8
-1.163918 4.8742919 -0.40910062 30 7
-1.6909006 4.9023895 0.15092169 0 25
-1.1694698 4.897542 0.08789032 1 23
-1.6777403 4.8642344 -0.32976508 1 9
-0.91487759 4.874485 -0.28883469 1 10
-2.1105165 7.2502708 0.43976358 4 27
-1.7590513 7.3666096 0.30856121 0 26
-1.5456029 5.3096194 -0.25759631 2 12
-1.1912388 4.9887066 -0.26879749 1 11
-1.7324507 7.2552109 0.60893172 1 28
-1.6823952 4.8777304 -0.21021241 1 13
-0.91291976 4.8640537 -0.17282231 1 14
-4.1964211 14.415992 4.0230832 32 31
-1.184495 4.9604645 0.92984813 0 30
-1.540154 5.2909007 -0.12822643 1 16
-0.80667329 3.4338717 -1.6448303 1 0
-1.2142928 5.1690392 -0.15452892 2 15
-1.6264297 5.6645641 -1.6498013 2 1
-1.1418808 4.8607931 -0.99862927 15 2
-1.4085672 4.9057879 0 0 20
-0.8999123 4.8936062 -0.057926033 0 18
-1.3950963 4.858871 -0.78646964 22 3
-1.1451924 4.8748903 -0.63740206 17 4
-1.2916251 5.49823 -0.03282569 2 19
-1.3949783 4.8584599 -0.5444814 17 5
-0.89463693 4.8649192 -0.46174619 52 6
-1.4126005 4.9198351 0.11910728 0 24
-0.90569949 4.925076 0.058298551 0 22
-1.3985289 4.8708262 -0.35436291 17 8
-1.1451343 4.8746433 -0.40877515 32 7
-1.2969381 5.5208464 0.098990053 1 23
-1.6534631 4.851459 -0.32848594 1 9
-0.89700657 4.8778048 -0.28883469 1 10
-2.0817263 7.2502804 0.43929848 4 27
-1.1562175 4.9218225 0.20597887 0 26
-1.5117978 5.2653213 -0.25517669 2 12
-1.1501096 4.8958225 -0.2635639 1 11
-1.4166944 4.934093 0.63030833 0 29
-1.7067608 7.2653923 0.60925722 0 28
-1.6696645 4.8989959 -0.21086374 1 13
-0.89291787 4.8555713 -0.17240351 0 14
-4.1403599 14.420133 4.0199776 30 31
-1.1717067 4.9877577 0.93415302 0 30
-1.5373065 5.3541641 -0.12962222 2 16
-0.79223078 3.4260709 -1.6397589 1 0
-1.6421787 4.8740048 -0.089775175 0 17
-1.20705 5.2199926 -0.15592526 2 15
-1.6066453 5.670207 -1.6498013 2 1
-1.1222543 4.8532858 -0.99627596 16 2
-0.88353324 4.9006534 -0.057972595 0 18
-1.3770486 4.8599095 -0.78585476 23 3
-1.1263797 4.8711271 -0.63639188 18 4
-1.6500639 4.8974085 0.030035973 0 21
-1.2751269 5.5143971 -0.032895435 5 19
-1.3780093 4.8633003 -0.5444814 16 5
-0.87764847 4.8680129 -0.46174619 53 6
-1.3997778 4.9401259 0.11947949 0 24
-0.8870815 4.9203348 0.058205418 0 22
-1.3793411 4.8680005 -0.35380483 15 8
-1.1281104 4.8786116 -0.40877515 32 7
-1.6493934 4.8954186 0.15033989 0 25
-1.2857665 5.5604091 0.099618338 1 23
-1.6390662 4.8647671 -0.32899761 1 9
-1.3199594 7.3213592 -0.43325201 2 10
-2.0542264 7.2498193 0.43883336 4 27
-1.1336262 4.9024653 0.20500189 0 26
-1.4302294 5.0475965 -0.24438147 1 12
-1.1312119 4.8920245 -0.26314521 0 11
-1.3972964 4.9313688 0.62933332 0 29
