# .PCD v0.7 - Point Cloud Data file format
VERSION 0.7
FIELDS x y z intensity ring
SIZE 4 4 4 4 2
TYPE F F F F U
COUNT 1 1 1 1 1
WIDTH 1326
HEIGHT 1
VIEWPOINT 0 0 0 1 0 0 0
POINTS 1326
DATA ascii
2.3468263 15.854367 -1.0271583 15 9
4.9594331 16.405731 -0.9981308 11 10
4.0598288 16.258898 0.6827426 17 26
3.1961558 16.11224 -0.76515776 11 12
4.0537562 16.234579 -0.87694138 13 11
4.0709724 16.303526 1.3718051 24 28
2.3514473 15.885587 -0.65424746 16 13
4.9509282 16.3776 -0.5974794 7 14
4.0869112 16.367359 3.0758173 32 30
3.1979778 16.121424 -0.38244602 11 16
2.4067194 15.876171 -0.28028566 12 17
4.1113582 16.224091 -0.48709193 10 15
1.1943555 5.9126801 -1.6886202 1 1
2.2150936 8.7411213 -1.8034947 0 2
3.2471979 16.075315 0 12 20
5.1325421 16.766832 -0.20413806 18 18
2.2663667 11.219692 -1.7807788 2 3
3.4709778 13.697045 -1.7985647 5 4
2.4100428 15.898094 0.093455575 14 21
4.1238375 16.273336 -0.097570412 10 19
3.2104106 15.893199 -1.7465388 6 5
3.57304 11.672298 -1.1394943 24 6
3.2502775 16.090563 0.38198075 10 24
5.1325421 16.766832 0.20413806 15 22
3.2463984 16.071358 -1.1465174 18 8
4.1043577 16.196466 -1.363994 6 7
2.41206 15.9114 0.46835759 11 25
4.1272087 16.286638 0.29327023 9 23
2.4063458 15.873707 -1.028949 12 9
5.0260243 16.418863 -0.99999124 11 10
3.2496114 16.087265 0.95580554 22 27
4.1224527 16.26787 0.68371958 19 26
3.2452626 16.065737 -0.76348269 13 12
4.1143303 16.235821 -0.87777877 13 11
3.2536516 16.107265 2.0176692 23 29
4.1356959 16.320131 1.3744087 26 28
2.4104819 15.90099 -0.65522444 12 13
5.0174322 16.390795 -0.59859616 7 14
3.269664 16.186535 4.4247704 18 31
4.1517563 16.383509 3.081557 32 30
3.2502775 16.090563 -0.38198075 12 16
2.4670179 15.89929 -0.28084412 14 17
4.1769156 16.244493 -0.48813915 10 15
1.2211901 5.9386592 -1.6972466 1 1
2.2494936 8.7485323 -1.8066328 0 2
3.3056972 16.075638 0 14 20
5.1993151 16.77556 -0.204464 18 18
2.3039169 11.203971 -1.7795489 2 3
3.5197473 13.688691 -1.7990698 5 4
2.4679654 15.905396 0.093548566 12 21
4.1885748 16.289835 -0.097756401 9 19
3.2714648 15.909165 -1.7495375 6 5
3.616112 11.667365 -1.1402379 27 6
3.310441 16.098707 0.38244602 12 24
5.201683 16.783201 0.20455712 12 22
3.3008597 16.052114 -1.1459594 15 8
4.1668148 16.205208 -1.3659468 6 7
2.4706409 15.922639 0.46893942 12 25
4.1890035 16.291504 0.2936193 9 23
2.4647906 15.884935 -1.0302283 12 9
5.0951171 16.439367 -1.0023168 11 10
3.3113658 16.103205 0.95743346 19 27
4.1831827 16.268866 0.68437088 22 26
3.3069456 16.081709 -0.76478559 14 12
4.178926 16.25231 -0.87945348 15 11
3.315443 16.123034 2.0210814 24 29
4.1965995 16.321045 1.3757106 26 28
2.4665742 15.896431 -0.65538728 16 13
5.0852566 16.407553 -0.59985256 15 14
3.3323607 16.205303 4.4330525 18 31
4.2177291 16.403221 3.0880144 32 30
3.3112464 16.102623 -0.38253906 12 16
2.5209851 15.898922 -0.28098375 12 17
4.2378254 16.257635 -0.48895371 10 15
1.2416666 5.9383473 -1.6983248 1 1
2.2755268 8.7296381 -1.8042793 0 2
3.3671789 16.103743 0 14 20
5.263298 16.784941 -0.20478995 18 18
2.3410609 11.196269 -1.7795489 3 3
3.5601203 13.657744 -1.7965443 5 4
2.5238321 15.916877 0.09366481 12 21
4.2476192 16.295208 -0.09787263 11 19
3.3266499 15.909909 -1.7508228 6 5
3.3711779 16.122868 0.3832835 13 24
5.2704782 16.80784 0.20506933 12 22
3.3614264 16.076231 -1.1484706 13 8
4.2265682 16.214447 -1.3678995 6 7
2.5278158 15.942001 0.46975395 12 25
4.2500706 16.304611 0.29410797 9 23
2.5199575 15.892442 -1.0312514 12 9
3.3696558 16.115587 0.95882881 19 27
4.2482028 16.297445 0.68616199 22 26
3.3659852 16.098032 -0.76608843 14 12
4.2398548 16.265419 -0.88091892 15 11
3.3737702 16.135265 2.0240064 24 29
4.2577424 16.334042 1.3779888 24 28
2.5236604 15.915793 -0.65652704 16 13
5.1468186 16.413481 -0.60069013 10 14
3.3884575 16.205509 4.4361587 16 31
4.2760754 16.404373 3.0908842 29 30
3.3695414 16.11504 -0.38309738 12 16
2.5803125 15.913711 -0.28140259 14 17
4.3017082 16.2698 -0.48976824 10 15
1.2591833 5.9189057 -1.6940117 1 1
2.2999716 8.6988878 -1.7995725 0 2
3.4283688 16.11536 0 12 20
5.3315411 16.796963 -0.20516247 18 18
2.380132 11.188027 -1.7795489 2 3
3.6108196 13.656741 -1.7980596 5 4
2.5832229 15.931659 0.0938043 12 21
4.311636 16.30735 -0.098035365 11 19
3.3829973 15.902087 -1.7512511 6 5
3.6858122 11.612111 -1.1372638 1 6
3.4324338 16.134468 0.38384181 13 24
5.3375912 16.816023 0.20539528 12 22
3.4241695 16.095621 -1.1507027 15 8
4.2923179 16.234285 -1.3708287 6 7
2.5879326 15.960706 0.47056848 11 25
4.3141193 16.31674 0.29459664 9 23
2.5779774 15.899309 -1.0322748 15 9
3.9806855 12.541106 -0.76627231 2 10
3.43171 16.131065 0.96045667 21 27
4.3112001 16.3057 0.68713897 24 26
3.4288127 16.117447 -0.76757741 14 12
4.3078418 16.292999 -0.88322169 13 11
3.4383378 16.162222 2.0288811 24 29
4.3218708 16.346058 1.380267 22 28
2.5817647 15.922667 -0.6571784 16 13
5.2161794 16.433516 -0.60208613 10 14
3.4506371 16.220034 4.4434056 16 31
4.3393512 16.412172 3.0951891 27 30
3.4291055 16.118824 -0.38346961 12 16
2.641237 15.91993 -0.28168187 12 17
4.3706336 16.288683 -0.49081552 7 15
1.2800521 5.9104862 -1.6929333 1 1
2.3328538 8.6941891 -1.8003569 0 2
3.4924884 16.126144 0 14 20
5.3979616 16.792542 -0.20534873 12 18
2.4202833 11.175367 -1.778934 3 3
3.6587901 13.635751 -1.7970494 5 4
2.6442132 15.937869 0.093897283 12 21
4.3993621 16.395748 -0.098663062 8 19
3.4437807 15.901243 -1.7525362 6 5
3.4974682 16.149139 0.38449317 13 24
5.4028578 16.807774 0.20553496 9 22
3.488204 16.106363 -1.1523769 15 8
4.3590193 16.245398 -1.373107 6 7
2.6490285 15.966893 0.47103396 11 25
4.4329696 16.520998 0.29857579 8 23
2.6408043 15.917322 -1.0340656 15 9
3.9924045 12.419988 -0.7597608 2 10
3.4967237 16.145702 0.96208459 21 27
4.3843961 16.339972 0.68925577 18 26
3.4920886 16.1243 -0.76850808 14 12
4.3737378 16.300251 -0.88447779 15 11
3.5017509 16.168915 2.0313184 24 29
4.47577 16.68051 1.4098837 18 28
2.6440287 15.936757 -0.65815538 16 13
5.284936 16.440929 -0.60306329 10 14
3.5141492 16.226162 4.4485822 16 31
4.4076304 16.426563 3.1009288 23 30
3.4957755 16.141323 -0.38430709 12 16
2.7014742 15.938214 -0.2821705 14 17
4.5177398 16.605118 -0.50082266 11 15
1.2990204 5.8984585 -1.6907767 1 1
2.3580418 8.6670685 -1.7964346 0 2
3.5513432 16.125574 0 12 20
5.4293284 16.689917 -0.20432429 6 18
2.4601307 11.17071 -1.7795489 2 3
3.7094946 13.634382 -1.7985647 5 4
2.7038453 15.952204 0.094036765 12 21
4.531127 16.654322 -0.10031363 14 19
3.5001249 15.893008 -1.7529645 6 5
3.5572629 16.152454 0.3848654 13 24
5.4293284 16.689917 0.20432429 6 22
3.5478415 16.109674 -1.153493 13 8
4.4219847 16.253164 -1.3750597 6 7
2.708092 15.977258 0.47161573 11 25
4.5347137 16.667505 0.30150777 13 23
2.6990221 15.923747 -1.0350889 15 9
4.0135016 12.337622 -0.75557476 2 10
3.5590777 16.160694 0.96371245 19 27
4.5358424 16.671654 0.70391041 15 26
3.5526531 16.131523 -0.76943868 13 12
4.4379549 16.311865 -0.88594317 13 11
3.5624435 16.175978 2.0337558 24 29
4.5433922 16.699404 1.4128128 18 28
2.7036538 15.951074 -0.65913236 16 13
5.352191 16.452791 -0.6041801 13 14
3.5757575 16.236433 4.4547935 16 31
4.4701133 16.430063 3.1045163 23 30
3.5572629 16.152454 -0.3848654 12 16
2.7604997 15.948392 -0.28251958 12 17
4.5852394 16.623936 -0.50186992 11 15
1.3212837 5.9014058 -1.6929333 1 1
2.3851504 8.6474409 -1.7940812 0 2
3.6128504 16.136501 0 12 20
5.4462819 16.54549 -0.20278767 8 18
2.49997 11.165912 -1.7801639 3 3
3.4321039 12.443205 -1.6430023 2 4
2.7629204 15.962377 0.094153009 12 21
4.5988026 16.673109 -0.10052287 14 19
3.5581841 15.892338 -1.7542498 6 5
3.7718697 11.458722 -1.1261104 23 6
3.6206095 16.171156 0.38560981 14 24
5.4487839 16.553091 0.20288081 9 22
3.6092808 16.120558 -1.1551672 13 8
2.7658892 15.979527 0.47196484 10 25
4.6003065 16.67856 0.30199644 12 23
2.7593524 15.941763 -1.0368797 15 9
4.0453043 12.289401 -0.75348181 2 10
3.6215708 16.175449 0.96534032 19 27
4.60357 16.690393 0.70537585 13 26
3.6150482 16.146317 -0.77074158 13 12
4.5001731 16.315525 -0.88698983 13 11
3.6258223 16.194439 2.0376556 24 29
4.6101327 16.714188 1.4154164 18 28
2.7634034 15.965167 -0.66010934 14 13
5.4195857 16.464388 -0.60529691 13 14
3.6374726 16.246473 4.4610052 16 31
4.5337119 16.43712 3.1088212 27 30
3.6206095 16.171156 -0.38560981 12 16
2.8189297 15.970659 -0.28307804 14 17
4.6478691 16.635595 -0.50268441 11 15
1.3408451 5.8969917 -1.6929333 1 1
2.412756 8.6357069 -1.7932966 0 2
3.6725461 16.151735 0 14 20
5.498589 16.519751 -0.20269455 16 18
2.5361052 11.153706 -1.7795489 2 3
3.4103491 12.206281 -1.6132029 2 4
2.8172255 15.961004 0.094199501 12 21
4.6626744 16.688587 -0.10070885 14 19
3.6073349 15.864938 -1.7525362 6 5
3.8098447 11.446153 -1.1261104 25 6
3.6804183 16.186356 0.38626117 13 24
3.6680236 16.131845 -1.1568414 14 8
2.8223357 15.989957 0.47254667 11 25
4.6631188 16.690178 0.30248511 12 23
2.8142805 15.94432 -1.0376472 15 9
4.1049495 12.332753 -0.75697011 2 10
3.6787293 16.178928 0.96627063 19 27
4.6664166 16.701981 0.70651561 13 26
3.6738837 16.157618 -0.77185833 13 12
4.5628486 16.331291 -0.88866466 13 11
3.6847835 16.205555 2.0405805 22 29
4.6730404 16.725689 1.4176948 16 28
2.8191061 15.971659 -0.66076064 14 13
5.4968743 16.514601 -0.6078096 13 14
3.6973214 16.260696 4.4682522 18 31
4.5934849 16.440947 3.1124086 37 30
3.6795318 16.182459 -0.38616812 12 16
2.8732953 15.969094 -0.28321764 14 17
4.7106347 16.64702 -0.50349897 9 15
1.3603945 5.8925123 -1.6929333 1 1
2.4413822 8.6276579 -1.7932966 0 2
3.7350891 16.17844 0 14 20
5.5686545 16.546915 -0.20325333 14 18
2.5721922 11.141382 -1.778934 2 3
2.8736844 15.971256 0.094315745 12 21
4.7256188 16.699974 -0.10087159 14 19
3.6599293 15.852887 -1.7525362 6 5
3.8465137 11.42968 -1.1257386 25 6
3.7385762 16.193542 0.38672644 13 24
5.5712056 16.554495 0.20334645 9 22
3.7277861 16.146807 -1.1587946 16 8
3.4367261 12.145126 -1.0303998 3 7
2.8803055 16.008055 0.47336119 11 25
4.7271566 16.705408 0.30304357 12 23
2.8727977 15.966329 -1.0396938 15 9
4.1547427 12.345563 -0.75859797 2 10
3.7395506 16.197763 0.96813101 19 27
4.7293992 16.713333 0.70765543 13 26
3.7346389 16.176491 -0.77334732 14 12
4.624598 16.342976 -0.89013004 16 11
3.7438655 16.216454 2.0435054 22 29
4.7404242 16.752295 1.4212747 14 28
2.8763053 15.985824 -0.66173762 16 13
5.5656395 16.537956 -0.6093452 13 14
3.7590504 16.282227 4.4775696 16 31
4.6522703 16.440765 3.1152782 47 30
3.7376769 16.189648 -0.3866334 12 16
2.9333489 15.98257 -0.28363651 12 17
4.7764258 16.657383 -0.50431347 9 15
1.3774354 5.8727283 -1.6886202 1 1
2.4704006 8.6153135 -1.7925122 0 2
3.7970166 16.188671 0 14 20
5.6353998 16.553883 -0.20357928 14 18
2.6083574 11.120793 -1.7770892 3 3
3.4277322 11.953927 -1.5828985 7 4
2.9351904 15.992602 0.094501719 12 21
4.7904949 16.706448 -0.10101107 14 19
3.7152407 15.840016 -1.7525362 6 5
3.882535 11.404874 -1.1246233 27 6
3.797816 16.192078 0.38700563 13 24
5.6431336 16.576599 0.20385866 12 22
3.7932343 16.172544 -1.1615847 14 8
2.9397721 16.017567 0.47394302 8 25
4.7942557 16.719563 0.30360204 12 23
2.9321129 15.975834 -1.0409731 15 9
4.1553421 12.20624 -0.75092363 2 10
3.8015363 16.207941 0.96952635 21 27
4.7943168 16.719776 0.70863241 13 26
3.7956417 16.182808 -0.77427793 14 12
4.6926241 16.365131 -0.89222342 14 11
3.8058848 16.22648 2.0464303 24 29
4.8087587 16.77014 1.4242039 14 28
2.9385791 16.011066 -0.66320312 12 13
5.6375022 16.560057 -0.61088085 16 14
3.8220358 16.29534 4.4848166 18 31
4.7172198 16.450907 3.1203005 50 30
3.797816 16.192078 -0.38700563 12 16
3.0029578 16.030676 -0.28468364 8 17
4.847496 16.674318 -0.50536078 9 15
1.4016322 5.8788805 -1.6918551 1 1
2.5019627 8.6062002 -1.7925122 0 2
3.8600407 16.190208 0 14 20
5.7116728 16.578493 -0.20413806 14 18
2.6481857 11.107313 -1.7764745 2 3
3.4515874 11.8727 -1.5738072 15 4
3.0077834 16.056437 0.094943427 4 21
4.8606324 16.719503 -0.10119705 13 19
3.7741985 15.83016 -1.7529645 6 5
3.9295013 11.405628 -1.1261104 27 6
3.8664153 16.216946 0.38793615 13 24
5.7116728 16.578493 0.20413806 12 22
3.8571157 16.17794 -1.16298 14 8
3.4946103 12.020689 -1.0219378 15 7
3.0080335 16.057772 0.47545567 2 25
4.8622069 16.72492 0.30402091 12 23
3.0185807 16.114077 -1.0506946 7 9
4.1649356 12.088991 -0.74464464 2 10
3.8674026 16.221087 0.97115427 21 27
4.8678427 16.744307 0.71042359 13 26
3.8614199 16.195993 -0.77558082 15 12
4.7626147 16.382345 -0.89410758 14 11
3.8717818 16.239454 2.0498426 24 29
4.8768735 16.775372 1.4261566 16 28
3.0281534 16.165178 -0.67004192 6 13
5.7098818 16.573298 -0.6121372 16 14
3.8898039 16.315044 4.4941339 16 31
4.7840796 16.456179 3.1246054 47 30
3.8664153 16.216946 -0.38793615 12 16
3.0903904 16.185091 -0.28761569 6 17
4.916955 16.695652 -0.50652438 9 15
1.4230472 5.8776965 -1.6929333 1 1
2.5297668 8.5898905 -1.7909431 0 2
3.9249918 16.211628 0 13 20
5.7787085 16.584898 -0.204464 14 18
2.6860039 11.094162 -1.7758596 2 3
3.4739449 11.795873 -1.565221 15 4
3.0878081 16.171566 0.095687352 4 21
4.9279938 16.733133 -0.10138303 14 19
3.830359 15.820759 -1.7533931 6 5
3.9719038 11.399366 -1.1268539 27 6
3.9286349 16.226675 0.38849446 14 24
5.7839723 16.600004 0.20465024 12 22
3.9210646 16.195406 -1.1652122 16 8
3.5185204 11.947229 -1.0167305 13 7
3.083554 16.149286 0.47848108 2 25
4.930716 16.742378 0.3046492 13 23
3.0860305 16.162256 -1.0545321 5 9
4.2254949 12.127172 -0.74790043 2 10
3.9315078 16.238541 0.97301471 21 27
4.9352832 16.757885 0.71172619 15 26
3.9254415 16.213484 -0.77706975 15 12
4.8287873 16.396276 -0.89578235 14 11
3.9368415 16.260571 2.0542297 25 29
4.9398947 16.773544 1.4274584 18 28
3.0890491 16.178066 -0.6710189 6 13
5.7795258 16.587242 -0.61339355 16 14
3.9503565 16.316393 4.4982753 16 31
4.8481522 16.46203 3.1289103 47 30
3.9295757 16.23056 -0.3885875 12 16
3.1430531 16.154575 -0.28726661 8 17
4.9866376 16.7167 -0.50768805 8 15
1.4426377 5.8689528 -1.6918551 1 1
2.5597379 8.581007 -1.7909431 0 2
3.9872899 16.221132 0 13 20
5.8485327 16.598576 -0.20488307 14 18
2.7228293 11.077041 -1.7746297 2 3
3.133548 16.105721 0.095361888 6 21
4.9955249 16.746492 -0.10156902 14 19
3.888412 15.818876 -1.7546781 6 5
4.0143209 11.392944 -1.1275976 34 6
3.9948022 16.251694 0.38942501 14 24
5.8538494 16.613665 0.20506933 12 22
3.9842446 16.208742 -1.1671653 14 8
3.5510886 11.904311 -1.0141269 15 7
3.1322744 16.099176 0.47731748 3 25
5.0005641 16.763388 0.30534729 12 23
3.135571 16.116119 -1.0522296 21 9
4.2306466 12.006893 -0.74138886 2 10
3.9957967 16.255739 0.97487521 21 27
5.0063205 16.782684 0.71351731 13 26
3.9906013 16.234604 -0.77874488 14 12
4.8951306 16.409943 -0.89745706 14 11
4.002111 16.281427 2.0586171 25 29
5.0075359 16.786758 1.4300621 18 28
5.8493514 16.600899 -0.61464995 16 14
4.0119023 16.32126 4.5034518 18 31
4.9145899 16.475174 3.1346505 49 30
3.9948022 16.251694 -0.38942501 12 16
3.1963181 16.127811 -0.28698736 12 17
5.0530581 16.725985 -0.50850254 8 15
1.4621844 5.8601432 -1.6907767 1 1
2.5942154 8.587039 -1.7940812 0 2
4.0497031 16.2304 0 13 20
5.9185228 16.611967 -0.20530216 14 18
2.761482 11.067468 -1.7746297 2 3
3.5298233 11.683968 -1.5536044 21 4
5.0643659 16.763414 -0.10177824 14 19
3.9426484 15.801348 -1.7542498 3 5
4.0554051 11.382613 -1.1279693 29 6
4.0573201 16.260929 0.38998327 13 24
5.9225497 16.62327 0.20544185 12 22
4.0475659 16.221836 -1.1691184 14 8
3.5810945 11.853679 -1.0108722 16 7
5.0683064 16.776459 0.30590579 12 23
3.1848278 16.069836 -1.049927 7 9
4.2484126 11.924342 -0.73720282 2 10
4.0573535 16.261063 0.97603792 21 27
5.0718122 16.788061 0.71449423 13 26
4.0511203 16.236082 -0.7794894 14 12
4.9581628 16.411873 -0.89850378 14 11
4.0656519 16.294321 2.0620294 23 29
5.0776372 16.807343 1.4333167 19 28
3.1879396 16.085535 -0.66808796 10 13
4.5978217 12.905055 -0.47840229 15 14
4.0754023 16.333399 4.5106988 18 31
4.9823155 16.491821 3.1411076 52 30
4.0563517 16.257048 -0.38989022 11 16
3.2438893 16.073437 -0.28621948 14 17
5.1195955 16.735008 -0.5093171 6 15
1.484521 5.8624721 -1.6929333 1 1
2.6161404 8.5516777 -1.78859 0 2
4.1122208 16.239433 0 13 20
5.9913802 16.632601 -0.20581436 14 18
2.8000953 11.057762 -1.7746297 2 3
3.5578153 11.629837 -1.5480485 21 4
3.2459111 16.083454 0.095361888 12 21
5.133378 16.78006 -0.10198747 14 19
3.9958253 15.77978 -1.7533931 6 5
4.0991597 11.37963 -1.1290846 30 6
4.1189613 16.266052 0.39044854 13 24
5.990025 16.628838 0.2057678 12 22
4.1080809 16.223085 -1.1702346 14 8
3.6107845 11.802984 -1.0076177 10 7
3.250129 16.104353 0.47813204 11 25
5.137363 16.793087 0.30653408 12 23
3.2424788 16.066448 -1.0504388 18 9
4.2615886 11.830545 -0.73231918 2 10
4.1199684 16.270029 0.97743326 21 27
5.1385627 16.797007 0.71563405 12 26
4.1126714 16.241213 -0.78042006 14 12
5.0271025 16.432665 -0.90059721 14 11
4.1283488 16.303123 2.0649543 23 29
5.1479335 16.827639 1.4365712 21 28
3.2464383 16.086065 -0.66857648 16 13
4.140924 16.352783 4.5200162 18 31
5.0525122 16.515724 3.1489999 52 30
4.1189613 16.266052 -0.39044854 12 16
3.3056142 16.089434 -0.28670815 19 17
5.1850829 16.739948 -0.51001525 6 15
1.5059359 5.8609848 -1.6940117 1 1
2.6459775 8.5424919 -1.78859 0 2
4.1748586 16.248222 0 13 20
6.0644617 16.652924 -0.20632657 14 18
2.8386798 11.047919 -1.7746297 3 3
3.5854778 11.575652 -1.5424926 24 4
3.3060622 16.091614 0.095478132 14 21
5.2025757 16.796423 -0.1021967 13 19
4.058804 15.796548 -1.7568202 3 5
4.1456738 11.383961 -1.1309434 27 6
4.1816897 16.274811 0.39100686 13 24
6.0617251 16.645409 0.20623344 12 22
4.1696539 16.227966 -1.1716298 14 8
3.6330924 11.729374 -1.0024104 19 7
3.311156 16.116407 0.47883019 12 25
5.2042375 16.801788 0.30702275 15 23
3.3025622 16.074579 -1.0517179 15 9
4.3766484 12.018213 -0.74487716 2 10
4.1817093 16.274885 0.97859609 19 27
5.2042632 16.801872 0.71661103 13 26
4.1753087 16.249975 -0.78153682 14 12
5.0927095 16.441721 -0.90206259 16 11
4.1891885 16.303995 2.0669043 23 29
5.218442 16.847647 1.4398259 19 28
3.3073988 16.09812 -0.6695534 17 13
4.6741247 12.835079 -0.47700632 1 14
4.2047153 16.364424 4.5272627 17 31
5.121779 16.535572 3.1561744 52 30
4.1816897 16.274811 -0.39100686 12 16
3.3638544 16.101875 -0.28712702 14 17
5.2513227 16.757002 -0.5110625 8 15
1.5214783 5.8410487 -1.6896983 1 1
2.6707702 8.5224428 -1.7862365 0 2
4.2357712 16.261387 0 13 20
6.1293159 16.658998 -0.20665252 14 18
2.875298 11.038446 -1.7746297 2 3
3.6167221 11.54098 -1.5394622 24 4
3.3659458 16.111885 0.095664106 14 21
5.2666154 16.805799 -0.10235944 14 19
4.107152 15.76761 -1.7551066 3 5
4.1902757 11.388841 -1.1328024 13 6
4.2426887 16.287943 0.39165822 13 24
6.1320777 16.666506 0.20674564 12 22
4.2304826 16.241083 -1.1735829 14 8
3.6612358 11.683024 -0.99948126 21 7
3.3678486 16.120993 0.47929561 12 25
5.2694898 16.814972 0.30758122 15 23
3.3599274 16.083078 -1.052997 13 9
4.3378811 11.79002 -0.7316215 2 10
4.2447114 16.29571 0.98068905 21 27
5.2742901 16.83029 0.71856499 13 26
4.2392406 16.274706 -0.78339797 14 12
5.1591463 16.462866 -0.90415609 14 11
4.2492328 16.313066 2.0698292 23 29
5.2826233 16.85688 1.442104 17 28
3.3648474 16.106628 -0.67036754 17 13
4.7180395 12.823261 -0.47714594 1 14
4.2686944 16.387781 4.5376158 17 31
5.1871719 16.552294 3.1626315 45 30
4.2426887 16.287943 -0.39165822 12 16
3.4241946 16.109594 -0.28747603 12 17
5.3254976 16.788116 -0.51257521 8 15
1.5467769 5.8543229 -1.6950898 1 1
2.7040594 8.5242853 -1.78859 0 2
4.3027229 16.285173 0 13 20
6.209733 16.697487 -0.20739754 10 18
2.9188583 11.047449 -1.7777041 2 3
3.6461852 11.494246 -1.5349165 24 4
3.4246583 16.111776 0.095733844 12 21
5.3361282 16.821629 -0.10256866 14 19
4.1641946 15.760864 -1.7559632 3 5
4.2716498 11.486133 -1.1439557 4 6
4.3076878 16.303965 0.39240265 13 24
6.2069445 16.689989 0.20730442 9 22
4.2963195 16.260937 -1.1760942 14 8
3.6995821 11.662575 -0.99883038 13 7
3.4307487 16.140429 0.48022655 12 25
5.3378239 16.826973 0.30813968 13 23
3.4193647 16.08687 -1.0540204 13 9
4.3442087 11.681237 -0.72580755 2 10
4.3087058 16.307817 0.98231691 21 27
5.3438802 16.846066 0.72003049 14 26
4.3052082 16.294579 -0.78507316 14 12
5.2262406 16.475218 -0.9058308 11 11
4.3142605 16.328842 2.0737288 25 29
5.3462515 16.85354 1.443406 14 28
3.4268632 16.122149 -0.67150736 17 13
4.7376876 12.739272 -0.47463316 1 14
5.2544346 16.564096 3.1683717 45 30
4.3066664 16.300098 -0.39230961 13 16
3.4863274 16.124907 -0.2879647 12 17
5.3816261 16.761808 -0.51234251 8 15
1.5622196 5.8302846 -1.6896983 1 1
2.7314019 8.5073233 -1.7870209 0 2
4.3667941 16.297102 0 13 20
6.4002686 17.027643 -0.2117746 19 18
2.9584291 11.041011 -1.7783191 2 3
3.6826499 11.470115 -1.5334014 26 4
3.4876449 16.131001 0.095919833 12 21
5.3887048 16.783854 -0.10245242 7 19
3.3699989 12.577011 -1.4025431 3 5
4.2963071 11.430142 -1.1398661 7 6
4.3707871 16.312004 0.39296097 13 24
4.3623533 16.280529 -1.1786053 14 8
3.4946768 16.163525 0.4812738 12 25
5.3818626 16.762543 0.307302 4 23
3.4822502 16.106049 -1.056067 13 9
4.3582659 11.594981 -0.72138906 2 10
4.3862796 16.369823 0.98696816 12 27
5.3916597 16.793058 0.71856499 4 26
4.368269 16.302607 -0.78618985 14 12
5.2934909 16.487299 -0.90750551 14 11
4.3815126 16.352034 2.0786037 25 29
5.3745852 16.739878 1.4352695 12 28
3.4865022 16.125715 -0.67215872 17 13
6.2758436 16.696615 -0.62288624 2 14
5.3242555 16.583118 3.1755462 50 30
4.3863125 16.369946 -0.39435679 12 16
3.5479791 16.123739 -0.28817415 14 17
5.4145889 16.654516 -0.50966614 4 15
1.5825663 5.8208032 -1.6886202 2 1
2.7601371 8.4897947 -1.7854519 0 2
4.5125456 16.597498 0 16 20
6.4754195 17.037718 -0.21219367 17 18
3.0030217 11.04535 -1.7807788 2 3
3.7222087 11.448993 -1.5323912 26 4
3.5544767 16.153269 0.09612906 12 21
5.4118433 16.64607 -0.10173175 4 19
4.5165706 16.612301 0.40059128 14 24
6.4768405 17.041458 0.21224023 16 22
4.4314132 16.299086 -1.1811166 14 8
3.7989669 11.68509 -1.0030613 1 7
3.5590472 16.174038 0.48197198 12 25
5.4036908 16.620996 0.30506808 4 23
3.5464015 16.11657 -1.057602 13 9
4.5300565 16.661903 1.0055726 17 27
5.4173346 16.662962 0.71384299 4 26
4.4363742 16.317333 -0.7876789 14 12
5.3625259 16.494379 -0.90897095 11 11
4.4507866 16.370342 2.0829911 25 29
5.4001536 16.610115 1.4258311 16 28
3.5524495 16.144054 -0.67346132 17 13
6.3369937 16.673502 -0.62288624 2 14
5.8803043 21.628222 6.0056372 4 31
5.3995962 16.608402 3.1841559 50 30
4.5239143 16.639313 -0.40124264 15 16
3.6103561 16.138575 -0.28866282 14 17
5.4402089 16.536764 -0.50664073 8 15
1.6059471 5.8263836 -1.6918551 2 1
2.7897575 8.4801083 -1.7854519 0 2
4.5853391 16.635632 0 16 20
6.5463295 17.044882 -0.21256618 17 18
3.0447125 11.046231 -1.7826235 2 3
3.7621536 11.435929 -1.5323912 28 4
3.6160851 16.164183 0.09626855 12 21
5.4474206 16.558685 -0.10131329 11 19
4.3808451 11.406542 -1.1406096 23 6
4.5925989 16.66197 0.40217316 15 24
6.5448956 17.041147 0.21251962 16 22
4.4935865 16.302752 -1.1825118 12 8
3.8372438 11.664183 -1.0024104 1 7
3.6207259 16.184929 0.48267016 12 25
5.4416828 16.541245 0.30395111 9 23
3.6078706 16.127464 -1.059137 13 9
4.436831 11.552314 -0.72069138 32 10
4.598805 16.684486 1.0078981 20 27
5.43925 16.533848 0.70912087 12 26
4.49968 16.32486 -0.78879565 14 12
5.4275632 16.498323 -0.910227 4 11
4.5131822 16.373844 2.0854285 23 29
5.4531221 16.576017 1.4245293 20 28
3.615766 16.162758 -0.67476392 17 13
6.3951612 16.651279 -0.62288624 2 14
5.932157 21.521893 5.9818263 4 31
5.4698396 16.626833 3.1913309 43 30
4.5904737 16.654261 -0.40198708 16 16
3.673759 16.157074 -0.28922129 15 17
5.4928455 16.502499 -0.50617534 11 15
1.6242012 5.8133225 -1.6896983 2 1
2.8094301 8.440546 -1.7791762 0 2
4.6530652 16.654198 0 16 20
6.6245952 17.0704 -0.21317153 17 18
3.0885682 11.054569 -1.7856979 3 3
3.802047 11.422728 -1.5323912 26 4
3.677804 16.174864 0.096408032 13 21
5.5089736 16.550955 -0.10138303 8 19
3.3827767 12.107596 -1.3541353 4 5
4.4278364 11.409745 -1.1424686 23 6
4.6582618 16.672798 0.40282452 17 24
6.6217017 17.062944 0.21307839 16 22
4.5579796 16.313869 -1.1844649 12 8
3.8867469 11.677197 -1.0046886 1 7
3.6807423 16.187786 0.48313561 12 25
5.5107546 16.556303 0.30457941 11 23
3.6712213 16.145914 -1.0611836 13 9
4.485795 11.559093 -0.72208673 28 10
4.6666851 16.702946 1.0099912 20 27
5.5095496 16.552685 0.71074921 19 26
4.5630856 16.332146 -0.7899124 12 12
4.2954974 12.905231 -0.71281582 1 11
4.577785 16.384756 2.0888407 24 29
5.5159822 16.57201 1.4258311 18 28
3.6757038 16.165628 -0.67541528 17 13
5.9635763 21.344765 5.938344 3 31
5.5427542 16.652443 3.1999404 32 30
4.6582618 16.672798 -0.40282452 16 16
3.7382429 16.179222 -0.28984958 15 17
5.5619044 16.517326 -0.50722253 11 15
1.6465842 5.8150296 -1.6918551 1 1
2.8426337 8.4418402 -1.7815297 0 2
4.7166243 16.657095 0 16 20
6.7016678 17.091858 -0.21373029 17 18
3.1292939 11.051325 -1.7869278 4 3
3.8418999 11.409386 -1.5323912 26 4
3.7378483 16.177515 0.096501015 13 21
5.5794835 16.56953 -0.10161551 9 19
4.4792709 11.423882 -1.1454427 22 6
4.7251534 16.687218 0.40356898 15 24
6.6987476 17.08441 0.21363717 16 22
4.6214256 16.320894 -1.1861391 12 8
3.8804138 11.523761 -0.99264663 1 7
3.7426305 16.198212 0.48383373 11 25
5.5800042 16.571077 0.3052077 11 23
3.7338533 16.160223 -1.0629745 13 9
4.7336688 16.717289 1.0118517 18 27
5.5813298 16.575014 0.71254033 22 26
4.6298695 16.350714 -0.79158747 14 12
4.3264999 12.848515 -0.710513 1 11
4.6414456 16.391598 2.0917656 24 29
5.5916119 16.605549 1.4303875 24 28
3.7384126 16.179956 -0.6765551 17 13
6.5842161 16.792311 -0.62986612 2 14
5.9959469 21.175114 5.8969331 3 31
5.6134114 16.670286 3.2071154 32 30
4.7240639 16.683369 -0.40347594 16 16
3.8001833 16.189434 -0.29026842 13 17
5.6272664 16.520519 -0.50792074 8 15
1.6668736 5.8092461 -1.6918551 2 1
2.8695564 8.4244394 -1.7799606 0 2
4.7824655 16.667442 0 18 20
6.7745504 17.101826 -0.21414939 14 18
3.1733043 11.05933 -1.7900025 5 3
3.8893821 11.418442 -1.5354217 7 4
3.800698 16.191628 0.096663751 13 21
5.6476092 16.580242 -0.10180148 9 19
4.5352578 11.448906 -1.1495323 23 6
4.7944064 16.709057 0.40449947 14 24
6.7760234 17.105545 0.21419595 16 22
3.6163557 12.603415 -0.91687912 2 8
3.8073773 16.220081 0.48488104 11 25
5.6520028 16.593142 0.30597562 11 23
3.7984538 16.182066 -1.0652769 13 9
4.7953019 16.712177 1.0125493 18 27
5.6507559 16.589479 0.71400577 19 26
4.6979394 16.37286 -0.79344869 14 12
4.3893585 12.886271 -0.71344382 1 11
4.7073979 16.405823 2.0956655 21 29
5.6598306 16.616121 1.4329913 23 28
3.8021786 16.197935 -0.6778577 14 13
6.6427965 16.769224 -0.62986612 2 14
6.0282698 21.009214 5.8565574 3 31
5.6817217 16.680389 3.2128551 33 30
4.7899947 16.693684 -0.4041273 15 16
3.8556533 16.196869 -0.29061747 13 17
5.6908455 16.536785 -0.508968 9 15
1.6829666 5.7965822 -1.6896983 2 1
2.9011121 8.4302177 -1.7830985 0 2
4.8448396 16.686909 0 18 20
6.8416033 17.113884 -0.21456847 14 18
3.2102346 11.056897 -1.7912322 6 3
3.8571022 16.202955 0.09680324 13 21
5.7139845 16.604025 -0.10205722 9 19
3.4463987 11.870309 -1.3314306 14 5
4.580071 11.45679 -1.151763 23 6
4.8513336 16.709276 0.4048717 14 24
6.8430877 17.117598 0.21461502 16 22
3.6403544 12.538343 -0.91297269 2 8
3.9528651 11.486463 -0.99167025 13 7
3.863868 16.231379 0.48557922 11 25
5.7158132 16.609339 0.30660388 9 23
3.8557408 16.197237 -1.0670676 13 9
4.6262951 11.572416 -0.72580755 2 10
4.8600259 16.739216 1.0151074 18 27
5.7145462 16.605658 0.71547121 18 26
4.7560353 16.381042 -0.79456544 14 12
4.4207187 12.845979 -0.71197844 1 11
4.7677684 16.421455 2.0995653 24 29
5.7262702 16.639725 1.4365712 23 28
3.8585978 16.209238 -0.67883468 14 13
6.7458954 16.874477 -0.63461244 2 14
6.0586886 20.867727 5.8223934 3 31
5.748179 16.70339 3.2207475 33 30
4.8513336 16.709276 -0.4048717 15 16
3.9243999 16.209156 -0.29110613 13 17
5.7674518 16.55257 -0.5101316 11 15
1.7084746 5.8011632 -1.6929333 2 1
2.9321675 8.4153128 -1.7823141 0 2
4.9167829 16.695045 0 18 20
6.9252481 17.131989 -0.21512723 17 18
3.2593634 11.067241 -1.7949218 4 3
3.9611638 11.368529 -1.5323912 1 4
3.9277554 16.223015 0.097012475 13 21
5.7882214 16.612181 -0.10224319 10 19
3.4672315 11.773062 -1.3220061 14 5
4.6329813 11.461276 -1.1539936 22 6
4.9233603 16.717379 0.40552306 14 24
6.9222503 17.124573 0.2150341 16 22
3.6253402 12.309923 -0.89734727 2 8
3.9864435 11.441082 -0.9890666 25 7
3.933686 16.247511 0.4865101 11 25
5.7887535 16.613707 0.30709255 10 23
3.9235373 16.205593 -1.0686027 11 9
4.7066102 11.643423 -0.73138893 2 10
4.9344125 16.754908 1.0172004 20 27
5.7927265 16.625111 0.71726233 17 26
4.8290544 16.397161 -0.79624063 14 12
4.8408771 16.437305 2.1039524 24 29
5.8019218 16.651501 1.4395005 23 28
3.9264469 16.217611 -0.67981166 17 13
6.0940123 20.692354 5.7799473 3 31
5.8252163 16.718355 3.227922 33 30
4.9256196 16.725052 -0.40570918 16 16
3.9810195 16.220053 -0.29152501 13 17
5.8326955 16.572086 -0.5112952 9 15
1.7244903 5.7883844 -1.6907767 2 1
2.9533806 8.3912621 -1.7791762 0 2
4.9794827 16.714018 0 18 20
6.9941387 17.147184 -0.21559286 14 18
3.2952421 11.060734 -1.7955365 4 3
4.0100312 11.393459 -1.537442 3 4
3.9853728 16.237789 0.097175211 13 21
5.8510027 16.6241 -0.10242917 8 19
3.4894364 11.712562 -1.316437 15 5
4.679492 11.472479 -1.1565961 22 6
4.9872694 16.740154 0.40645358 14 24
6.9941387 17.147184 0.21559286 19 22
3.6366494 12.206694 -0.89065063 2 8
4.0276599 11.443546 -0.99036849 37 7
3.9894719 16.25449 0.48709193 12 25
5.8528652 16.629393 0.30772081 12 23
3.9791832 16.21257 -1.0698818 13 9
4.7446718 11.632277 -0.7316215 2 10
4.9972839 16.773767 1.0192934 20 27
5.8542128 16.633223 0.71840215 19 26
4.8896666 16.412542 -0.79772961 12 12
5.9372406 16.869123 -0.93723238 2 11
4.9015584 16.452457 2.1078525 24 29
5.8634677 16.659517 1.4417785 23 28
3.9821367 16.224604 -0.6806258 14 13
4.8283253 11.837367 -0.44643438 1 14
6.1225805 20.550913 5.7457829 3 31
5.8907714 16.737093 3.2350969 33 30
4.9884119 16.743988 -0.40654668 16 16
4.0472116 16.232517 -0.29201365 13 17
5.9068055 16.588264 -0.51245886 9 15
1.7479196 5.7894006 -1.6929333 2 1
2.9920089 8.4025517 -1.7838831 0 2
5.0522671 16.73395 0 18 20
7.0737014 17.162113 -0.21610509 14 18
3.3403268 11.063718 -1.7979962 5 3
4.051631 16.250242 0.097337939 13 21
5.9253082 16.640228 -0.10266165 10 19
3.5196948 11.657815 -1.3117247 21 5
4.729095 11.473663 -1.158455 23 6
5.0601459 16.760046 0.40738413 15 24
7.0752254 17.16581 0.21615164 16 22
3.662909 12.132165 -0.88618624 3 8
4.073585 11.439976 -0.99134487 33 7
4.0577226 16.274675 0.48813915 11 25
5.9245062 16.637974 0.30827934 12 23
4.042438 16.213373 -1.0709052 13 9
4.7111869 11.430214 -0.71999371 2 10
5.0679584 16.785921 1.0211538 18 27
5.9325628 16.660601 0.72051895 19 26
4.9567146 16.417463 -0.79884636 12 12
5.9534664 16.719305 -0.93011475 2 11
4.9721498 16.468588 2.1122396 21 29
5.9365211 16.671717 1.4447076 21 28
4.0483408 16.237047 -0.68176562 14 13
6.1554213 20.387781 5.7064424 3 31
5.9599929 16.737635 3.2394018 30 30
5.0566783 16.74856 -0.40710494 16 16
4.1097398 16.241552 -0.29243252 13 17
5.9768662 16.6014 -0.51350611 9 15
1.7681191 5.7832632 -1.6929333 2 1
3.0133512 8.3699121 -1.7791762 0 2
5.1176701 16.739162 0 16 20
7.1489406 17.17424 -0.21657072 14 18
3.3847067 11.070889 -1.8010708 4 3
4.1008668 11.390606 -1.5409775 5 4
4.1142216 16.259264 0.097477429 13 21
5.9955549 16.653309 -0.10287088 10 19
3.5464165 11.599818 -1.3065841 22 5
4.7798338 11.482822 -1.1610574 23 6
5.1279764 16.772873 0.40812853 14 24
7.1520152 17.181627 0.21666385 16 22
3.6877396 12.062065 -0.88200086 3 8
4.1202478 11.444439 -0.99297208 33 7
4.121377 16.287542 0.48895371 12 25
5.9974527 16.658581 0.30904719 12 23
4.1068468 16.23012 -1.0729518 13 9
4.7126956 11.321532 -0.71417975 2 10
5.1323633 16.787222 1.0223167 18 27
6.0042257 16.677393 0.72214729 19 26
5.0221739 16.426807 -0.8001492 12 12
6.011795 16.698418 -0.93011475 2 11
5.0354142 16.470116 2.114677 24 29
6.0081887 16.6884 1.4479623 23 28
4.1138215 16.257685 -0.68323106 14 13
4.8729658 11.706557 -0.44280481 13 14
6.1915379 20.251629 5.6743493 3 31
6.0290494 16.746346 3.2451415 31 30
5.125638 16.765224 -0.40794244 15 16
4.1762118 16.253496 -0.29292119 13 17
6.0499916 16.613195 -0.51455337 9 15
1.7904456 5.7804232 -1.6940117 2 1
3.0453527 8.3624973 -1.7799606 0 2
5.1884604 16.750856 0 18 20
7.2289004 17.188477 -0.21708293 14 18
3.43345 11.084835 -1.8053751 5 3
4.1602421 11.423967 -1.5475434 3 4
4.1797638 16.267319 0.097616911 13 21
6.0702443 16.668808 -0.10310336 8 19
3.5806749 11.560148 -1.3035854 24 5
4.8265233 11.476238 -1.1621727 23 6
5.1988878 16.784521 0.40887296 14 24
7.2289004 17.188477 0.21708293 13 22
3.7153993 11.995104 -0.87809449 3 8
4.1662621 11.440499 -0.99394846 31 7
4.1870203 16.295561 0.48965186 12 25
6.0707908 16.670309 0.30967551 9 23
4.1752501 16.249752 -1.0752542 13 9
4.7742872 11.352035 -0.71720302 2 10
5.2044954 16.802626 1.0244097 18 27
6.0748887 16.681562 0.72328705 19 26
5.0906277 16.435005 -0.8014521 14 12
6.05656 16.631231 -0.92760259 2 11
5.1051488 16.481886 2.1185768 24 29
6.0843253 16.707474 1.4515423 23 28
4.1823378 16.277338 -0.68469656 17 13
4.9266911 11.714412 -0.443782 21 14
6.2245736 20.09593 5.6370788 3 31
6.1065507 16.768505 3.2537513 34 30
5.1977048 16.780703 -0.40877989 15 16
4.2419982 16.273651 -0.29354948 13 17
6.1176114 16.61824 -0.51536793 9 15
1.8094583 5.7704625 -1.6929333 2 1
3.073168 8.348135 -1.7791762 0 2
5.2540779 16.755545 0 18 20
7.3091774 17.211 -0.21768826 14 18
3.4768507 11.08787 -1.8078347 5 3
4.2435813 16.279724 0.097779647 13 21
6.1408257 16.681301 -0.10331259 8 19
3.6126738 11.521017 -1.3005867 24 5
4.8774486 11.484982 -1.1647751 23 6
5.2658172 16.792982 0.40952432 12 24
7.3044868 17.199957 0.21754858 16 22
3.7429183 11.936374 -0.8747462 3 8
4.211678 11.44085 -0.99525028 31 7
4.2489166 16.300194 0.49023369 12 25
6.1399941 16.679041 0.31023398 9 23
4.2399988 16.265982 -1.0773008 13 9
4.8060775 11.316923 -0.71604025 2 10
5.2738657 16.818649 1.0265026 18 27
6.1399808 16.679007 0.72410113 22 26
5.1611133 16.459076 -0.80349952 12 12
6.1311331 16.65497 -0.93011475 2 11
5.1745262 16.50185 2.1234517 25 29
6.1577544 16.727287 1.4551224 19 28
4.2451758 16.285841 -0.68567348 14 13
6.2611542 19.967167 5.6070561 3 31
6.1813569 16.791403 3.262361 34 30
5.2634249 16.785353 -0.40933821 14 16
4.3079743 16.293543 -0.29417777 13 17
6.206254 16.679228 -0.51792789 4 15
1.8272576 5.7567687 -1.6907767 2 1
3.1009197 8.3336821 -1.7783918 0 2
5.3258405 16.779041 0 18 20
7.3849702 17.222143 -0.21815392 14 18
3.5191176 11.086967 -1.8096795 5 3
4.2523432 11.428118 -1.5520891 10 4
4.3075356 16.291883 0.097942382 13 21
6.2687583 16.847208 -0.10447498 8 19
3.6444418 11.481802 -1.2975879 27 5
4.9332023 11.504491 -1.1684929 24 6
5.3352876 16.808805 0.41036183 12 24
7.3849702 17.222143 0.21815392 16 22
3.7712784 11.8814 -0.87167686 3 8
4.2571468 11.441027 -0.99655211 30 7
4.3119178 16.308458 0.49093187 12 25
6.3181195 16.979864 0.3162376 13 23
4.3038907 16.278099 -1.0790918 13 9
4.872303 11.362471 -0.71999371 2 10
5.3422022 16.830589 1.0283631 18 27
6.2246418 16.728643 0.72719491 13 26
5.2294092 16.475235 -0.80517459 14 12
6.2156959 16.704603 -0.93409228 2 11
5.244103 16.521528 2.1283264 25 29
6.3495727 17.064394 1.4863664 10 28
4.3111892 16.305702 -0.68713897 12 13
6.2509065 16.799231 3.2681007 31 30
5.3352876 16.808805 -0.41036183 16 16
4.3710423 16.301584 -0.29459664 13 17
6.386888 16.983051 -0.52805138 7 15
1.847343 5.7503552 -1.6907767 2 1
3.1286123 8.3191347 -1.7776072 0 2
5.3953938 16.794622 0 16 20
7.4625258 17.236633 -0.21866611 14 18
3.5662622 11.100956 -1.8139838 5 3
4.3019891 11.439201 -1.5556246 5 4
4.3819933 16.342424 0.098337583 11 21
6.4077878 17.038624 -0.10580008 8 19
3.675987 11.442505 -1.2945892 28 5
4.9812455 11.505475 -1.1703519 23 6
5.3988256 16.805305 0.410734 10 24
7.4672933 17.247646 0.21880582 13 22
3.8090713 11.856766 -0.87083977 7 8
4.3040776 11.444755 -0.99817944 30 7
4.4133492 16.459366 0.49593541 11 25
6.4153671 17.058779 0.31812248 16 23
4.3679266 16.289965 -1.0808825 11 9
5.5465555 12.811205 -0.81301612 2 10
5.385046 16.762413 1.0253398 15 27
6.411026 17.047235 0.74201238 13 26
5.2966681 16.487314 -0.80666357 13 12
5.3102469 16.529581 2.1317387 25 29
6.4259439 17.086903 1.4902717 10 28
4.3711896 16.302134 -0.68762743 13 13
5.5001564 12.704034 -0.48342782 1 14
6.3219795 16.810455 3.2745578 31 30
5.3927107 16.786272 -0.41026875 9 16
4.5092077 16.608124 -0.30039081 19 17
6.4558187 17.004021 -0.52933139 5 15
1.8642085 5.7408605 -1.6896983 2 1
3.1575153 8.3165989 -1.7791762 0 2
5.4234176 16.701504 0 6 20
7.5326428 17.249762 -0.21913177 14 18
3.6060004 11.104737 -1.8164436 5 3
4.3421283 11.436759 -1.5571399 3 4
4.5171552 16.637398 0.1001974 19 21
6.47264 17.048326 -0.10598606 10 19
3.7070012 11.415771 -1.2928756 28 5
5.0301142 11.518969 -1.173326 22 6
5.4256549 16.708393 0.40877989 5 24
7.5374446 17.260757 0.21927145 13 22
3.8352082 11.810586 -0.86832863 3 8
4.3484993 11.45354 -1.0001322 27 7
4.5247483 16.665363 0.50256807 13 25
6.4788609 17.064713 0.31861112 12 23
4.425354 16.299278 -1.0824176 11 9
5.5468225 12.70223 -0.80720222 2 10
5.4093103 16.65806 1.019991 16 27
6.4801517 17.068111 0.7438035 13 26
5.3558402 16.493397 -0.80778033 13 12
6.2994103 16.592056 -0.93011475 2 11
5.3756351 16.554356 2.1371009 21 29
6.4909101 17.096449 1.4928755 10 28
4.4318047 16.323036 -0.68909293 15 13
5.4402881 16.753456 4.7198243 20 31
6.385931 16.819942 3.2802975 34 30
5.4095988 16.658949 -0.40757021 6 16
4.582799 16.637753 -0.30122852 21 17
4.939085 12.866761 -0.40110031 3 15
1.8816296 5.723011 -1.6864636 2 1
3.1809494 8.2866602 -1.7752538 0 2
5.4471192 16.567514 0 6 20
7.6200309 17.27693 -0.21983023 14 18
3.6503832 11.102708 -1.8182883 4 3
4.5844812 16.643862 0.10033688 19 21
6.5508533 17.065563 -0.10624179 10 19
3.7488201 11.402105 -1.2928756 30 5
5.080339 11.518675 -1.175185 22 6
5.4468942 16.56683 0.40580222 8 24
7.6168027 17.269609 0.2197371 13 22
3.8572857 11.732006 -0.86358511 7 8
4.3947387 11.448689 -1.0011085 27 7
4.5942984 16.679502 0.50349897 13 25
6.5571332 17.081923 0.31937903 12 23
4.4956694 16.321432 -1.0849758 13 9
5.5433888 12.56855 -0.79999298 2 10
5.4416475 16.550871 1.0146424 20 27
6.5598578 17.08902 0.74575746 13 26
5.4249954 16.500225 -0.80908316 13 12
6.4074244 16.691917 -0.93702304 2 11
5.443718 16.557169 2.1400259 21 29
6.5678196 17.10976 1.49613 13 28
4.5011582 16.34136 -0.69055837 15 13
5.6268325 12.757742 -0.48691779 1 14
5.4787316 16.663664 4.7001543 15 31
6.4630532 16.836836 3.2881899 32 30
5.4394002 16.544037 -0.4052439 9 16
4.6454744 16.649429 -0.30171719 19 17
1.9042444 5.727705 -1.6896983 2 1
3.2041609 8.2650948 -1.7729003 0 2
5.4894147 16.511402 0 14 20
7.6984267 17.299067 -0.22043556 14 18
3.6959126 11.116796 -1.8225927 3 3
4.6504035 16.667095 0.10056936 19 21
6.6262097 17.092228 -0.10654401 10 19
3.7853587 11.385838 -1.2924473 28 5
5.1282268 11.523594 -1.1774155 21 6
5.4967599 16.533497 0.40543002 12 24
7.6902957 17.280796 0.22020273 16 22
3.8923965 11.707792 -0.86274809 11 8
4.444211 11.463789 -1.0037122 30 7
4.658185 16.694984 0.50442988 13 25
6.6325412 17.108561 0.32028657 12 23
4.557282 16.333347 -1.0867666 13 9
5.5028052 16.55168 1.015805 20 27
6.6323867 17.108162 0.74754858 11 26
5.4935532 16.523851 -0.81113058 5 12
5.5086184 16.569164 2.1439257 25 29
6.6418185 17.132492 1.5000355 15 28
4.5628462 16.353291 -0.69169819 13 13
7.4943438 16.840475 -0.64368629 2 14
5.5351839 16.649071 4.7011895 15 31
6.5387683 16.866674 3.2982345 32 30
5.4954987 16.529703 -0.40533698 12 16
4.712997 16.65538 -0.30213606 19 17
6.5445771 16.699797 -0.52200055 1 15
1.9252236 5.7206869 -1.6896983 2 1
3.2315686 8.2459927 -1.7713315 0 2
5.5652013 16.536663 0 16 20
7.7748923 17.299921 -0.22080807 12 18
3.739152 11.110666 -1.8238224 8 3
4.72017 16.680729 0.10075534 16 21
6.703403 17.105072 -0.10677649 10 19
3.8283308 11.375656 -1.2928756 30 5
5.1818547 11.530151 -1.1800181 22 6
5.5713482 16.554928 0.40645358 14 24
7.7765322 17.30357 0.22085464 13 22
3.9289153 11.674537 -0.86135292 8 8
4.4920144 11.462272 -1.0050141 30 7
4.7269607 16.704727 0.50524437 13 25
6.7039542 17.106478 0.32070544 12 23
4.6258078 16.34726 -1.0888132 14 9
5.2234073 11.622609 -0.74208653 2 10
5.5787139 16.576815 1.0185957 20 27
6.7067094 17.113508 0.74885124 10 26
4.3433433 12.905985 -0.63431227 11 12
5.5794377 16.578966 2.1478255 25 29
6.719111 17.145155 1.5032902 13 28
4.6314559 16.36722 -0.69300079 15 13
5.6035595 16.650642 4.7074013 15 31
6.6177702 16.886562 3.3068442 32 30
5.5700731 16.55114 -0.40636054 13 16
4.779922 16.669586 -0.30269456 19 17
6.6190176 16.717745 -0.52328056 1 15
1.9451793 5.7139325 -1.6896983 2 1
3.2603309 8.234663 -1.7713315 0 2
5.6319108 16.543646 0 14 20
7.8534045 17.312746 -0.22132029 13 18
3.7830048 11.112514 -1.826282 9 3
4.5764089 11.558701 -1.5823934 1 4
4.7871842 16.694912 0.10094132 16 21
6.7748451 17.11132 -0.10696247 11 19
3.8692946 11.36599 -1.293304 28 5
5.2302942 11.530128 -1.1818769 22 6
5.6394081 16.565668 0.40719804 12 24
7.856709 17.32003 0.2214134 13 22
3.9657824 11.649421 -0.86051583 7 8
4.5393333 11.465057 -1.0066414 31 7
4.7951579 16.722719 0.50629169 13 25
6.7812896 17.127598 0.32154316 11 23
4.6916413 16.361715 -1.0908599 11 9
5.2771397 11.633398 -0.74394697 2 10
5.6481223 16.591267 1.0206888 20 27
6.7840567 17.134586 0.75080514 10 26
4.5967178 11.609994 -0.65440887 20 11
5.6513453 16.600733 2.1531878 25 29
6.7935896 17.158663 1.5065447 15 28
4.6962681 16.37785 -0.69414061 11 13
5.6703587 16.656586 4.7146482 15 31
6.676671 16.863361 3.3068442 28 30
5.6394081 16.565668 -0.40719804 13 16
4.841188 16.685215 -0.30325302 19 17
6.7026649 16.774836 -0.52572411 1 15
1.9656281 5.7150779 -1.6918551 1 1
3.281821 8.2134514 -1.7689781 0 2
5.6929684 16.552347 0 14 20
7.9327164 17.342545 -0.22201875 15 18
3.8217571 11.111787 -1.8281268 9 3
4.8474159 16.70668 0.10110405 16 21
6.8434157 17.127094 -0.10719494 11 19
3.9088669 11.365059 -1.2945892 25 5
5.281405 11.546234 -1.1852229 22 6
5.7044334 16.585682 0.40812853 12 24
7.92939 17.335272 0.22192563 16 22
3.9945774 11.614263 -0.85884166 8 8
4.5886464 11.484057 -1.0095705 28 7
4.855474 16.734451 0.50710618 12 25
6.8484249 17.139629 0.32217142 11 23
4.7508111 16.37373 -1.0926508 11 9
5.3286142 11.649444 -0.74603999 2 10
5.708014 16.596092 1.022084 20 27
6.8541713 17.154013 0.75259626 10 26
4.4496369 12.937351 -0.6372903 1 12
4.639101 11.610332 -0.65524626 11 11
5.7163877 16.620438 2.1580625 22 29
6.8593016 17.166851 1.5091484 15 28
4.7543836 16.386044 -0.69511759 13 13
5.7364864 16.678877 4.7260356 18 31
6.6872792 16.73633 3.2860377 24 30
5.7044334 16.585682 -0.40812853 12 16
4.9135904 16.705725 -0.30395111 19 17
4.9585428 12.279001 -0.38539141 1 15
1.9827622 5.6969223 -1.6886202 2 1
3.3163071 8.2122793 -1.7713315 0 2
5.7641125 16.561592 0 14 20
8.0029316 17.327883 -0.22220501 11 18
3.8689518 11.116369 -1.8312014 7 3
4.6609244 11.541999 -1.5844136 7 4
4.9142566 16.707989 0.10122029 19 21
6.9241123 17.146404 -0.10747392 11 19
5.3303657 11.541264 -1.18671 22 6
5.7770114 16.598654 0.408966 12 24
8.0062857 17.335142 0.22229813 10 22
4.0358052 11.595777 -0.85856271 6 8
4.6381683 11.485647 -1.0111977 31 7
4.9280543 16.7549 0.50826979 13 25
6.9291649 17.158918 0.32300916 11 23
4.8186731 16.383015 -1.0944415 8 9
5.371273 11.629836 -0.74603999 2 10
5.7793016 16.605234 1.0239445 20 27
6.9334559 17.169542 0.75438744 10 26
4.460247 12.815293 -0.63207877 1 12
5.7890081 16.633123 2.1624498 19 29
6.9400845 17.185957 1.5130539 15 28
4.8223004 16.395348 -0.69625735 13 13
5.8128157 16.701529 4.7384591 15 31
6.7249956 16.653326 3.2745578 31 30
5.7756968 16.594875 -0.40887296 10 16
4.9821568 16.722969 -0.30457941 19 17
4.9515448 12.139443 -0.38155144 1 15
2.0039163 5.6935987 -1.6896983 2 1
3.3419924 8.193387 -1.7697625 0 2
5.8338442 16.575327 0 16 20
8.0261984 17.220081 -0.22118059 6 18
3.9156079 11.125165 -1.8348908 7 3
4.7281632 11.59179 -1.593505 13 4
4.9862576 16.736734 0.10149927 19 21
7.000545 17.16287 -0.10772964 11 19
4.0032969 11.37431 -1.2988731 1 5
5.3874478 11.558683 -1.1904277 22 6
5.8468699 16.612335 0.40980348 12 24
8.0363369 17.241833 0.22145997 6 22
4.0669875 11.55527 -0.85660952 5 8
4.6872697 11.491533 -1.0131505 31 7
4.9933639 16.760588 0.508968 15 25
7.0026174 17.167952 0.32363743 11 23
3.7531848 12.597836 -0.84244883 3 9
5.8491654 16.618858 1.0260375 20 27
7.0069361 17.178539 0.75585288 10 26
5.8872199 16.72698 -0.82602054 1 12
5.3360834 13.082195 -0.74044919 1 11
5.8549461 16.635283 2.1653748 26 29
7.0166006 17.202232 1.5166339 15 28
4.8886352 16.409058 -0.69756007 13 13
5.652451 12.127243 -0.46723446 1 14
5.8864775 16.724871 4.7508826 15 31
6.7860627 16.637033 3.2759926 34 30
5.845542 16.608562 -0.40971044 11 16
5.0497389 16.736107 -0.30513787 19 17
2.0224857 5.682941 -1.6886202 2 1
3.3690767 8.1780462 -1.7689781 0 2
5.9050751 16.592548 0 14 20
8.0488033 17.112335 -0.22015618 6 18
3.9570656 11.118876 -1.8361206 6 3
4.7837095 11.611905 -1.5985558 11 4
5.0550442 16.753691 0.10170849 19 21
7.078692 17.182711 -0.10800862 11 19
4.0549746 11.393989 -1.3027287 1 5
5.4413204 11.56864 -1.1934019 21 6
5.9168849 16.625732 0.41064095 10 24
8.0505056 17.115955 0.22020273 10 22
4.101944 11.525967 -0.85549343 15 8
4.7319074 11.486161 -1.0141269 30 7
5.0622306 16.777508 0.51001525 15 25
7.08078 17.18778 0.32447514 9 23
3.747551 12.420328 -0.83144814 1 9
5.4710288 11.631802 -0.7485981 19 10
5.921864 16.639725 1.0285957 22 27
7.0820785 17.190931 0.75748116 10 26
5.9683433 16.770325 -0.82918465 1 12
5.3847566 13.070878 -0.74086791 1 11
5.9289479 16.659628 2.1712244 26 29
7.0963421 17.225555 1.5208648 15 28
4.9551163 16.422504 -0.69886267 13 13
5.5824504 11.868691 -0.45802099 1 14
5.9538865 16.729702 4.7581296 15 31
6.8425927 16.609608 3.2752752 34 30
5.9142036 16.618198 -0.41045487 11 16
5.1110468 16.738398 -0.30548695 19 17
4.9972091 12.016857 -0.37875876 2 15
2.0413187 5.6762037 -1.6886202 1 1
3.3931634 8.1595869 -1.7674091 0 2
5.9749517 16.614281 0 14 20
8.0952158 17.063871 -0.21987678 12 18
4.0032759 11.131729 -1.8404249 7 3
4.8358994 11.628954 -1.6031015 3 4
5.1175795 16.759792 0.10184798 16 21
7.1509871 17.196077 -0.10824109 11 19
5.4864793 11.564927 -1.1948891 20 6
5.9828076 16.636126 0.41138536 12 24
8.0952158 17.063871 0.21987678 10 22
4.1320381 11.489773 -0.85381925 13 8
4.7791533 11.492496 -1.0160797 30 7
5.1295123 16.79887 0.51117885 15 25
7.1500187 17.193748 0.32503361 11 23
3.7607374 12.316208 -0.82530814 1 9
5.5198383 11.635243 -0.74999344 25 10
5.9878182 16.650059 1.0304561 20 27
7.1559234 17.207947 0.75927228 10 26
6.0009322 16.686523 -0.82602054 1 12
5.4357371 13.071392 -0.74191457 1 11
5.9989362 16.680973 2.1765866 26 29
7.1671987 17.235062 1.5237939 13 28
5.0188828 16.436565 -0.70016527 13 13
5.6217752 11.850116 -0.45802099 1 14
6.0184798 16.735317 4.7653766 15 31
6.8961201 16.583195 3.2745578 34 30
5.9828076 16.636126 -0.41138536 11 16
5.1818223 16.750114 -0.30604541 19 17
5.0226383 11.954226 -0.37736243 3 15
2.0647445 5.6759224 -1.6907767 1 1
3.4169722 8.1326303 -1.7642713 0 2
6.0481181 16.626101 0 14 20
8.176712 17.073765 -0.22038901 10 18
4.0521588 11.139267 -1.8441144 5 3
4.8877144 11.633099 -1.6061318 3 4
5.1907992 16.779133 0.10208046 16 21
7.229465 17.206627 -0.10847357 11 19
5.5425954 11.573474 -1.1978632 21 6
6.0628858 16.666697 0.41268814 11 24
8.1749849 17.070156 0.22034244 10 22
4.1741257 11.47455 -0.85381925 22 8
4.8289676 11.493277 -1.0177069 30 7
5.198143 16.802872 0.51187706 18 25
7.2346826 17.219046 0.32601094 9 23
3.7810817 12.222256 -0.81993574 3 9
5.5727987 11.636542 -0.75138879 21 10
6.0638247 16.669277 1.0330143 20 27
7.2375278 17.225817 0.76122624 10 26
6.0456643 16.619354 -0.82378703 1 12
6.0763264 16.703644 2.1824365 22 29
7.2504005 17.256454 1.5280249 11 28
5.0920892 16.460054 -0.70195645 11 13
5.6340942 11.764532 -0.45550826 1 14
6.0929914 16.749454 4.7757292 15 31
6.9431405 16.525154 3.2681007 38 30
6.0574174 16.651663 -0.41231591 13 16
5.2486234 16.758644 -0.30653408 19 17
5.0518398 11.907176 -0.37643152 2 15
2.0818846 5.6614504 -1.6886202 2 1
3.4529974 8.1387072 -1.7681937 0 2
6.115777 16.631166 0 12 20
8.2571392 17.088337 -0.22094777 9 18
4.100564 11.151022 -1.8484188 3 3
4.936038 11.634232 -1.6086572 2 4
5.2588973 16.791449 0.10226644 16 21
7.3144751 17.240202 -0.10884552 11 19
4.1891642 11.39196 -1.3074409 13 5
5.589889 11.568401 -1.1993504 20 6
