# .PCD v0.7 - Point Cloud Data file format
VERSION 0.7
FIELDS x y z intensity ring
SIZE 4 4 4 4 2
TYPE F F F F U
COUNT 1 1 1 1 1
WIDTH 1244
HEIGHT 1
VIEWPOINT 0 0 0 1 0 0 0
POINTS 1244
DATA ascii
-0.11639474 -2.7203586 -0.079242617 0 15
-0.10730828 -2.5079916 -0.50206029 0 2
0.05835053 -9.5518217 0 110 20
-1.68022 -18.285725 -0.21377686 4 18
0.52685446 -9.5733519 0.055724632 75 21
-0.40968448 -9.575078 -0.055701386 17 19
-0.24270487 -2.6413412 -0.24760301 0 6
0.058701169 -9.6092205 0.2236053 56 24
-1.6813179 -18.297672 0.21391656 9 22
-0.11384244 -2.6607068 -0.21740589 0 7
0.52751923 -9.5854311 0.27938548 22 25
-0.40997091 -9.5817728 0.16740347 9 23
-0.24882853 -2.7079847 -0.1583707 0 10
0.05861773 -9.595562 0.55883229 66 27
-0.4093518 -9.5673037 0.39013863 14 26
0.016402464 -2.6850386 -0.12507567 0 12
-0.11577216 -2.7058079 -0.14193512 1 11
0.12642965 -20.696188 2.5412197 4 29
-0.39384708 -9.2049303 0.75213325 0 28
0.14604662 -2.6537797 -0.10828137 2 13
-0.25787711 -2.8064597 -0.098416582 0 14
0.017002085 -2.7831948 -0.064764582 0 16
0.14298245 -2.7558732 -0.048168644 0 17
-0.12567438 -2.7359557 -0.07970807 0 15
-0.11536691 -2.51156 -0.50284475 0 2
0.028365608 -9.5599585 0 110 20
-1.7387942 -18.292299 -0.21391656 4 18
0.49719039 -9.5829487 0.055771131 52 21
-0.24987116 -2.6286712 -0.24648769 0 6
0.028500317 -9.6053591 0.22351226 52 24
-1.7387942 -18.292299 0.21391656 3 22
-0.12146909 -2.6444056 -0.21610406 0 7
0.49719551 -9.5830479 0.27926913 28 25
-0.25695688 -2.7032137 -0.15813814 0 10
0.028483503 -9.5996923 0.55906487 61 27
-0.44105729 -9.601903 0.3916041 44 26
0.0080143865 -2.7010596 -0.12582016 0 12
-0.12482212 -2.7174017 -0.14256316 1 11
0.061350182 -20.67663 2.5387824 4 29
-0.2629098 -2.7658391 -0.097020604 0 14
0.0082107484 -2.7672389 -0.064392373 0 16
0.13134001 -2.7244205 -0.047610167 0 17
-0.13748431 -2.7714174 -0.080755323 0 15
-0.12437718 -2.5072031 -0.50206029 0 2
-0.0066793216 -9.5679989 0 110 20
-1.8054345 -18.281824 -0.21387 4 18
0.46148577 -9.5727205 0.055701386 29 21
-0.26185256 -2.6515181 -0.24871835 0 6
-0.006708222 -9.6093979 0.2236053 56 24
-1.8066137 -18.293764 0.21400969 3 22
-0.13214822 -2.663852 -0.21773134 0 7
0.46245342 -9.5927935 0.27950186 35 25
-0.26804036 -2.7141757 -0.15883581 0 10
-0.0066986871 -9.5957394 0.55883229 62 27
-0.47545514 -9.5842543 0.39095274 12 26
-0.0018744324 -2.6850882 -0.12507567 0 12
-0.13438527 -2.7089467 -0.14214447 1 11
-0.014445292 -20.6926 2.5407324 4 29
0.12932664 -2.6826565 -0.10942119 14 13
-0.27265254 -2.7608786 -0.096881002 0 14
-0.0019345809 -2.7712495 -0.064485423 0 16
0.123022 -2.7408226 -0.047889404 0 17
-0.14519459 -2.7429969 -0.079940788 0 15
-0.13269079 -2.5067766 -0.50206029 0 2
-0.038440403 -9.575923 0 110 20
-1.8660499 -18.275736 -0.21387 4 18
0.42991787 -9.5781937 0.055724632 30 21
-0.50933915 -9.6223669 -0.056003604 15 19
-0.26902577 -2.6347868 -0.24723123 0 6
-0.038590528 -9.6133204 0.22369835 53 24
-1.8684875 -18.29961 0.21414939 3 22
-0.14034903 -2.6514554 -0.21675496 0 7
0.43046033 -9.5902786 0.27938548 34 25
-0.50694466 -9.5771313 0.16740347 5 23
-0.27744511 -2.7172444 -0.15906838 0 10
-0.038503621 -9.591671 0.55859977 56 27
-0.010810681 -2.6930583 -0.12544791 0 12
-0.14400128 -2.720453 -0.14277251 1 11
-0.083128907 -20.708317 2.5426822 4 29
-0.46424764 -8.770505 0.7169838 0 28
-0.28099442 -2.7520056 -0.096601807 0 14
-0.01115658 -2.7792256 -0.064671531 0 16
0.11461194 -2.769207 -0.048378069 0 17
-0.15521885 -2.7504575 -0.080173507 0 15
-0.14166102 -2.5102143 -0.50284475 0 2
-0.071925528 -9.5837307 0 108 20
-1.9323519 -18.292976 -0.21414939 2 18
-0.27905774 -2.6417532 -0.2479748 0 6
-0.072056115 -9.6011314 0.22341919 40 24
-0.1500525 -2.6589103 -0.21740589 0 7
0.39698225 -9.5917234 0.27938548 40 25
-1.0316176 -18.280127 0.31958845 7 23
-0.28860605 -2.7321439 -0.1599986 0 10
-0.072043605 -9.5994644 0.55906487 56 27
-1.0322707 -18.291698 0.74640876 4 26
-0.020300852 -2.7049911 -0.12600629 0 12
-0.1541715 -2.7318983 -0.14340053 1 11
-0.15523322 -20.68408 2.5397573 4 29
-0.99915206 -17.704842 1.4476368 2 28
0.11089838 -2.6794813 -0.10925835 1 13
-0.29101866 -2.7549834 -0.096741401 0 14
-1.3145872 -23.29431 4.253912 7 30
-0.020737518 -2.7631745 -0.064299323 0 16
0.10509628 -2.7735868 -0.048447877 0 17
-0.16577575 -2.7658634 -0.08063896 0 15
-0.15042251 -2.5097044 -0.50284475 0 2
-0.10511495 -9.5594225 0 43 20
-1.9970633 -18.294071 -0.21424252 2 18
0.36288875 -9.5769653 0.055701386 47 21
-0.29000637 -2.6565995 -0.24946189 0 6
-0.10557017 -9.6008215 0.22341919 33 24
-1.9983654 -18.306 0.2143822 3 22
-0.15981005 -2.6663296 -0.2180568 0 7
0.36349824 -9.593051 0.27938548 32 25
-1.0947037 -18.264437 0.31937903 16 23
-0.29770803 -2.7271504 -0.15976605 0 10
-0.10559575 -9.6031475 0.55929744 53 27
-0.029786922 -2.7088988 -0.12619241 0 12
-0.16298978 -2.7193813 -0.14277251 1 11
-0.22756477 -20.695322 2.5412197 4 29
-1.0611864 -17.705225 1.4479623 2 28
0.10169584 -2.683846 -0.10942119 0 13
-0.3015013 -2.7618988 -0.097020604 0 14
-0.030734509 -2.7950747 -0.065043747 0 16
0.095276438 -2.7699397 -0.048378069 0 17
-0.17365746 -2.7373359 -0.079824425 0 15
-0.033869188 -2.3378687 -0.65452904 0 1
-0.15843716 -2.4974208 -0.50049132 0 2
-2.0609097 -18.286989 -0.21424252 2 18
-0.16555737 -2.6096556 -0.33284307 0 4
0.32931891 -9.5741768 0.05567814 41 21
-1.1593688 -18.274952 -0.10642777 15 19
-0.29749385 -2.6397405 -0.2479748 0 6
-0.13902497 -9.5963955 0.22332615 28 24
-2.0618055 -18.294939 0.21433564 3 22
-0.038380269 -2.6492524 -0.1852732 0 8
-0.16861154 -2.6577981 -0.21740589 0 7
0.32987231 -9.5902653 0.27926913 35 25
-1.1589586 -18.268486 0.31951866 15 23
-0.3063314 -2.7181582 -0.15930094 0 10
-0.1391166 -9.6027212 0.55929744 53 27
-1.1591866 -18.272079 0.7459203 14 26
-0.039184757 -2.7047834 -0.12600629 0 12
-0.17197545 -2.7108228 -0.1423538 1 11
-0.29951653 -20.674553 2.5387824 4 29
-1.1224782 -17.693453 1.4473113 2 28
0.091914587 -2.6722016 -0.1089327 0 13
-0.31158802 -2.764802 -0.097160198 0 14
-0.040433094 -2.7909517 -0.06495069 0 16
0.085492268 -2.782263 -0.048587501 1 17
-0.18342111 -2.7326918 -0.07970807 0 15
-0.043276403 -2.3839443 -0.66746861 0 1
-0.1683774 -2.508564 -0.50284475 0 2
-2.1302319 -18.299177 -0.21447533 2 18
0.29410374 -9.5713215 0.055654887 49 21
-1.2274119 -18.286547 -0.10652076 19 19
-0.30946934 -2.6584122 -0.24983369 0 6
-0.17448594 -9.6118145 0.22369835 28 24
-2.1311567 -18.307123 0.21456847 3 22
-0.048017319 -2.6451046 -0.18499418 0 8
-0.17808448 -2.6531844 -0.21708044 0 7
0.29472104 -9.5914106 0.27926913 36 25
-1.2269778 -18.280079 0.3197979 15 23
-0.31675336 -2.7209837 -0.15953349 0 10
-0.17423795 -9.5981531 0.55906487 53 27
-1.2277536 -18.291637 0.74689728 14 26
-0.048952702 -2.6966314 -0.12563403 0 12
-0.18297976 -2.7261164 -0.14319119 1 11
-0.37557673 -20.689196 2.5407324 4 29
-1.1889207 -17.713087 1.449264 2 28
0.082488403 -2.6845052 -0.10942119 0 13
-0.32218143 -2.767612 -0.097299799 0 14
-0.050661892 -2.7907848 -0.06495069 0 16
0.075997174 -2.7905402 -0.048727117 1 17
-0.19464941 -2.7559652 -0.080406241 0 15
-0.051764715 -2.3914804 -0.66962522 0 1
-0.17823863 -2.5236113 -0.50598264 0 2
-0.18338874 -2.5965297 -0.33132783 2 4
0.26079929 -9.5762892 0.05567814 53 21
-1.2906754 -18.27417 -0.10647427 17 19
-0.3182731 -2.6533616 -0.24946189 0 6
-0.20795125 -9.6071491 0.2236053 25 24
-2.1955266 -18.303545 0.21461502 3 22
-0.057423245 -2.6528993 -0.18555222 0 8
-0.18846862 -2.6684537 -0.21838225 0 7
0.26134637 -9.5963774 0.27938548 49 25
-1.2907825 -18.275684 0.3197979 13 23
-0.32767656 -2.731756 -0.16023114 0 10
-0.20774208 -9.5974865 0.55906487 48 27
-1.2913169 -18.283253 0.74673444 13 26
-0.058971073 -2.7244072 -0.12693691 0 12
-0.1916507 -2.7135077 -0.14256316 1 11
-0.44779623 -20.687757 2.5407324 4 29
-1.2527125 -17.736668 1.4515423 2 28
0.07355205 -2.7007577 -0.1100725 0 13
-0.3323167 -2.7704396 -0.097439393 0 14
-0.060144037 -2.7785971 -0.064671531 0 16
0.066446006 -2.798785 -0.048866738 1 17
-0.2021988 -2.7273574 -0.079591699 0 15
-0.059724819 -2.3758826 -0.66531205 0 1
-0.18675636 -2.5190623 -0.50519818 0 2
-0.24064499 -9.5729761 0 0 20
-2.2613637 -18.311646 -0.21480128 2 18
-0.19333108 -2.6077452 -0.33284307 1 4
0.227466 -9.5811386 0.055701386 49 21
-1.3535674 -18.257586 -0.10640452 17 19
-0.32802102 -2.6561871 -0.24983369 0 6
-0.24118283 -9.5943708 0.22332615 32 24
-2.2608736 -18.307676 0.2147547 3 22
-0.066883557 -2.6606605 -0.18611027 0 8
-0.19778186 -2.6677797 -0.21838225 0 7
0.22775316 -9.5932341 0.27926913 56 25
-1.3536798 -18.259102 0.31958845 18 23
-0.33769938 -2.7345586 -0.16046372 0 10
-0.24124143 -9.5967026 0.55906487 45 27
-1.3539457 -18.26269 0.74608314 17 26
-0.068078771 -2.7082069 -0.12619241 0 12
-0.20289317 -2.7367234 -0.14381923 1 11
-0.52010512 -20.690037 2.5412197 4 29
-1.3125523 -17.704355 1.449264 2 28
0.064314157 -2.7089889 -0.11039816 0 13
-0.34345496 -2.7811651 -0.097858191 0 14
-0.070043519 -2.7863655 -0.064857639 0 16
-0.1890112 -2.4397204 -1.1410693 0 0
0.05700111 -2.7909927 -0.048727117 0 17
-0.21247737 -2.7426171 -0.080057152 0 15
-0.067603298 -2.3756714 -0.66531205 0 1
-0.19359413 -2.4988759 -0.50127584 0 2
-2.3215723 -18.300079 -0.2147547 4 18
-0.20197771 -2.6070895 -0.33284307 0 4
0.1956922 -9.5818396 0.055701386 53 21
-1.4057631 -18.145321 -0.10577684 5 19
-0.33783004 -2.6629868 -0.25057721 0 6
-0.27299798 -9.5935192 0.22332615 32 24
-2.3220756 -18.304047 0.21480128 3 22
-0.075479358 -2.6524467 -0.18555222 0 8
-0.20631965 -2.6631343 -0.2180568 0 7
0.19585763 -9.5899391 0.27915278 54 25
-1.4040281 -18.122925 0.31728473 9 23
-0.3512888 -2.7690771 -0.16255672 0 10
-0.27317792 -9.5998421 0.55929744 40 27
-1.4055479 -18.142542 0.74136108 4 26
-0.076831944 -2.6999786 -0.12582016 0 12
-0.21042478 -2.7161226 -0.14277251 1 11
-1.3712556 -17.699905 1.449264 2 28
0.055411983 -2.7131829 -0.11056098 0 13
-0.35821 -2.8236341 -0.099393763 0 14
-0.07985191 -2.8061042 -0.065322898 0 16
-0.19401477 -2.3956852 -1.1207837 0 0
0.047122873 -2.7831774 -0.048587501 0 17
-0.22301792 -2.7538147 -0.080406241 0 15
-0.076633625 -2.3985207 -0.67178184 0 1
-0.20389879 -2.5177326 -0.50519818 0 2
-2.3849206 -18.287899 -0.21470815 2 18
-0.21075672 -2.6024139 -0.33233798 0 4
0.16251467 -9.5984631 0.055794377 105 21
-1.4765203 -18.232002 -0.10631154 5 19
-0.35021368 -2.6854866 -0.25280789 0 6
-0.30699497 -9.6084948 0.22369835 32 24
-2.3864722 -18.299797 0.21484785 3 22
-0.084610306 -2.6481793 -0.1852732 0 8
-0.21625815 -2.6703453 -0.21870773 0 7
0.16238096 -9.5905657 0.27915278 47 25
-1.4756746 -18.22156 0.31909978 10 23
-0.36508366 -2.7995117 -0.16441716 0 10
-0.30694121 -9.6068125 0.55976254 33 27
-1.4749987 -18.213213 0.7444548 4 26
-0.087021805 -2.7236557 -0.12693691 0 12
-0.2215168 -2.7352791 -0.14381923 1 11
-1.433032 -17.695011 1.449264 4 28
0.045805458 -2.705368 -0.11023533 0 13
-0.36547947 -2.8025467 -0.098695777 0 14
-0.087986499 -2.7538493 -0.064113215 0 16
-0.19718701 -2.3335831 -1.0920457 0 0
0.037407424 -2.783325 -0.048587501 0 17
-0.23969901 -2.8366857 -0.082849838 0 15
-0.084869176 -2.3943889 -0.67070353 0 1
-0.21268614 -2.5170054 -0.50519818 0 2
-0.33892518 -9.5619965 0 35 20
-2.4508672 -18.295319 -0.21489441 2 18
-0.2205078 -2.60957 -0.33334813 0 4
0.12911609 -9.6069708 0.055840872 112 21
-1.5462157 -18.298481 -0.10672999 3 19
-0.35799932 -2.6724057 -0.25169256 0 6
-0.34039167 -9.6033688 0.2236053 30 24
-2.4513984 -18.299282 0.21494097 3 22
-0.093853734 -2.6478677 -0.1852732 0 8
-0.22423543 -2.6536841 -0.21740589 0 7
0.12895615 -9.5950708 0.27926913 44 25
-0.37697443 -2.8140519 -0.16534738 0 10
-0.34033221 -9.6016922 0.55952996 25 27
-1.5493348 -18.335394 0.74966532 3 26
-0.096245602 -2.7153487 -0.12656465 0 12
-0.22971809 -2.7185678 -0.14298184 1 11
-0.33330491 -9.4034328 1.1553215 15 29
-1.496805 -17.713736 1.4512168 2 28
0.036146779 -2.6895258 -0.10958401 0 13
-2.4521942 -18.305225 -0.6449427 2 14
-0.099723563 -2.8134716 -0.065509006 0 16
-0.20619304 -2.3473616 -1.0988076 0 0
0.027934691 -2.7594385 -0.048168644 0 17
-0.24665518 -2.8079944 -0.082035311 0 15
-0.092957802 -2.3979435 -0.67178184 0 1
-0.22171786 -2.5241008 -0.50676709 0 2
-0.3710961 -9.5728111 0 37 20
-2.5120661 -18.291052 -0.21494097 2 18
-0.2288128 -2.6048715 -0.33284307 0 4
0.097339265 -9.615345 0.055887364 112 21
-1.6079354 -18.305204 -0.10679974 3 19
-0.36685917 -2.6712036 -0.25169256 0 6
-0.37238976 -9.6061821 0.22369835 28 24
-2.5136991 -18.302942 0.21508068 3 22
-0.10278821 -2.6515291 -0.18555222 0 8
-0.2337316 -2.6608686 -0.2180568 0 7
0.09717828 -9.5994434 0.27938548 46 25
-1.6066679 -18.290773 0.32049599 1 23
-0.37139648 -9.5805588 0.55836719 18 27
-1.6073292 -18.298304 0.74836272 1 26
-0.10540406 -2.7190075 -0.12675078 0 12
-0.24047935 -2.7376869 -0.14402856 1 11
-0.36463898 -9.4062433 1.1558089 16 29
-1.5565828 -17.720592 1.4521933 2 28
0.02730892 -2.6976237 -0.10990967 0 13
-2.5090744 -18.26927 -0.64396554 2 14
-0.10827807 -2.7931459 -0.065043747 0 16
-0.21809976 -2.3826914 -1.1157123 2 0
0.017949739 -2.7795188 -0.048517693 0 17
-0.25585201 -2.7951264 -0.081686221 0 15
-0.10027628 -2.3629506 -0.66207713 0 1
-0.22989513 -2.5115533 -0.50441366 0 2
-0.40550151 -9.5553999 0 32 20
-2.5830009 -18.309446 -0.21526691 2 18
-0.23908207 -2.6119184 -0.33385319 0 4
0.062096424 -9.6156378 0.055887364 110 21
-1.6757462 -18.307156 -0.10684623 3 19
-0.37442183 -2.6540668 -0.25020546 0 6
-0.40590045 -9.5648003 0.22276783 30 24
-2.582442 -18.305487 0.21522036 3 22
-0.11250592 -2.6511345 -0.18555222 0 8
-0.24420948 -2.6679342 -0.21870773 0 7
0.061993729 -9.5997353 0.27938548 43 25
-1.6747903 -18.296711 0.32070544 1 23
-0.40553585 -2.8746166 -0.16906829 1 10
-0.40515423 -9.5472155 0.55650675 14 27
-1.6751143 -18.300251 0.74868834 1 26
-0.11553849 -2.722595 -0.12693691 0 12
-0.25014782 -2.7328093 -0.14381923 1 11
-0.39911237 -9.4048433 1.1558089 16 29
-1.6215221 -17.714767 1.4521933 2 28
0.017421402 -2.6977057 -0.10990967 0 13
-2.5804856 -18.291618 -0.64508229 2 14
-0.12004073 -2.8286877 -0.065881215 0 16
-0.22326052 -2.3530829 -1.1021885 1 0
0.0087574385 -2.7875617 -0.048657309 0 17
-0.26058772 -2.7464976 -0.080289878 0 15
-0.10881597 -2.3779967 -0.6663903 0 1
-0.23896353 -2.5185866 -0.50598264 0 2
-2.6448474 -18.308697 -0.21536005 2 18
-0.24886666 -2.622962 -0.33536842 0 4
0.030183956 -9.6077909 0.055840872 108 21
-1.7375798 -18.313444 -0.10691598 1 19
-0.3860682 -2.6725194 -0.25206432 0 6
-2.6437037 -18.300779 0.21526691 3 22
-0.12147927 -2.6547327 -0.18583123 0 8
-0.25343201 -2.6710789 -0.21903318 0 7
0.030146569 -9.59589 0.27926913 42 25
-1.7377224 -18.314947 0.32112429 3 23
-0.42134655 -2.9167302 -0.1716264 0 10
-0.4384549 -9.5817213 0.55859977 27 27
-1.7369239 -18.306532 0.74917686 1 26
-0.12401845 -2.7102222 -0.12637854 0 12
-0.25845423 -2.7240117 -0.14340053 1 11
-0.42975363 -9.3915691 1.1543465 16 29
-1.681011 -17.71723 1.4528441 2 28
0.0084627252 -2.6937521 -0.10974684 0 13
-2.6439869 -18.302742 -0.64578032 2 14
-0.12832366 -2.8043058 -0.065322898 0 16
-0.23182808 -2.3558972 -1.103879 1 0
-0.00097448874 -2.7915747 -0.048727117 1 17
-0.2744804 -2.7893412 -0.081569858 0 15
-0.11711614 -2.3776023 -0.6663903 0 1
-0.24813777 -2.5216405 -0.50676709 0 2
-0.47092745 -9.5604086 0 21 20
-2.709327 -18.30331 -0.21540663 2 18
-0.25879827 -2.6299753 -0.33637854 0 4
-0.003353924 -9.6078377 0.055840872 108 21
-1.8014958 -18.307268 -0.10691598 1 19
-0.39656106 -2.6790345 -0.25280789 0 6
-2.7081552 -18.295397 0.21531348 3 22
-0.131138 -2.6622634 -0.1863893 0 8
-0.26314476 -2.6741455 -0.21935864 0 7
-0.003348374 -9.591939 0.27915278 42 25
-1.8016435 -18.308769 0.32112429 1 23
-2.7043421 -18.269636 -1.0755719 3 10
-0.471899 -9.5801325 0.55859977 13 27
-1.8012072 -18.304337 0.7493397 1 26
-0.13406797 -2.7217455 -0.12693691 0 12
-0.26678777 -2.7111669 -0.14277251 1 11
-0.46292469 -9.3979435 1.1553215 16 29
-1.742846 -17.711254 1.4528441 2 28
-0.00094313559 -2.7017589 -0.1100725 0 13
-2.7078598 -18.2934 -0.64578032 2 14
-0.13929227 -2.827805 -0.065881215 0 16
-0.24041767 -2.3586802 -1.1055695 1 0
-0.010795408 -2.8115511 -0.049076166 1 17
-0.28989124 -2.8440537 -0.083198927 0 15
-0.12683511 -2.4041049 -0.67393839 0 1
-0.25614274 -2.512955 -0.50519818 0 2
-2.7731991 -18.293743 -0.21540663 2 18
-0.26556253 -2.6053705 -0.33334813 0 4
-0.036783081 -9.5797691 0.05567814 102 21
-1.8653872 -18.300869 -0.10691598 1 19
-0.13870609 -2.6291142 -0.28359303 1 5
-0.40829766 -2.6933851 -0.25429499 0 6
-2.7755966 -18.309559 0.21559286 3 22
-0.14021975 -2.657805 -0.18611027 0 8
-0.27247739 -2.6732106 -0.21935864 0 7
-0.036844891 -9.5958672 0.27926913 41 25
-1.8663512 -18.310326 0.32126391 3 23
-2.7716877 -18.283775 -1.0769672 3 10
-1.8654937 -18.301912 0.74950254 1 26
-0.14356753 -2.721261 -0.12693691 0 12
-0.27786985 -2.7261147 -0.14360988 1 11
-0.49593502 -9.4002352 1.1558089 15 29
-1.8074872 -17.732826 1.4551224 2 28
-0.010373767 -2.7017391 -0.1100725 0 13
-2.7716973 -18.283836 -0.64578032 2 14
-0.1481086 -2.8073349 -0.065415949 0 16
-0.24826941 -2.3542213 -1.103879 1 0
-0.29855922 -2.8310959 -0.082849838 0 15
-0.13436086 -2.3882642 -0.66962522 0 1
-0.26532444 -2.5159461 -0.50598264 0 2
-0.54462403 -9.6806917 0 10 20
-2.8394928 -18.299759 -0.21559286 2 18
-0.27548775 -2.6123202 -0.33435827 0 4
-0.07019347 -9.5755816 0.055654887 59 21
-1.929678 -18.298223 -0.10693923 1 19
-0.41647562 -2.6840723 -0.25355145 0 6
-0.48270646 -8.5801067 0.19996996 4 24
-2.8407195 -18.307665 0.21568601 3 22
-0.15016884 -2.6692507 -0.18694735 0 8
-0.27929842 -2.6484549 -0.21740589 0 7
-0.070340805 -9.5956802 0.27926913 40 25
-1.9306749 -18.307676 0.32133371 1 23
-0.019604899 -2.6744411 -0.17140622 0 9
-2.8336573 -18.262152 -1.0762696 3 10
-0.97749883 -17.37504 1.0134795 3 27
-1.9285301 -18.28734 0.74917686 1 26
-0.15441234 -2.7446792 -0.12805365 0 12
-0.28738418 -2.7251282 -0.14360988 1 11
-1.868958 -17.722445 1.4547969 2 28
-0.019716728 -2.6896966 -0.10958401 0 13
-2.8348906 -18.2701 -0.64564067 2 14
-0.15858109 -2.8187788 -0.065695107 0 16
-0.25609294 -2.3497365 -1.1021885 1 0
-0.030250369 -2.7954106 -0.048796929 1 17
-0.30973944 -2.8419607 -0.083198927 0 15
-0.14269672 -2.3877807 -0.66962522 0 1
-0.27453017 -2.518904 -0.50676709 0 2
-1.0916829 -18.26741 0 19 20
-2.9064894 -18.309486 -0.21582569 2 18
-0.28503475 -2.6152871 -0.33486336 0 4
-0.1033586 -9.5512791 0.055515401 34 21
-1.9948395 -18.303305 -0.10700896 1 19
-0.42584234 -2.6826022 -0.25355145 0 6
-1.0913875 -18.262468 0.42571548 20 24
-2.9052355 -18.301588 0.21573257 3 22
-0.1592474 -2.6647274 -0.18666832 0 8
-0.28940552 -2.6553903 -0.2180568 0 7
-0.10379252 -9.5913782 0.27915278 36 25
-1.995436 -18.308777 0.32147333 1 23
-0.02876761 -2.6583903 -0.17038289 0 9
-2.9030218 -18.287643 -1.0783626 3 10
-1.9923537 -18.280497 0.74917686 1 26
-0.1628004 -2.7241809 -0.12712303 0 12
-0.29905894 -2.7439635 -0.1446566 1 11
-1.2389132 -20.73105 2.5499945 4 29
-1.9329697 -17.73563 1.4564242 2 28
-0.029494694 -2.7255793 -0.11104947 0 13
-2.9024088 -18.283781 -0.64647824 2 14
-0.16651113 -2.7862735 -0.06495069 0 16
-0.26469862 -2.3524306 -1.103879 1 0
-0.040007737 -2.7952881 -0.048796929 1 17
-0.31965756 -2.840862 -0.083198927 0 15
-0.15054412 -2.3795795 -0.66746861 0 1
-0.28332084 -2.5179303 -0.50676709 0 2
-1.1539243 -18.239536 0 21 20
-0.29371816 -2.6103332 -0.33435827 0 4
-0.13675456 -9.5548601 0.055538654 33 21
-2.0600579 -18.308155 -0.10707871 1 19
-0.16522549 -2.6116412 -0.28187945 0 5
-0.43584159 -2.6850305 -0.25392321 0 6
-1.1548744 -18.254555 0.42562243 22 24
-2.9684596 -18.287388 0.21568601 3 22
-0.16829586 -2.6601729 -0.1863893 0 8
-0.29421473 -2.6147463 -0.21480222 0 7
-0.1373284 -9.5949545 0.27926913 32 25
-2.0602262 -18.30965 0.32161295 1 23
-0.038160965 -2.6662564 -0.17089456 0 9
-2.9668381 -18.277399 -1.0783626 3 10
-1.0987735 -17.367792 1.0134795 9 27
-2.0592787 -18.301231 0.75031668 1 26
-0.17205603 -2.7196083 -0.12693691 0 12
-0.30774173 -2.7349637 -0.14423791 1 11
-1.3105164 -20.714712 2.5485318 4 29
-1.9970937 -17.748579 1.4580514 2 28
-0.039179906 -2.7374485 -0.11153796 0 13
-2.9668524 -18.277487 -0.64661789 2 14
-0.27416268 -2.3622956 -1.1089504 1 0
-0.049836468 -2.79913 -0.048866738 1 17
-0.32957253 -2.8397291 -0.083198927 0 15
-0.15859322 -2.3751962 -0.6663903 0 1
-0.29165655 -2.5130298 -0.50598264 0 2
-1.2189204 -18.255354 0 21 20
-0.30603063 -2.6368828 -0.33789378 0 4
-0.17003657 -9.5503254 0.055515401 12 21
-2.1253388 -18.312773 -0.10714845 1 19
-0.17513606 -2.6229529 -0.28316462 0 5
-0.45173034 -2.7227826 -0.25764096 0 6
-1.2207218 -18.282333 0.42636684 26 24
-3.0388253 -18.316372 0.21615164 3 22
-0.1778468 -2.6635506 -0.18666832 0 8
-0.30931541 -2.6651857 -0.21903318 0 7
-0.17075042 -9.5904198 0.27915278 30 25
-2.1264341 -18.32221 0.32196197 3 23
-0.047965508 -2.6940451 -0.17268537 0 9
-3.0345445 -18.290569 -1.0797579 3 10
-1.1593944 -17.363852 1.0134795 7 27
-2.1226916 -18.289963 0.75015384 1 26
-0.1826134 -2.7349384 -0.1276814 0 12
-0.31866863 -2.7457767 -0.14486594 1 11
-1.3822904 -20.702089 2.5475571 4 29
-2.0594983 -17.745462 1.458377 2 28
-0.047881782 -2.6893425 -0.10958401 0 13
-3.0358715 -18.298567 -0.6477347 2 14
-0.28197625 -2.3577247 -1.1072599 1 0
-0.059606712 -2.798939 -0.048866738 1 17
-0.33948275 -2.8385611 -0.083198927 0 15
-0.1674231 -2.382313 -0.66854692 0 1
-0.30228975 -2.5275748 -0.50912052 0 2
-1.2829148 -18.254976 0 19 20
-3.1014049 -18.297766 -0.21605852 31 18
-0.31287694 -2.6160986 -0.33536842 0 4
-0.20362706 -9.5616703 0.055585146 8 21
-0.1845694 -2.6262929 -0.28359303 0 5
-0.46589059 -2.7486761 -0.26024342 0 6
-1.2850907 -18.285938 0.42655295 22 24
-3.1034098 -18.309595 0.21619821 3 22
-0.18742274 -2.666894 -0.18694735 0 8
-0.31908992 -2.6680479 -0.21935864 0 7
-0.20431049 -9.5937624 0.27926913 28 25
-2.1899009 -18.310703 0.32189217 3 23
-0.056604039 -2.6579432 -0.17038289 0 9
-3.097703 -18.275925 -1.0795255 3 10
-1.2202767 -17.363682 1.013712 7 27
-2.1884191 -18.298313 0.75080514 1 26
-0.19355932 -2.7542133 -0.12861203 0 12
-0.33252013 -2.7803438 -0.14675003 1 11
-1.4542655 -20.693176 2.5470695 4 29
-2.1247413 -17.765875 1.4606552 4 28
-0.057524107 -2.7011466 -0.1100725 0 13
-3.0983891 -18.279974 -0.64745545 2 14
-0.29064763 -2.3603241 -1.1089504 1 0
-0.069277413 -2.7947159 -0.048796929 2 17
-0.17772211 -2.4086046 -0.67609501 0 1
-0.30871403 -2.5070398 -0.50519818 0 2
-1.3469236 -18.254377 0 21 20
-3.1673033 -18.298653 -0.21619821 29 18
-0.18905015 -2.5621295 -0.39969137 0 3
-0.322007 -2.6149907 -0.33536842 0 4
-0.23690334 -9.5569038 0.0555619 8 21
-2.2545986 -18.309397 -0.10721818 3 19
-0.19402847 -2.6295989 -0.28402141 0 5
-0.48023728 -2.7745035 -0.26284584 0 6
-1.3474418 -18.2614 0.42608768 20 24
-3.1700325 -18.314419 0.21638447 3 22
-0.19761176 -2.6781621 -0.18778443 0 8
-0.32888851 -2.6708746 -0.21968409 0 7
-0.23799606 -9.6009855 0.27950186 32 25
-2.2552707 -18.314857 0.32210162 3 23
-0.065980621 -2.6617203 -0.17063874 0 9
-3.1676085 -18.300415 -1.0816184 3 10
-1.2799989 -17.34737 1.0130144 5 27
-2.2556987 -18.318331 0.75194496 1 26
-0.20229015 -2.7415664 -0.12805365 0 12
-0.34759349 -2.8227763 -0.14905281 1 11
-1.5291193 -20.72361 2.5514567 4 29
-2.1872306 -17.762308 1.4609807 4 28
-0.067348726 -2.7169111 -0.11072381 0 13
-3.1655889 -18.288746 -0.64815342 2 14
-0.2984294 -2.3556986 -1.1072599 1 0
-0.3607989 -2.848022 -0.083548017 0 15
-0.18464439 -2.3887672 -0.67070353 0 1
-0.31844932 -2.5137291 -0.50676709 0 2
-1.4084775 -18.221647 0 17 20
-3.2325511 -18.295362 -0.21629135 31 18
-0.19829717 -2.5653949 -0.40030628 1 3
-0.33063444 -2.6099141 -0.33486336 0 4
-2.3184969 -18.301416 -0.10721818 5 19
-0.20136736 -2.6051145 -0.28145105 0 5
-0.49130517 -2.780654 -0.26358941 1 6
-1.4034737 -18.156912 0.4237614 5 24
-3.2353344 -18.311115 0.21647759 3 22
-0.20726667 -2.6814344 -0.18806346 0 8
-0.33570442 -2.649935 -0.2180568 0 7
-0.27150857 -9.6000957 0.27950186 31 25
-2.3201938 -18.31481 0.32224125 1 23
-0.075497128 -2.6694541 -0.17115039 0 9
-3.2307756 -18.285315 -1.0813859 3 10
-1.3405452 -17.342798 1.0130144 5 27
-2.3176191 -18.294487 0.75129366 1 26
-0.20939533 -2.7089732 -0.12656465 0 12
-1.6008373 -20.71023 2.5504818 4 29
-2.252727 -17.782249 1.4632589 4 28
-0.076945178 -2.7206545 -0.11088665 0 13
-3.233583 -18.301203 -0.64899105 2 14
-0.3080548 -2.3654273 -1.1123314 1 0
-0.08942131 -2.8141508 -0.049145978 2 17
-0.37073791 -2.8467455 -0.083548017 0 15
-0.19577374 -2.4226627 -0.68040824 0 1
-0.32823479 -2.5203812 -0.50833601 0 2
-1.4620849 -18.093023 0 12 20
-3.2985213 -18.295774 -0.21643104 34 18
-0.20788735 -2.5725663 -0.40153611 0 3
-0.3428171 -2.6323528 -0.33789378 0 4
-0.3039974 -9.5670099 0.055631641 30 21
-2.3844316 -18.309078 -0.10731118 3 19
-0.21270181 -2.6321445 -0.28444979 0 5
-0.50807464 -2.8181169 -0.26730716 1 6
-1.4639441 -18.116028 0.42292389 3 24
-3.3006504 -18.307583 0.21657072 3 22
-0.21566091 -2.6687627 -0.18722637 0 8
-0.34855613 -2.6764205 -0.22033501 0 7
-0.30501673 -9.5990896 0.27950186 30 25
-2.384625 -18.310564 0.32231104 1 23
-0.085068136 -2.6771536 -0.17166205 0 9
-3.2981248 -18.293575 -1.0825486 3 10
-1.4116873 -17.46936 1.0206888 5 27
-2.3845599 -18.310064 0.75227064 1 26
-0.22206829 -2.7480528 -0.12842591 0 12
-0.37606099 -2.8876193 -0.15261166 3 11
-1.6747169 -20.724304 2.5529194 4 29
-2.3137538 -17.766373 1.462608 4 28
-0.086060539 -2.7083852 -0.11039816 0 13
-3.2981541 -18.293737 -0.64913064 2 14
-0.31733745 -2.3751724 -1.1174027 1 0
-2.4425521 -18.281744 -0.53677857 1 15
-0.20154567 -2.3951313 -0.67286009 0 1
-0.33659095 -2.5192788 -0.50833601 0 2
-1.5354925 -18.247509 0 8 20
-3.3591745 -18.284735 -0.21643104 31 18
-0.21542297 -2.5600469 -0.39969137 1 3
-0.35259542 -2.6390674 -0.3389039 0 4
-0.33572143 -9.5659494 0.055631641 26 21
-2.4461935 -18.309 -0.10735767 5 19
-0.22176272 -2.6353872 -0.28487816 0 5
-0.52893126 -2.8790905 -0.27325559 1 6
-1.5303826 -18.186785 0.42469189 3 24
-3.3664017 -18.324074 0.21689667 3 22
-0.22484438 -2.672009 -0.18750541 0 8
-0.35742962 -2.6752498 -0.22033501 0 7
-0.33656666 -9.5900326 0.27926913 27 25
-2.4474511 -18.318413 0.32259029 1 23
-0.094225548 -2.6848354 -0.17217371 0 9
-3.3602135 -18.290392 -1.0830138 3 10
-1.4773118 -17.556101 1.0260375 3 27
-2.4457951 -18.306017 0.75243348 1 26
-0.23151511 -2.7512827 -0.12861203 0 12
-0.39198261 -2.9338682 -0.1551238 2 11
-1.7444315 -20.730501 2.5543816 4 29
-2.3721287 -17.754648 1.4622823 4 28
-0.095321849 -2.716073 -0.11072381 0 13
-3.3595226 -18.286631 -0.64927024 2 14
-0.32619619 -2.3812904 -1.1207837 1 0
-2.5004506 -18.253736 -0.53619671 1 15
-0.21116579 -2.4136364 -0.67825162 0 1
-0.34654039 -2.5298066 -0.51068944 0 2
-1.6001792 -18.290136 0 4 20
-3.4219985 -18.28529 -0.21657072 14 18
-0.22356686 -2.5553813 -0.39907646 0 3
-0.35811397 -2.614296 -0.33587348 0 4
-0.36790246 -9.5767746 0.055701386 25 21
-2.5074387 -18.30475 -0.10738093 3 19
-0.23154074 -2.6465232 -0.28616333 0 5
-3.289465 -17.577103 -1.6692756 1 6
-1.6011404 -18.301123 0.4274835 4 24
-3.4249415 -18.301016 0.21675698 3 22
-0.23648612 -2.7030492 -0.1897376 0 8
-0.36900455 -2.693799 -0.2219623 0 7
-0.36775297 -9.5728836 0.27880368 23 25
-2.5076416 -18.306232 0.32252049 1 23
-0.10282191 -2.6765306 -0.17166205 0 9
-3.4230528 -18.290922 -1.0837115 3 10
-2.5091994 -18.317604 0.75324762 1 26
-0.23959279 -2.7385585 -0.12805365 0 12
-2.5056708 -18.291843 -0.96758723 2 11
-1.8128216 -20.72065 2.5538943 4 29
-2.4336984 -17.766434 1.4639096 4 28
-0.10356114 -2.6957736 -0.10990967 0 13
-3.4223521 -18.28718 -0.64968902 2 14
-0.33542705 -2.3836689 -1.1224742 1 0
-0.11772217 -2.7970974 -0.048866738 2 17
-2.5695658 -18.260286 -0.53666216 1 15
-0.2186117 -2.3975022 -0.67393839 0 1
-0.35581028 -2.5285196 -0.51068944 0 2
-1.6664791 -18.27618 0 4 20
-0.23329023 -2.5584805 -0.39969137 0 3
-0.36879933 -2.6208246 -0.33688363 0 4
-0.40182337 -9.5473881 0.055538654 20 21
-2.5784137 -18.323162 -0.10754366 5 19
-0.23943353 -2.6258538 -0.28402141 0 5
-3.3568547 -17.580578 -1.6707628 1 6
-1.6700226 -18.315042 0.42794877 4 24
-3.4964969 -18.311914 0.21703637 3 22
-0.24602941 -2.6981905 -0.18945858 0 8
-0.37554216 -2.6687417 -0.22000957 0 7
-0.40182823 -9.5475025 0.2781055 14 25
-2.5763927 -18.308802 0.32272989 1 23
-0.11263122 -2.6761358 -0.17166205 0 9
-3.4923167 -18.290024 -1.0844091 3 10
-1.5824353 -17.354477 1.0148748 11 27
-2.575763 -18.304327 0.75308472 1 26
-0.2503542 -2.7456203 -0.12842591 0 12
-2.5738101 -18.290447 -0.9680059 2 11
-1.8905573 -20.733633 2.5563316 4 29
-2.4993548 -17.761343 1.4642351 4 28
-0.11478548 -2.7273211 -0.1112123 0 13
-3.4946036 -18.302 -0.65066624 2 14
-0.3453978 -2.3968961 -1.1292361 0 0
-0.12717824 -2.8006871 -0.04893655 1 17
-2.6312442 -18.259581 -0.53689492 1 15
-0.22909819 -2.4236078 -0.68148655 0 1
-0.36363357 -2.5234437 -0.50990498 0 2
-1.729333 -18.294447 0 4 20
-3.5533845 -18.280586 -0.21680354 2 18
-0.24474864 -2.5891724 -0.40461066 0 3
-0.37805399 -2.6235147 -0.33738872 0 4
-0.43475083 -9.5739727 0.055701386 21 21
-2.6380186 -18.306593 -0.10749716 3 19
-0.24813963 -2.6250453 -0.28402141 0 5
-3.4166541 -17.577168 -1.6715063 1 6
-1.7303703 -18.305422 0.42785567 2 24
-3.5579636 -18.304142 0.21708293 3 22
-0.25309777 -2.6774971 -0.18806346 0 8
-0.39064458 -2.7108872 -0.22358958 0 7
-0.43493694 -9.5780706 0.2790364 33 25
-2.6388025 -18.312033 0.32293934 1 23
-0.12114263 -2.6677723 -0.17115039 0 9
-3.5590434 -18.309698 -1.0862695 3 10
-1.6418538 -17.369013 1.0160377 15 27
-2.6364467 -18.295685 0.75308472 1 26
-0.25983343 -2.7487528 -0.12861203 0 12
-2.6350174 -18.285765 -0.96821523 2 11
-1.9615422 -20.750967 2.5592566 4 29
-2.5622189 -17.780579 1.4665133 4 28
-0.12328485 -2.7149477 -0.11072381 0 13
-3.5552747 -18.29031 -0.65066624 2 14
-0.36213374 -2.4494076 -1.1545931 1 0
-0.13783461 -2.8081913 -0.049076166 0 17
-2.6999059 -18.261679 -0.53724396 3 15
-0.23760311 -2.4189184 -0.68040824 0 1
-0.37230644 -2.5182137 -0.50912052 0 2
-1.7955921 -18.280024 0 4 20
-3.6258056 -18.294903 -0.21712948 2 18
-0.25385043 -2.5843241 -0.40399572 0 3
-0.38940817 -2.6338868 -0.3389039 0 4
-0.4694463 -9.5643253 0.055654887 14 21
-2.7068536 -18.308672 -0.10756691 1 19
-0.25814807 -2.6280763 -0.28444979 0 5
-3.4895718 -17.6075 -1.6755959 1 6
-1.7986245 -18.310896 0.42813486 2 24
-3.6250279 -18.290979 0.21708293 3 22
-0.26407987 -2.6884649 -0.18890053 0 8
-0.40232718 -2.7212689 -0.22456597 0 7
-0.46964756 -9.5684252 0.27880368 9 25
-2.7076571 -18.314106 0.32314876 1 23
-0.13131113 -2.6752844 -0.17166205 0 9
-3.6245756 -18.288696 -1.0858045 3 10
-1.7058939 -17.366852 1.0162702 18 27
-2.7023175 -18.27799 0.7527591 1 26
-0.27068761 -2.7557352 -0.12898427 0 12
-2.7031894 -18.283888 -0.96863401 2 11
-2.0360329 -20.727833 2.5573065 4 29
-2.6285377 -17.778957 1.4671644 4 28
-0.13323486 -2.7144778 -0.11072381 0 13
-3.6238425 -18.284998 -0.65094543 3 14
-0.39256874 -2.5988095 -1.225593 0 0
-0.14790758 -2.8317082 -0.049495026 0 17
-2.7590539 -18.264969 -0.53759307 3 15
-0.24364668 -2.4028311 -0.67609501 0 1
-0.38021564 -2.5170319 -0.50912052 0 2
-1.8530103 -18.274294 0 4 20
-3.6856315 -18.295187 -0.2172692 2 18
-0.26117045 -2.5756495 -0.40276593 0 3
-0.40182939 -2.660115 -0.34243944 0 4
-2.7649548 -18.304033 -0.10759015 1 19
-0.26760659 -2.6391225 -0.28573495 0 5
-3.5432954 -17.588642 -1.6748523 1 6
-1.8561398 -18.305157 0.42813486 2 24
-3.6872113 -18.303028 0.21736231 3 22
-0.27171934 -2.6796823 -0.18834247 0 8
-0.4138515 -2.7397015 -0.22619326 0 7
-2.7645805 -18.301554 0.32307896 1 23
-0.13992314 -2.6788449 -0.17191789 0 9
-3.6851666 -18.292879 -1.0867347 3 10
-1.7612495 -17.369354 1.0167353 16 27
-2.7621129 -18.285219 0.75341046 1 26
-0.27934349 -2.7548714 -0.12898427 0 12
-2.7612123 -18.279257 -0.96884334 5 11
-2.1059463 -20.768736 2.5631564 4 29
-2.6831868 -17.762726 1.4665133 4 28
-0.14197025 -2.7180371 -0.11088665 0 13
-3.6844254 -18.2892 -0.6515038 3 14
-0.40976259 -2.6438551 -1.2475692 0 0
-0.53411716 -9.5235825 -0.16649596 1 17
-2.8316152 -18.270042 -0.53805852 1 15
-0.25609753 -2.4325237 -0.68472147 0 1
-0.39107898 -2.5233054 -0.51068944 0 2
-1.9248402 -18.282957 0 4 20
-3.7574627 -18.288734 -0.21736231 2 18
-0.27064446 -2.5706971 -0.40215102 0 3
-0.40839416 -2.6350257 -0.33940902 0 4
-0.47976258 -8.5544128 0.049796484 2 21
-2.8370547 -18.30514 -0.10765989 1 19
-0.27565613 -2.6183 -0.28359303 0 5
-3.6148126 -17.594414 -1.6767111 1 6
-1.9272503 -18.305847 0.42832094 2 24
-3.7606823 -18.304407 0.21754858 3 22
-0.28200656 -2.6786191 -0.18834247 0 8
-0.42619991 -2.7499113 -0.22716962 0 7
-1.0224956 -18.231621 0.53142589 10 25
-2.8360579 -18.298708 0.32321855 1 23
-0.14998461 -2.6743023 -0.17166205 0 9
-3.7537715 -18.270769 -1.0862695 3 10
-1.828348 -17.366432 1.0169678 16 27
-2.8371994 -18.306074 0.75471306 1 26
-0.28950101 -2.7498047 -0.12879816 0 12
-2.8344381 -18.288256 -0.96989006 2 11
-2.1860926 -20.764442 2.5636437 4 29
-2.7544239 -17.771992 1.4681406 4 28
-0.15128674 -2.69752 -0.1100725 0 13
-3.7586465 -18.294497 -0.65220183 3 14
-0.41615057 -2.6245062 -1.2391168 0 0
-1.0878538 -18.256832 -0.31923944 5 17
-2.8960009 -18.263996 -0.53817487 3 15
-0.26250398 -2.4124682 -0.67932993 0 1
-0.40049917 -2.5257988 -0.51147389 0 2
-1.9895157 -18.284079 0 2 20
-3.8253751 -18.295084 -0.21759515 2 18
-0.28004411 -2.5736659 -0.40276593 0 3
-0.41758999 -2.6335843 -0.33940902 0 4
-1.0870494 -18.243334 0.10621855 23 21
-2.9015634 -18.299076 -0.10768315 1 19
-0.28608495 -2.6291823 -0.28487816 0 5
-3.6868057 -17.632368 -1.6815442 1 6
-1.9920053 -18.306959 0.42850703 2 24
-3.8261936 -18.299 0.21764171 3 22
-0.29394516 -2.7014196 -0.19001664 0 8
-0.44079149 -2.7799072 -0.22977328 0 7
-1.0866077 -18.235922 0.53165859 15 25
-2.9017966 -18.300549 0.323428 1 23
-0.16074374 -2.6976712 -0.17319703 0 9
-3.8199804 -18.269283 -1.0869672 3 10
-1.8893914 -17.363914 1.0172004 16 27
-2.8998332 -18.288166 0.75438744 1 26
-0.30039489 -2.7606938 -0.12935653 0 12
-2.8988867 -18.282196 -0.97009939 2 11
-2.2551277 -20.725111 2.5597439 4 29
-2.8208156 -17.789831 1.4704188 4 28
-0.16331726 -2.7408612 -0.11186362 0 13
-3.825758 -18.296915 -0.65276021 3 14
-1.9976287 -18.358639 -0.42971671 1 16
-0.42207783 -2.608871 -1.2323549 0 0
-1.1444535 -18.24135 -0.31902999 5 17
-2.9571972 -18.278492 -0.53887302 3 15
-0.27008182 -2.4116316 -0.67932993 0 1
-0.4071795 -2.5167842 -0.50990498 0 2
-2.0473933 -18.281713 0 2 20
-3.8878179 -18.30645 -0.21787453 2 18
-0.28680858 -2.5609894 -0.40092117 0 3
-0.42649543 -2.6361763 -0.33991408 0 4
-1.144358 -18.23983 0.10621855 21 21
-2.9615934 -18.305664 -0.10777614 1 19
-0.29522875 -2.6361754 -0.28573495 0 5
-3.7396994 -17.609009 -1.6804287 1 6
-2.0508447 -18.312532 0.42878622 2 24
-0.30198652 -2.6965172 -0.1897376 0 8
-0.45397985 -2.8060579 -0.23205151 1 7
-1.1448945 -18.248381 0.5321241 16 25
-2.9637473 -18.318979 0.32391667 3 23
-0.169468 -2.7011368 -0.17345287 0 9
-3.8856521 -18.296251 -1.0892928 3 10
-1.9439334 -17.357893 1.0172004 9 27
-2.957912 -18.282909 0.75455022 1 26
-0.30639833 -2.7359114 -0.12823978 0 12
-2.9594986 -18.292717 -0.97114617 2 11
-2.3228786 -20.741596 2.5626688 4 29
-2.8786013 -17.792688 1.4713953 4 28
-0.17092621 -2.7243791 -0.1112123 0 13
-3.886543 -18.300447 -0.65331858 3 14
-2.0508447 -18.312532 -0.42878622 1 16
-0.43236461 -2.6145353 -1.2357358 0 0
-3.0216336 -18.272003 -0.53898942 1 15
-0.27938223 -2.4183273 -0.68148655 0 1
-0.41852179 -2.5308268 -0.51304287 0 2
-2.1139483 -18.298298 0 4 20
-3.9474711 -18.27322 -0.21764171 2 18
-0.2980141 -2.5796046 -0.40399572 0 3
-0.43698931 -2.6425009 -0.3409242 0 4
-1.209869 -18.263662 0.10638127 21 21
-0.30488509 -2.6390798 -0.28616333 0 5
-3.8003008 -17.591955 -1.680057 1 6
-2.115212 -18.309235 0.42887926 2 24
-0.31048113 -2.6875188 -0.18917955 0 8
-0.47417897 -2.8673892 -0.23725882 2 7
-1.2104346 -18.2722 0.5329386 16 25
-3.0283253 -18.312468 0.32398647 1 23
-0.17836773 -2.6925626 -0.17294121 0 9
-3.9528654 -18.298191 -1.090223 3 10
-2.0063436 -17.366871 1.0181307 11 27
-3.0282321 -18.311905 0.7561785 1 26
-0.31915623 -2.7626104 -0.12954265 0 12
-3.0226803 -18.278332 -0.97093672 2 11
-2.3998206 -20.772802 2.5675435 4 29
-2.9426413 -17.794331 1.4723716 4 28
-0.18096314 -2.7317417 -0.11153796 0 13
-3.9512424 -18.290678 -0.65345818 3 14
-2.117507 -18.3291 -0.42934453 1 16
-0.43907234 -2.5987117 -1.228974 0 0
-1.2726048 -18.244884 -0.31923944 7 17
-3.0873926 -18.27317 -0.53933853 1 15
-0.28600019 -2.4020376 -0.67717332 0 1
-0.42539284 -2.5177476 -0.51068944 0 2
-2.1782796 -18.294779 0 4 20
-4.0138049 -18.271048 -0.21778139 2 18
-0.30795115 -2.5863979 -0.40522557 0 3
-0.44687152 -2.6448722 -0.34142929 0 4
-1.2727772 -18.247356 0.10631154 18 21
-0.31409511 -2.6379993 -0.28616333 0 5
-3.8659565 -17.598034 -1.681916 1 6
-2.1809998 -18.317623 0.42925149 4 24
-4.0163798 -18.28277 0.21792109 33 22
-0.32080373 -2.6943431 -0.1897376 0 8
-0.48750573 -2.8853717 -0.2388861 1 7
-1.2733729 -18.255896 0.5325895 15 25
-3.0955586 -18.321503 0.32433555 1 23
-0.18693194 -2.6799769 -0.17217371 0 9
-4.0218534 -18.307684 -1.0916183 3 10
-2.0688398 -17.375622 1.0190609 15 27
-3.0941298 -18.313046 0.75666702 1 26
-0.32879734 -2.7614791 -0.12954265 0 12
-3.0884597 -18.279486 -0.97156477 2 11
-2.4727838 -20.768238 2.5680311 4 29
-3.0067282 -17.795746 1.473348 6 28
-0.18827258 -2.6991975 -0.11023533 0 13
-4.0236402 -18.315817 -0.65485412 3 14
-2.180527 -18.313652 -0.42915839 1 16
-0.44489226 -2.5756512 -1.2188311 0 0
-1.3391765 -18.236109 -0.31916961 7 17
-3.1543491 -18.261732 -0.53933853 1 15
-0.2976191 -2.4239125 -0.6836431 0 1
-0.43395078 -2.5123067 -0.50990498 0 2
-2.2458091 -18.290644 0 6 20
-4.0833654 -18.267925 -0.21792109 2 18
-0.31646574 -2.5774059 -0.40399572 0 3
-0.45791361 -2.6510367 -0.34243944 0 4
-1.339065 -18.234591 0.10626504 21 21
-3.1644824 -18.320396 -0.10805511 24 19
-0.32521611 -2.6486721 -0.2874485 0 5
-3.9365144 -17.610952 -1.6845183 1 6
-2.2486129 -18.313478 0.42934453 4 24
-4.0903454 -18.299152 0.21829361 33 22
-0.33019096 -2.689189 -0.18945858 0 8
-3.1533649 -18.256033 -1.512403 4 7
-1.3393995 -18.239145 0.53224045 13 25
-3.1626923 -18.310034 0.32433555 1 23
-0.19675364 -2.6792738 -0.17217371 0 9
-4.090672 -18.300613 -1.0920835 3 10
-2.1330001 -17.371887 1.0192934 15 27
-3.1619129 -18.305521 0.75682986 1 26
-3.1581593 -18.283791 -0.97240222 2 11
-2.5484061 -20.755096 2.5675435 4 29
-3.0746496 -17.80032 1.4746498 6 28
-0.20050639 -2.7303767 -0.11153796 0 13
-4.0907464 -18.300947 -0.65485412 3 14
-2.2520242 -18.341261 -0.42999589 1 16
-0.44336849 -2.5170374 -1.1917835 0 0
-1.3944366 -18.163778 -0.31798285 7 17
-3.217663 -18.266924 -0.53980398 1 15
-0.30661947 -2.4305556 -0.68579978 0 1
-0.44432059 -2.5224426 -0.51225841 0 2
-2.3074503 -18.291031 0 4 20
-4.1527743 -18.293285 -0.21838672 2 18
-0.3255055 -2.5802639 -0.40461066 0 3
-0.46876705 -2.661227 -0.34395465 0 4
-1.3937069 -18.154274 0.10582333 7 21
-3.2266037 -18.31768 -0.1081016 24 19
-0.33399743 -2.647579 -0.2874485 0 5
-3.9975369 -17.609453 -1.6856338 1 6
-2.3103292 -18.313852 0.42953062 4 24
-4.1563163 -18.308889 0.21857299 37 22
-0.34260255 -2.7157915 -0.19141176 0 8
-3.218035 -18.269035 -1.5143558 7 7
-1.3922225 -18.134937 0.52933139 4 25
-3.2268605 -18.319138 0.32468456 1 23
-0.2065538 -2.690547 -0.17294121 0 9
-4.1566391 -18.31031 -1.0934788 3 10
-2.1910937 -17.368677 1.019526 15 27
-3.2246766 -18.30674 0.75731832 1 26
-0.36857212 -2.9216506 -0.13717376 1 12
-3.22085 -18.285017 -0.97303021 2 11
-2.6236765 -20.797737 2.5738807 4 29
-3.1405749 -17.829288 1.4779044 6 28
-0.20894746 -2.7217269 -0.1112123 0 13
-4.1514106 -18.287279 -0.65485412 3 14
-17.402826 -98.797195 18.290602 63 30
-2.3113303 -18.321787 -0.42971671 1 16
-0.44360331 -2.4654443 -1.1681169 0 0
-1.4584352 -18.126656 -0.31742439 7 17
-3.2845933 -18.255007 -0.53980398 1 15
-0.31205308 -2.4026766 -0.67825162 0 1
-0.45773035 -2.5439589 -0.51696521 0 2
-2.3760202 -18.29435 0 4 20
-4.2251935 -18.301327 -0.21866611 2 18
-0.33597854 -2.5868924 -0.40584046 0 3
-0.47781518 -2.6555858 -0.34344956 0 4
-1.461199 -18.161005 0.10589308 7 21
-3.2944281 -18.309666 -0.10812484 26 19
-0.34267464 -2.6384494 -0.28659174 0 5
-4.0575724 -17.575279 -1.6837749 1 6
-2.378983 -18.31716 0.42980981 4 24
-4.2269931 -18.309122 0.21875925 37 22
-0.3499845 -2.6947322 -0.19001664 0 8
-3.2885027 -18.276735 -1.5159829 4 7
-1.4647739 -18.205437 0.53154224 4 25
-3.2982316 -18.330805 0.32510343 3 23
-0.2164138 -2.6897719 -0.17294121 0 9
-4.2255182 -18.302734 -1.0939438 3 10
-2.2557671 -17.36845 1.019991 15 27
-3.2910454 -18.290867 0.75715548 1 26
-2.3744762 -18.282459 -0.85877848 2 12
-3.2935057 -18.304539 -0.97470492 2 11
-2.6993749 -20.784044 2.5733933 4 29
-3.2080197 -17.829428 1.4788808 4 28
-0.21924226 -2.7249265 -0.11137513 0 13
-4.2256036 -18.303104 -0.65597099 3 14
-2.380013 -18.32509 -0.42999589 3 16
-0.44808048 -2.446209 -1.1596646 0 0
-3.3455272 -18.264259 -0.54038572 1 15
-0.3221401 -2.4207754 -0.6836431 0 1
-0.46359983 -2.5309339 -0.51461178 0 2
-2.4361188 -18.306622 0 4 20
-4.2908745 -18.323013 -0.2190852 2 18
-0.34514639 -2.5936601 -0.40707031 0 3
-0.48901507 -2.6696835 -0.34546986 0 4
-1.5249113 -18.236046 0.10635803 5 21
-3.3548148 -18.314964 -0.10821784 26 19
-0.35201088 -2.6452444 -0.2874485 0 5
-4.1154895 -17.57408 -1.6848902 1 6
-2.4365149 -18.309597 0.42980981 4 24
-4.2863145 -18.303541 0.21885239 33 22
-0.3631855 -2.729218 -0.19252788 0 8
-3.3466218 -18.270235 -1.5163085 4 7
-1.5289561 -18.284416 0.53398585 3 25
-3.3565221 -18.324286 0.32517323 1 23
-0.22519535 -2.6930568 -0.17319703 0 9
-4.2893696 -18.316587 -1.0955719 3 10
-2.3113725 -17.369194 1.0204561 15 27
-3.3528109 -18.304024 0.75813246 1 26
-2.4355884 -18.302635 -0.86008132 4 12
-3.3524325 -18.301958 -0.97512358 2 11
-2.7667501 -20.791204 2.5753434 4 29
-3.2632971 -17.81534 1.4785553 4 28
-0.23046595 -2.7560866 -0.11267776 0 13
-4.291286 -18.32477 -0.65722734 3 14
-2.434932 -18.297703 -0.42953062 3 16
-0.44305223 -2.3697171 -1.1241646 1 0
-1.5918725 -18.23185 -0.31944886 7 17
-3.4139173 -18.259739 -0.54061854 1 15
-0.33257693 -2.4310277 -0.68687803 0 1
-0.47431487 -2.5369289 -0.51618075 0 2
-2.5032003 -18.297567 0 4 20
-4.3598557 -18.314945 -0.21917833 2 18
-0.35518616 -2.5962937 -0.40768519 0 3
-0.50025529 -2.6756742 -0.34648004 0 4
-1.596611 -18.286119 0.10668349 2 21
-3.4241259 -18.314341 -0.10828758 24 19
-0.36439922 -2.6636381 -0.28959045 0 5
-4.1844864 -17.578251 -1.6867491 1 6
-2.5046911 -18.308466 0.42999589 4 24
-4.3607821 -18.318836 0.21922489 30 22
-0.37318626 -2.7278683 -0.19252788 0 8
-3.4142962 -18.261765 -1.5166339 7 7
-1.5973535 -18.294622 0.53445131 3 25
-3.4251325 -18.319725 0.32531285 1 23
-0.23402283 -2.6802831 -0.17242955 0 9
-4.3610988 -18.320166 -1.0967345 3 10
-2.3766427 -17.372475 1.0211538 15 27
-3.4206111 -18.29554 0.7582953 1 26
-2.5026553 -18.293585 -0.86008132 4 12
-3.4187567 -18.285624 -0.97491425 2 11
-2.8461645 -20.804523 2.5782681 4 29
-3.3307705 -17.815018 1.4795316 6 28
-0.23639439 -2.7074447 -0.11072381 0 13
-4.3565693 -18.30114 -0.65694815 3 14
-17.393602 -93.031731 17.256002 63 30
-2.5036073 -18.300543 -0.42980981 3 16
-0.45158619 -2.3717959 -1.1258551 1 0
-1.6552118 -18.258335 -0.32000732 7 17
-3.4796851 -18.27581 -0.54143304 1 15
-0.3411715 -2.4337263 -0.68795633 0 1
-0.48492593 -2.5469012 -0.51853412 0 2
-2.5655301 -18.301052 0 4 20
-4.4224453 -18.308161 -0.21927145 2 18
-0.36489129 -2.6029298 -0.40891501 0 3
-0.50764108 -2.6662045 -0.34546986 0 4
-1.6568806 -18.276743 0.10666025 2 21
-3.4855886 -18.306816 -0.10831083 26 19
-0.37157384 -2.6505995 -0.28830528 0 5
-4.2408853 -17.556534 -1.6860056 1 6
-2.5676112 -18.315899 0.4303681 2 24
-4.4233847 -18.31205 0.21931802 20 22
-0.38499999 -2.7463741 -0.193923 0 8
-3.4778187 -18.266006 -1.5179356 7 7
-1.6583734 -18.293209 0.53456765 3 25
-3.4873605 -18.316122 0.32545248 1 23
-0.24543256 -2.7073209 -0.17422035 0 9
-4.4265156 -18.32501 -1.0978973 3 10
-2.435348 -17.372408 1.021619 11 27
-3.4850006 -18.303728 0.75910944 1 26
-2.5655243 -18.301014 -0.86082578 4 12
-3.4846058 -18.301653 -0.97637963 2 11
-2.9151397 -20.794971 2.5782681 4 29
-3.3950493 -17.831291 1.48181 6 28
-0.24897981 -2.7464499 -0.11235211 0 13
-4.4238057 -18.313793 -0.65792531 3 14
-17.710848 -93.019928 17.264612 63 30
-2.5676112 -18.315899 -0.4303681 3 16
-0.45820299 -2.3594489 -1.1207837 1 0
-1.7224967 -18.256128 -0.32007712 5 17
-3.5481708 -18.270784 -0.54166573 1 15
-0.34844315 -2.4210217 -0.68472147 0 1
-0.49350983 -2.5412564 -0.51774967 0 2
-2.6325901 -18.291527 0 4 20
-4.4980993 -18.32679 -0.21969055 2 18
-0.37499216 -2.6054871 -0.40952992 0 3
-0.51892281 -2.6721168 -0.34648004 0 4
-1.7246087 -18.278513 0.10670675 2 21
-3.5534258 -18.297844 -0.10833408 26 19
-0.38071984 -2.6452837 -0.2878769 0 5
-4.3052049 -17.540874 -1.6860056 1 6
-2.6358652 -18.314283 0.43055421 2 24
-0.39790562 -2.7646923 -0.19531813 0 8
-3.547024 -18.264879 -1.5189121 4 7
-1.7265369 -18.298948 0.53491676 3 25
-3.5575192 -18.318922 0.32573172 1 23
-0.25385389 -2.6905069 -0.17319703 0 9
-4.497458 -18.324179 -1.0988276 3 10
-2.4995742 -17.367319 1.0218514 15 27
-3.5566356 -18.314373 0.76008642 1 26
-2.6331539 -18.295444 -0.86101198 2 12
-3.5531847 -18.296602 -0.97679842 2 11
-2.995863 -20.815588 2.5821679 4 29
-3.4634216 -17.834379 1.4831117 6 28
-0.26017064 -2.7574558 -0.11284059 0 13
-4.4966168 -18.320749 -0.65876293 3 14
-2.6330168 -18.294493 -0.43008894 3 16
-0.46925035 -2.3720603 -1.1275456 0 0
-1.7889396 -18.277864 -0.32056579 2 17
-3.6127026 -18.262209 -0.54178208 1 15
-0.35745406 -2.4236012 -0.68579978 0 1
-0.50389993 -2.5472138 -0.51931864 0 2
-2.6975911 -18.290138 0 2 20
-4.5610781 -18.307095 -0.21964397 2 18
-0.381778 -2.5885217 -0.40707031 0 3
-0.53055722 -2.6819665 -0.34799522 0 4
-1.7899612 -18.288303 0.10679974 2 21
-3.6196048 -18.2971 -0.10840382 26 19
-0.3945936 -2.6754136 -0.29130399 0 5
-4.3664083 -17.525738 -1.6860056 1 6
-2.700362 -18.308928 0.43064725 4 24
-4.5610781 -18.307095 0.21964397 3 22
-0.41337606 -2.802762 -0.19810839 0 8
-3.6138537 -18.268028 -1.5202138 7 7
-1.7911813 -18.300768 0.53514951 3 25
-3.6229954 -18.314238 0.32587135 1 23
-0.26324406 -2.689604 -0.17319703 0 9
-4.5604291 -18.304491 -1.098595 3 10
-2.5601828 -17.358486 1.0218514 13 27
-3.6189926 -18.294004 0.7597608 1 26
-2.6993332 -18.30195 -0.86175638 4 12
-3.6240072 -18.319353 -0.97868246 2 11
-3.068505 -20.805002 2.5821679 4 29
-3.5279758 -17.833916 1.4840882 6 28
-0.27096242 -2.7684639 -0.11332908 0 13
-4.5615077 -18.308821 -0.65890253 3 14
-2.6974444 -18.289145 -0.43018198 3 16
-0.47639826 -2.3669372 -1.1258551 0 0
-1.8507481 -18.283772 -0.32077524 2 17
-3.6740296 -18.254049 -0.54189843 1 15
-0.36548883 -2.4224026 -0.68579978 0 1
-0.51002198 -2.5339932 -0.51696521 0 2
-2.7600169 -18.292959 0 4 20
-4.625679 -18.307383 -0.21983023 2 18
-0.39094919 -2.5911498 -0.40768519 0 3
-0.54257959 -2.6957524 -0.35001552 0 4
-1.8514014 -18.290226 0.10684623 2 21
-3.6842051 -18.304604 -0.10852006 26 19
-0.40286982 -2.6701581 -0.29087561 0 5
-4.4205976 -17.495716 -1.6845183 1 6
-2.7622528 -18.307779 0.43083337 4 24
-4.630578 -18.326771 0.22006305 3 22
-0.42743027 -2.8329408 -0.2003406 1 8
-3.6767716 -18.267673 -1.5211903 7 7
-1.8534679 -18.310642 0.53561491 3 25
-3.6876519 -18.32173 0.32622039 1 23
-0.27376944 -2.7046025 -0.17422035 0 9
-4.6250148 -18.304754 -1.0995252 3 10
-2.6195171 -17.361748 1.0225492 15 27
-3.6820018 -18.293657 0.76024926 1 26
-2.7612002 -18.300802 -0.86212873 4 12
-3.6831589 -18.299406 -0.9782638 2 11
-3.1374781 -20.794712 2.5821679 4 29
-3.5902405 -17.837751 1.4853899 6 28
-0.27853122 -2.7516448 -0.11267776 0 13
-4.6241541 -18.301346 -0.65918171 3 14
-17.544889 -87.170029 16.212074 63 30
-2.759867 -18.291965 -0.43046117 3 16
-0.48798367 -2.3793802 -1.132617 0 0
-1.9194188 -18.292776 -0.32105449 2 17
-3.7481394 -18.275713 -0.54294574 1 15
-0.3749536 -2.4248533 -0.68687803 0 1
-0.52167022 -2.5436339 -0.51931864 0 2
-2.8313248 -18.310392 0 4 20
-4.6927481 -18.290304 -0.21983023 2 18
-0.40104762 -2.5936053 -0.4083001 0 3
-0.5580368 -2.7209554 -0.35355106 0 4
-1.9188437 -18.287296 0.10686947 2 21
-3.7536807 -18.302732 -0.1085898 26 19
-0.41083065 -2.6568727 -0.28959045 0 5
-4.4896426 -17.498686 -1.6863773 1 6
-2.8305585 -18.305437 0.43101948 4 24
-4.7036824 -18.332922 0.22034244 3 22
-0.4457376 -2.8826189 -0.20396793 2 8
