# .PCD v0.7 - Point Cloud Data file format
VERSION 0.7
FIELDS x y z intensity ring
SIZE 4 4 4 4 2
TYPE F F F F U
COUNT 1 1 1 1 1
WIDTH 1339
HEIGHT 1
VIEWPOINT 0 0 0 1 0 0 0
POINTS 1339
DATA ascii
31.857962 4.341361 -1.1227866 7 14
31.102226 7.386673 -0.74386221 15 16
31.050234 8.8800669 -0.56371278 15 17
5.4873595 1.2830094 -1.5775551 0 1
7.6588793 1.4001436 -1.5571715 0 2
47.615231 6.3194132 -0.55919111 10 18
8.8134184 2.0606813 -1.4081435 2 3
11.538141 2.1093235 -1.4929955 1 4
31.75436 9.0814409 0.19195589 8 21
12.678731 2.964437 -1.4025431 1 5
15.393512 2.0430009 -1.4495558 1 6
18.362705 4.293417 -1.3186764 2 8
16.620348 3.0384176 -1.3792907 2 7
31.722239 9.0722542 0.9602204 5 25
31.15485 5.6955152 0.55282241 8 23
19.128302 5.4705095 -1.2750576 3 9
23.963028 5.602839 -1.1463408 3 12
23.43885 4.2849293 -1.248736 3 11
31.111189 5.6875334 2.5818577 12 28
25.276806 7.2289228 -1.0710901 5 13
32.003693 4.2474761 -1.1273934 7 14
31.108353 7.2735 -0.74339694 10 16
31.060265 8.7716074 -0.56336373 15 17
36.096287 6.4752388 -1.0672736 7 15
5.5028458 1.2673979 -1.5807899 0 1
7.6712017 1.376121 -1.5587404 0 2
47.576424 6.1537709 -0.55849266 10 18
8.8356104 2.0349896 -1.410603 2 3
11.603658 2.0815563 -1.5005716 1 4
31.730413 8.9608612 0.19163042 8 21
12.672992 2.9188027 -1.4008296 1 5
15.360704 1.9868296 -1.445838 1 6
62.161922 8.0403318 0.72970968 34 22
18.431284 4.2450342 -1.3225827 2 8
16.712738 2.9980636 -1.3861253 2 7
31.729065 8.9604807 0.95952219 5 25
19.127131 5.401618 -1.2737784 3 9
31.227217 5.6017857 1.2925377 5 26
24.043777 5.5376859 -1.1493187 3 12
23.425409 4.2022357 -1.2472706 3 11
31.173042 5.5920677 2.5854375 6 28
25.350641 7.1591749 -1.0732068 5 13
32.152401 4.1587515 -1.1321397 8 14
31.156824 5.5891585 5.7713728 12 30
31.124512 7.168498 -0.74321085 10 16
31.067577 8.656683 -0.56294483 15 17
36.354942 6.3907232 -1.0742552 8 15
7.6914105 1.3520494 -1.5618782 0 2
47.514275 5.9771643 -0.55751479 10 18
8.8310957 2.0015118 -1.4087584 2 3
11.583497 2.0362272 -1.4970362 1 4
32.262409 8.9896116 0.19465262 8 21
71.017876 12.484014 -0.4190855 27 19
12.66371 2.8701491 -1.3986876 1 5
15.387304 1.9356803 -1.4476969 1 6
18.445988 4.180666 -1.3225827 2 8
16.703468 2.9362514 -1.384498 2 7
31.92577 8.8958101 0.96452576 5 25
19.199703 5.3498139 -1.2773601 4 9
24.101931 5.4625492 -1.15118 3 12
23.534357 4.137032 -1.2522949 4 11
25.417828 7.0824347 -1.0749979 5 13
32.277779 4.0604548 -1.1360484 8 14
31.137644 7.0571489 -0.74293166 10 16
31.070606 8.5407858 -0.56245613 15 17
36.558285 6.2950182 -1.079608 8 15
5.4965205 1.2255992 -1.5764767 2 1
7.6883521 1.3238673 -1.5603093 0 2
31.365726 6.993844 0 14 20
47.245026 5.7758737 -0.55411559 10 18
8.8573151 1.97498 -1.4118328 2 3
11.613996 1.9998289 -1.5000665 1 4
32.374584 8.8992271 0.19514082 8 21
71.238396 12.266631 -0.42013165 27 19
12.735756 2.8397841 -1.4055418 1 5
15.421638 1.8853506 -1.4502994 1 6
33.804459 7.5376263 0.80592823 22 24
18.5072 4.1266851 -1.3259311 2 8
32.361423 8.8956108 0.97674376 5 25
19.283691 5.3007622 -1.2817092 4 9
33.838264 7.5451636 2.019052 8 27
24.159845 5.3870969 -1.1530412 3 12
23.59589 4.0630069 -1.254807 4 11
25.488636 7.0063963 -1.076952 5 13
32.478252 3.9705825 -1.1426096 8 14
31.138664 6.9432149 -0.74237335 10 16
31.077074 8.4259901 -0.56203729 15 17
32.984329 5.5611248 -0.97348559 6 15
5.5082908 1.2080542 -1.5786334 1 1
7.7006621 1.298324 -1.5618782 0 2
8.9027634 1.952515 -1.4179819 2 3
11.616994 1.9586135 -1.4995614 1 4
32.586895 8.8353519 0.19623347 8 21
12.799977 2.807235 -1.4115392 1 5
15.47954 1.8376067 -1.4551325 1 6
87.034927 10.332088 1.0203643 56 22
18.591652 4.0774398 -1.3309536 2 8
16.81398 2.8348205 -1.3919836 2 7
32.863079 8.9102345 0.99093997 5 25
19.352163 5.2469916 -1.285035 4 9
31.360258 6.8777943 1.869751 6 27
24.198021 5.307004 -1.1539719 3 12
23.708405 3.9972134 -1.2600405 4 11
25.574657 6.9341092 -1.0795572 5 13
32.726124 3.8849826 -1.1508459 8 14
31.135372 6.8284736 -0.74172199 10 16
31.07394 8.3146095 -0.56147879 15 17
5.4934406 1.1857164 -1.5732419 0 1
7.689446 1.2702214 -1.5587404 0 2
8.9130535 1.9238132 -1.418597 4 3
11.686064 1.9304235 -1.5076426 1 4
45.32085 12.126727 0.27267176 19 21
12.809216 2.7647696 -1.4115392 1 5
15.509286 1.7889984 -1.457363 1 6
18.651875 4.0258622 -1.3343018 2 8
16.866554 2.78619 -1.3955635 2 7
19.392595 5.1889739 -1.28657 4 9
24.246733 5.2334685 -1.1554608 3 12
23.768822 3.9263773 -1.2625527 4 11
25.651567 6.863718 -1.0818368 5 13
32.969154 3.8029969 -1.1589425 8 14
31.165663 6.7268662 -0.74190807 10 16
31.084866 8.19557 -0.56112975 15 17
33.117077 5.3460073 -0.97627831 38 15
5.5052857 1.1671729 -1.5753984 0 1
7.709538 1.2445315 -1.5618782 0 2
31.147684 6.6036048 0 100 20
8.9277763 1.8927735 -1.4198266 4 3
11.665639 1.883155 -1.5041071 1 4
45.334049 11.952389 0.27248579 19 21
12.784249 2.7103822 -1.4076837 1 5
15.507825 1.7312617 -1.4566195 1 6
31.15099 6.6043057 0.74097753 39 24
66.661339 7.4419351 0.78088391 42 22
18.654797 3.954994 -1.3334647 2 8
16.900269 2.7281682 -1.3975163 2 7
19.411484 5.117866 -1.28657 4 9
22.962206 2.5634537 -1.3455696 4 10
31.130154 6.5998883 1.8532395 25 27
24.29702 5.1511989 -1.1569499 3 12
23.794884 3.8411489 -1.2631807 4 11
25.672686 6.768641 -1.081674 5 13
33.034527 3.6879065 -1.1607573 8 14
31.101677 8.0839882 -0.56092036 15 17
5.5206394 1.1503046 -1.5786334 0 1
7.7060871 1.2163875 -1.5603093 0 2
8.9459381 1.8640147 -1.4216714 6 3
11.699578 1.8467506 -1.5076426 1 4
12.813099 2.6697931 -1.4098257 1 5
15.529612 1.6788269 -1.4581066 1 6
66.730659 7.2139101 0.78139609 42 22
18.71146 3.8988011 -1.3365341 2 8
16.960882 2.6772349 -1.4017472 2 7
19.452412 5.0560966 -1.288105 4 9
23.046446 2.4914334 -1.3499882 4 10
31.196007 6.5001359 1.8557978 6 27
24.338326 5.0712395 -1.1580666 3 12
23.843658 3.763665 -1.2650648 4 11
25.742575 6.6910434 -1.0836279 5 13
33.206173 3.5897496 -1.1663412 8 14
31.089571 7.970881 -0.56022227 15 17
5.5244236 1.1319922 -1.5786334 0 1
7.7333364 1.1944203 -1.5650162 0 2
9.0798464 1.8605229 -1.4419634 2 3
11.682109 1.8043116 -1.5046122 1 4
33.713017 8.6434917 0.20227785 28 21
12.841362 2.6312833 -1.4119676 1 5
15.554897 1.6293974 -1.4599656 1 6
18.751648 3.8423417 -1.3384873 2 8
17.001186 2.6258478 -1.4043509 2 7
33.710941 8.6429596 1.0128161 11 25
62.117882 9.5941601 1.097128 25 23
22.987064 2.4079275 -1.3460346 4 10
24.39415 4.998529 -1.1599278 3 12
23.915224 3.6937265 -1.2682049 4 11
25.807205 6.6165652 -1.0854191 6 13
33.329212 3.491282 -1.1702499 8 14
31.086182 7.8544779 -0.55966377 15 17
37.63789 5.6787696 -1.1077676 8 15
5.5207882 1.1111825 -1.5764767 0 1
7.7297015 1.16625 -1.5634472 0 2
34.131523 6.8697343 0 8 20
9.3575182 1.8834103 -1.4850072 0 3
11.707953 1.766485 -1.5071377 1 4
33.723591 8.5208664 0.20216161 9 21
12.87776 2.591938 -1.4149663 1 5
15.568415 1.5758961 -1.4607091 1 6
18.831446 3.7902508 -1.3432306 2 8
17.026018 2.5688694 -1.4056528 2 7
62.107491 9.3707199 1.0963602 25 23
19.58313 4.9480267 -1.2945007 8 9
23.166166 2.3449705 -1.3560346 4 10
24.431036 4.917294 -1.1608585 3 12
23.979317 3.6179767 -1.2709265 4 11
25.849518 6.5313416 -1.0862333 6 13
33.559944 3.3970697 -1.1779279 8 14
31.113413 7.7459106 -0.55966377 15 17
37.859226 5.5770612 -1.1137019 8 15
5.5246334 1.0919031 -1.5764767 0 1
7.749248 1.1415455 -1.5665851 0 2
9.4570942 1.8691249 -1.499765 0 3
11.714049 1.7256024 -1.5071377 1 4
35.146576 8.7499962 0.21050753 10 21
12.867222 2.5431116 -1.4128244 1 5
15.633279 1.5273473 -1.4662857 1 6
34.102898 6.7401867 0.80890596 81 24
18.907194 3.7368677 -1.3476951 2 8
17.023048 2.5076737 -1.4046763 2 7
62.116089 9.1503515 1.0959413 50 23
19.635147 4.8883128 -1.2968032 4 9
23.253696 2.2718506 -1.3606857 4 10
24.46373 4.8350759 -1.161603 3 12
24.035275 3.5406482 -1.2732292 4 11
25.868284 6.4400978 -1.0860704 6 13
33.6273 3.2853358 -1.1798823 8 14
36.72348 7.2581253 -0.87106502 7 16
31.109182 7.6296425 -0.55910534 15 17
38.088215 5.4750333 -1.1198692 8 15
5.5548811 1.0777487 -1.5840249 0 1
7.7493024 1.1139323 -1.5658005 0 2
34.111893 6.6183319 0 8 20
9.4752007 1.8383623 -1.5016098 0 3
11.763205 1.6909151 -1.5126934 1 4
33.73175 8.2728376 0.2018594 9 21
62.017487 8.9147739 -0.3641513 46 19
12.94239 2.5110607 -1.4201069 1 5
15.638515 1.4727709 -1.4662857 1 6
18.959295 3.6784503 -1.3504853 2 8
17.067213 2.453346 -1.4076055 2 7
62.112019 8.9283628 1.0953131 50 23
19.652086 4.8197474 -1.2968032 4 9
23.297264 2.1940405 -1.3627787 4 10
34.097309 6.6155028 2.0227728 8 27
24.554985 4.7641168 -1.1651393 3 12
24.12656 3.4680998 -1.2774161 4 11
25.952709 6.3649983 -1.0886756 6 13
33.76194 3.1795607 -1.1842098 9 14
36.72504 7.1253304 -0.8705067 7 16
31.120077 7.5172405 -0.55882603 15 17
38.332794 5.3736768 -1.1265019 8 15
5.5510416 1.0569097 -1.5818683 0 1
7.7570286 1.0874178 -1.5665851 0 2
71.043739 13.526616 0 56 20
39.081081 3.5429015 -0.45684272 8 18
9.4699125 1.8030564 -1.499765 1 3
11.792613 1.6531457 -1.5157238 1 4
62.064083 8.7004433 -0.36424428 23 19
12.931544 2.4621456 -1.4179651 1 5
15.671326 1.4206865 -1.4688882 1 6
18.991619 3.6159744 -1.3518804 2 8
17.111208 2.3987322 -1.4105346 2 7
33.707844 8.1423311 1.0092088 5 25
62.138851 8.7109251 1.0952432 50 23
19.761919 4.7736096 -1.3029431 4 9
24.614643 4.6865892 -1.1671867 3 12
24.213682 3.3943913 -1.2813936 4 11
25.998081 6.2799916 -1.0896527 6 13
33.900234 3.073231 -1.1886768 9 14
31.151794 5.9312525 -0.73790681 10 16
31.115002 7.4011531 -0.55826759 15 17
38.569202 5.2695961 -1.1329017 9 15
5.5433378 1.0354033 -1.5786334 0 1
7.760777 1.0603321 -1.5665851 0 2
31.133562 5.8152308 0 6 20
39.041409 3.4019372 -0.45623735 8 18
9.4916897 1.7728895 -1.5022246 1 3
11.747203 1.6049857 -1.5091579 1 4
47.212574 6.4505148 -0.27694932 11 19
12.979154 2.4242897 -1.422249 1 5
15.699996 1.368045 -1.4711188 1 6
31.172308 5.8224678 0.73790681 6 24
19.047274 3.5577133 -1.3549498 2 8
17.119476 2.3389835 -1.4105346 2 7
62.16888 8.4939499 1.0952432 25 23
19.860014 4.7239914 -1.3083155 4 9
24.662275 4.6065021 -1.1686757 3 12
24.268921 3.3157909 -1.2836965 4 11
26.062616 6.1993699 -1.0914438 6 13
31.138956 2.7133439 -1.0915166 7 14
31.125069 7.2888703 -0.55798835 15 17
38.674549 5.1465621 -1.1354617 9 15
5.577229 1.021603 -1.5872599 0 1
7.7605424 1.0327233 -1.5658005 0 2
9.5133696 1.7426015 -1.5046842 1 3
11.815665 1.5723532 -1.5172391 1 4
15.748331 1.3168947 -1.4752084 1 6
19.075274 3.4940932 -1.3560659 2 8
17.174957 2.2855337 -1.4144402 2 7
62.19418 8.2764034 1.0951734 25 23
19.907473 4.6619334 -1.3103622 4 9
23.557726 1.9699256 -1.3767321 4 10
47.271721 6.2906184 1.9428772 21 26
24.709644 4.5261631 -1.1701647 3 12
24.315981 3.2358153 -1.2855805 4 11
26.150248 6.1238661 -1.0942118 6 13
34.199718 2.859822 -1.1984487 9 14
31.168839 5.7093191 -0.7373485 5 16
31.12179 7.1793137 -0.55749971 15 17
38.964996 5.0537586 -1.1434908 9 15
5.5616307 0.99969393 -1.5818683 0 1
7.7483654 1.0049627 -1.5626627 0 2
9.4918661 1.7061472 -1.5003799 0 3
11.832621 1.5346904 -1.5187542 1 4
15.768491 1.2659346 -1.4766954 1 6
19.153521 3.4428139 -1.3608093 2 8
17.210119 2.2321517 -1.4167182 2 7
33.747044 7.7849193 1.0079288 5 25
62.260944 8.075242 1.0958716 25 23
19.961721 4.6048594 -1.3129206 4 9
23.663639 1.8997771 -1.3825459 4 10
31.162926 5.6014848 1.8439373 6 27
47.331959 6.1389532 1.9445056 10 26
24.74025 4.4470191 -1.1709093 3 12
24.397882 3.1644044 -1.2893487 4 11
31.178429 5.6042709 3.8895824 11 29
26.209356 6.046092 -1.0958401 6 13
34.38036 2.7601426 -1.2044514 9 14
31.13496 7.0679698 -0.55729026 15 17
39.069675 4.9287143 -1.1460507 9 15
5.5688801 0.9809407 -1.5829465 0 1
7.7518258 0.97790766 -1.5626627 0 2
70.931976 12.494445 0 10 20
9.4938726 1.6723157 -1.499765 0 3
11.837906 1.4933743 -1.5187542 1 4
33.75264 7.6622109 0.20116198 28 21
47.728901 6.0210919 -0.27959958 11 19
13.023012 2.2939627 -1.4243908 1 5
15.760901 1.2099657 -1.4755801 1 6
19.20079 3.3821588 -1.3633205 2 8
17.229673 2.1735561 -1.4176948 2 7
19.977674 4.5351462 -1.3129206 4 9
24.834326 4.3744884 -1.1746317 3 12
24.4603 3.0857136 -1.2920703 4 11
26.28097 5.9660621 -1.0979569 6 13
34.497406 2.6483686 -1.2082206 9 14
31.127005 6.9577112 -0.55673176 15 17
39.319946 4.8278842 -1.1529161 9 15
5.5758982 0.96312511 -1.5840249 0 1
7.766706 0.95363194 -1.5650162 0 2
9.4993658 1.6408259 -1.499765 0 3
11.834916 1.4531455 -1.5177441 1 4
31.365438 7.0110078 0.18679494 23 21
13.010954 2.2473826 -1.422249 1 5
15.820436 1.1617808 -1.480785 1 6
19.251223 3.3252645 -1.3661108 2 8
17.280312 2.1217563 -1.4212747 2 7
31.348789 7.0072865 0.93485343 20 25
19.992605 4.4688773 -1.3129206 4 9
23.656111 1.7371969 -1.3813832 4 10
24.880194 4.2975569 -1.1761206 3 12
24.521942 3.0109169 -1.2947917 4 11
26.339615 5.8876028 -1.0995852 6 13
34.669453 2.5459666 -1.2139441 9 14
31.136669 6.8401523 -0.55645251 15 17
39.488239 4.7017078 -1.1573378 9 15
5.57939 0.94268304 -1.5840249 0 1
7.7506742 0.92284209 -1.5610938 0 2
71.187073 12.027631 0 56 20
9.5092115 1.6066582 -1.5003799 0 3
11.863802 1.4125758 -1.5207746 1 4
13.054396 2.2056456 -1.4261044 1 5
15.860344 1.1062858 -1.484131 1 6
36.995598 2.5805056 0.43174452 12 22
19.279015 3.2573452 -1.3672268 2 8
17.343393 2.0650091 -1.4258311 2 7
31.218052 6.8580308 0.93019891 30 25
20.082926 4.4118485 -1.3177812 4 9
23.714102 1.6540987 -1.3844064 4 10
24.915476 4.209671 -1.1770513 3 12
24.631973 2.9328313 -1.3000253 4 11
26.43128 5.8064651 -1.1025161 6 13
34.750336 2.4238949 -1.2164569 9 14
31.143545 6.7334733 -0.55617332 15 17
39.694267 4.592783 -1.1629232 9 15
5.5748854 0.92291623 -1.5818683 0 1
7.7887597 0.9011901 -1.568154 0 2
43.269726 2.8739719 -0.50485057 9 18
9.5300856 1.5776954 -1.5028394 0 3
11.91178 1.3782399 -1.5263304 1 4
31.108667 6.7259321 0.1849816 36 21
13.069484 2.1636388 -1.4269612 2 5
15.863925 1.0536808 -1.484131 1 6
37.007946 2.458065 0.4317911 12 22
19.285774 3.192739 -1.3669479 2 8
17.373911 2.0102298 -1.4277838 2 7
20.093544 4.344378 -1.3175254 4 9
24.968718 4.1335444 -1.1789125 3 12
24.720926 2.8603084 -1.3042122 4 11
26.505079 5.7306008 -1.1047957 6 13
34.989532 2.324002 -1.2245536 9 14
31.187578 6.6234422 -0.55652237 7 17
39.76646 4.4535041 -1.1645522 9 15
5.566823 0.90063274 -1.5786334 0 1
7.7959075 0.87307507 -1.5689384 0 2
9.5358038 1.5427573 -1.5028394 0 3
11.908865 1.3336912 -1.5253203 1 4
31.14876 6.6151986 0.1850746 18 21
15.89153 0.99702907 -1.4863616 1 6
19.317041 3.1252224 -1.368343 2 8
17.424744 1.9514225 -1.4313639 2 7
31.140017 6.6133413 0.92647535 45 25
20.152285 4.2798285 -1.3203396 4 9
66.643745 7.4635305 2.7321103 35 26
25.011309 4.046474 -1.1802154 3 12
24.850332 2.783025 -1.3104925 4 11
26.572819 5.6433859 -1.1067497 6 13
35.145432 2.2050121 -1.2297187 9 14
33.12421 5.359026 -0.7808041 105 16
32.034237 6.6981492 -0.57125217 8 17
40.094269 4.3627281 -1.1737449 9 15
5.5658202 0.88253742 -1.5775551 0 1
7.7869143 0.84730786 -1.5665851 0 2
37.027809 2.2063575 -0.43183765 7 18
9.5523148 1.5146508 -1.5046842 0 3
11.920885 1.2971325 -1.5263304 1 4
13.087837 2.0752566 -1.4273896 2 5
15.942292 0.94994533 -1.490823 1 6
37.131618 2.212543 0.43304831 12 22
19.338589 3.0663993 -1.36918 2 8
17.45853 1.8996934 -1.4336421 2 7
20.189074 4.2214031 -1.3218745 4 9
66.666862 7.2541389 2.7321103 35 26
25.094936 3.9791474 -1.1835656 3 12
25.001913 2.7205021 -1.3180289 4 11
26.653009 5.5729694 -1.1093549 6 13
35.367676 2.1074359 -1.237257 10 14
40.304096 4.243248 -1.1794467 10 15
5.580287 0.8648721 -1.5807899 0 1
7.793726 0.82052982 -1.5673696 0 2
61.980011 9.6060972 0 93 20
37.023308 2.0764112 -0.43169796 7 18
9.5575438 1.4812952 -1.5046842 0 3
11.917449 1.2546788 -1.5253203 1 4
13.110723 2.031992 -1.4291031 2 5
15.989252 0.89673954 -1.4949126 1 6
37.095188 2.0804427 0.43253613 12 22
19.396492 3.0062048 -1.3725283 2 8
17.48488 1.8408226 -1.4352695 2 7
20.211506 4.1525054 -1.3223861 4 9
25.12052 3.8933549 -1.1841241 3 12
25.134405 2.6461706 -1.3245184 4 11
26.766262 5.4991965 -1.1132628 6 13
35.506531 1.9913445 -1.2418637 10 14
40.503075 4.1070056 -1.1847992 10 15
5.6026101 0.84631437 -1.5861815 0 1
7.7968192 0.79059631 -1.5673696 0 2
36.735428 1.9187889 -0.42825219 7 18
9.5748854 1.446355 -1.506529 0 3
11.926127 1.2093076 -1.5258253 1 4
13.142022 1.9851965 -1.4316735 2 5
15.992578 0.83533478 -1.4949126 1 6
62.189449 9.3941612 1.4635307 42 24
36.755402 1.9198321 0.42848504 12 22
19.439455 2.9364688 -1.3747605 2 8
17.519585 1.7764832 -1.4375477 2 7
20.24687 4.0788054 -1.3236654 4 9
25.2143 3.8088005 -1.1878465 3 12
25.259632 2.5613229 -1.3305895 4 11
26.849867 5.4090033 -1.1158681 6 13
35.677586 1.8635349 -1.2475872 10 14
36.720097 7.2774382 -0.65341812 11 17
40.702797 3.9981194 -1.1902683 10 15
5.6204829 0.83096355 -1.5904946 0 1
7.814878 0.76763314 -1.5705074 0 2
62.01786 9.1690664 0 3 20
27.644846 1.3568972 -0.32222521 4 18
9.5715618 1.4151131 -1.5052992 0 3
11.95751 1.174552 -1.5293608 1 4
34.10017 6.7582026 0.20204537 28 21
16.038879 0.78723937 -1.499002 1 6
62.190964 9.1946592 1.4628793 42 24
105.52181 5.179347 1.2299503 63 22
19.511744 2.8847251 -1.379225 2 8
17.548885 1.7237768 -1.4395005 2 7
34.090237 6.7562342 1.0114197 11 25
20.275248 4.0182858 -1.3246887 4 9
66.723267 6.5540361 2.7314589 35 26
25.309149 3.7418456 -1.1917552 3 12
25.390789 2.4940646 -1.337079 4 11
26.91769 5.3347306 -1.1179849 6 13
35.771107 1.7557601 -1.2506584 10 14
36.717796 7.1438608 -0.65292943 11 17
40.91951 3.8752306 -1.1962028 10 15
5.6004753 0.80803752 -1.5840249 0 1
7.8096995 0.73960775 -1.5689384 0 2
62.037617 8.950798 0 93 20
9.6116514 1.3867707 -1.5108333 0 3
11.953636 1.1320541 -1.5283507 1 4
16.037552 0.73106277 -1.4986303 1 6
62.183102 8.9717884 1.4619488 42 24
105.39542 4.8043909 1.2282741 63 22
19.509846 2.8148839 -1.3783879 2 8
17.566702 1.6636323 -1.4404767 2 7
20.328333 3.955106 -1.327247 4 9
25.353693 3.658035 -1.1932441 3 12
25.522619 2.4170876 -1.3435688 4 11
27.022459 5.2575235 -1.1215671 6 13
27.594507 1.2578802 -0.96462208 5 14
36.777866 7.0224237 -0.65355772 11 17
38.870216 3.5443268 -1.1359272 9 15
5.5880036 0.78634006 -1.5797117 0 1
7.7927032 0.71056682 -1.5650162 0 2
62.024906 8.7281027 0 46 20
27.65764 1.164048 -0.32227176 4 18
9.5812082 1.348261 -1.5052992 0 3
11.977272 1.0921309 -1.530876 1 4
71.294754 13.613134 0.42185196 30 21
13.196887 1.857057 -1.4355289 2 5
16.107653 0.67793489 -1.5049505 1 6
62.194237 8.7519302 1.4614835 42 24
27.645653 1.1635433 0.32213208 6 22
19.578823 2.7551186 -1.3825734 2 8
17.635925 1.6081074 -1.4456841 2 7
20.334169 3.8826389 -1.3267354 4 9
24.345163 1.0246332 -1.4190574 4 10
25.504789 3.5890167 -1.1997585 4 12
25.642282 2.338156 -1.3494304 4 11
27.138786 5.1819229 -1.1256378 6 13
35.806461 1.5070133 -1.251496 10 14
38.966 3.4159453 -1.1383708 9 15
5.5868983 0.76630467 -1.5786334 0 1
7.806859 0.68438649 -1.5673696 0 2
62.04707 8.5104399 0 46 20
54.104061 2.0879381 -0.63034141 19 18
9.5858555 1.3148057 -1.5052992 0 3
11.99287 1.0513521 -1.5323912 1 4
13.246631 1.8169214 -1.4402412 2 5
16.109921 0.62170035 -1.5049505 1 6
62.196674 8.5309591 1.4608321 42 24
27.661535 1.0674905 0.32227176 6 22
19.58832 2.686754 -1.3825734 2 8
17.669233 1.5489691 -1.4479623 2 7
20.429995 3.8270652 -1.3321078 4 9
25.604252 3.5119054 -1.2038532 4 12
25.797523 2.261534 -1.3571762 4 11
37.010468 3.244514 3.0329423 9 28
27.223494 5.0996628 -1.1284059 6 13
35.819489 1.3823153 -1.2517751 10 14
40.612659 5.5704737 -0.9538818 8 16
31.147928 5.7110949 -0.55275261 14 17
5.5936174 0.74535424 -1.5797117 0 1
7.8094287 0.65440339 -1.5673696 0 2
47.22261 6.2924523 0 16 20
54.095688 1.8796093 -0.63015515 19 18
9.6339302 1.2837292 -1.5120631 0 3
12.012635 1.0066177 -1.5344115 1 4
31.120672 5.7060976 0.18388896 45 21
13.225915 1.7623641 -1.4372425 2 5
16.15597 0.56135553 -1.5090399 1 6
62.268616 8.2973452 1.4617627 42 24
19.574762 2.6083534 -1.3808992 2 8
17.686966 1.4821073 -1.4489386 2 7
31.135557 5.7088265 0.92123902 9 25
107.76981 9.0307417 1.887722 44 23
20.432762 3.7464271 -1.3313403 4 9
25.708645 3.4256983 -1.2081341 4 12
25.925434 2.1724627 -1.3634565 4 11
27.40012 5.0239196 -1.134919 6 13
35.864483 1.2461478 -1.2531711 10 14
5.6073914 0.72926921 -1.5829465 0 1
7.827085 0.63112855 -1.5705074 0 2
9.6535931 1.2554978 -1.5145228 0 3
11.999918 0.96760046 -1.5323912 1 4
13.243217 1.7223464 -1.4385277 2 5
16.213387 0.51236159 -1.5142449 1 6
62.29438 8.1016941 1.4617627 42 24
19.614515 2.5509653 -1.3831314 2 8
17.743198 1.4307036 -1.4531696 2 7
31.19269 5.6180763 0.92240268 5 25
20.507286 3.693542 -1.3354336 4 9
37.642502 3.0352626 1.5385725 7 26
25.82626 3.3588338 -1.2131594 4 12
26.063526 2.1016042 -1.3703649 4 11
36.829556 2.9697115 3.0163441 9 28
27.510172 4.954823 -1.138827 6 13
5.6100264 0.70871347 -1.5829465 0 1
7.8449888 0.60364211 -1.5736452 0 2
9.6463652 1.2186233 -1.512678 0 3
12.035034 0.92605019 -1.5364318 1 4
71.054642 12.528879 0.41934121 30 21
44.360123 3.4133432 -0.25858366 10 19
13.296788 1.6797805 -1.4436684 2 5
16.231079 0.45338151 -1.5157319 1 6
19.623732 2.4790618 -1.3831314 2 8
17.744349 1.3653601 -1.4528441 2 7
20.528547 3.6197453 -1.3359451 4 9
37.47007 2.8831797 1.5310825 7 26
25.905788 3.2726729 -1.2163236 4 12
26.238327 2.0189397 -1.3791573 4 11
36.720943 2.825537 3.0065804 9 28
27.63048 4.8720102 -1.1430606 6 13
36.279732 1.013399 -1.2674102 10 14
40.309826 2.9672465 -1.1763048 67 15
5.6008763 0.68869406 -1.5797117 0 1
7.8430352 0.57733363 -1.5728608 0 2
9.6503534 1.1866252 -1.512678 0 3
12.038039 0.88613206 -1.5364318 1 4
71.320473 12.332012 0.42066637 30 21
13.278602 1.6327614 -1.441098 2 5
16.260363 0.40023634 -1.5183344 1 6
19.659567 2.4173768 -1.3850845 2 8
17.796488 1.3100173 -1.4567497 2 7
20.575842 3.5577657 -1.3382478 4 9
37.543198 2.7635922 1.5336877 7 26
26.03944 3.2018573 -1.2220935 4 12
26.392277 1.9427619 -1.386903 4 11
36.913002 2.7172029 3.0215514 9 28
27.764631 4.8007784 -1.1479454 6 13
36.41077 0.89622319 -1.2718772 10 14
5.6148376 0.66952813 -1.5829465 0 1
7.8294477 0.54748732 -1.569723 0 2
9.6546383 1.1512446 -1.512678 0 3
12.013497 0.84006405 -1.5328963 1 4
71.479568 12.089854 0.42134053 30 21
37.009003 2.5879169 -0.21562202 7 19
13.359529 1.5930256 -1.4492373 2 5
16.265701 0.34071571 -1.5187061 1 6
19.72773 2.3523867 -1.3892699 2 8
17.813099 1.245611 -1.457726 2 7
20.608421 3.485651 -1.3395268 4 9
37.277973 2.606725 1.5224525 7 26
26.146221 3.1177447 -1.2265604 4 12
26.518763 1.854369 -1.3931832 4 11
27.817511 4.7049761 -1.149411 6 13
5.609261 0.65099823 -1.5807899 0 1
7.8350425 0.52315038 -1.5705074 0 2
9.6621342 1.1213655 -1.513293 0 3
12.043792 0.80417103 -1.5364318 1 4
16.350315 0.29110569 -1.5265136 1 6
19.762768 2.2936225 -1.3912231 2 8
17.844772 1.1915059 -1.4600042 2 7
20.611395 3.4195876 -1.3390151 4 9
37.242115 2.4866779 1.5206614 7 26
26.290836 3.0512555 -1.2328887 4 12
26.711784 1.7835615 -1.4030224 4 11
27.942553 4.6358824 -1.1539701 6 13
36.966824 2.3322432 -1.0779788 8 15
5.6039534 0.62957609 -1.5786334 0 1
7.8408217 0.49467877 -1.5712918 0 2
9.6779623 1.0872706 -1.5151378 0 3
12.046659 0.76002568 -1.5364318 1 4
39.177444 2.4717116 -0.2281525 7 19
16.339325 0.23101163 -1.5253981 1 6
19.786903 2.2229593 -1.3923392 2 8
17.924618 1.1308671 -1.4661878 2 7
20.659252 3.3497751 -1.3413175 4 9
26.389196 2.9646938 -1.2369834 4 12
26.817806 1.6919398 -1.4082561 4 11
28.121105 4.55967 -1.1606461 6 13
36.974354 2.2096336 -1.0779788 8 15
5.6174984 0.61223966 -1.5818683 0 1
7.8306727 0.46797079 -1.5689384 0 2
9.661869 1.0530274 -1.5120631 0 3
12.064956 0.72101682 -1.5384521 1 4
61.959145 9.835536 0.36461625 30 21
37.037296 2.2133951 -0.21564525 7 19
16.38381 0.17729665 -1.5294877 1 6
66.623344 7.2611423 1.5594679 39 24
19.91317 2.1702957 -1.4007101 2 8
17.916328 1.0707022 -1.4652116 2 7
37.056236 2.2145269 0.64797294 5 23
20.729385 3.2906296 -1.3451551 4 9
37.011211 2.2118361 1.5105659 7 26
26.502161 2.8884163 -1.2418227 4 12
27.006689 1.6139535 -1.4178859 5 11
36.954914 2.2084718 3.0222023 9 28
28.238701 4.4826756 -1.1648797 6 13
5.6081095 0.59141386 -1.5786334 0 1
7.8518391 0.4417333 -1.5728608 0 2
9.7087221 1.0238518 -1.5188272 0 3
12.051552 0.67800319 -1.5364318 1 4
36.82914 2.071955 -0.21438988 6 19
13.443258 1.4176844 -1.4560916 2 5
16.42017 0.12036395 -1.5328337 1 6
17.979664 1.0115103 -1.4700934 2 7
37.071724 2.0856023 0.6481126 5 23
20.740746 3.218245 -1.3451551 4 9
37.026684 2.0830686 1.5108916 7 26
26.643211 2.8097105 -1.2479647 4 12
27.131804 1.5263966 -1.4241662 5 11
36.174271 2.0351129 2.9577615 8 28
28.352913 4.3993893 -1.1689504 6 13
5.6064067 0.57046634 -1.5775551 0 1
7.8494897 0.41274765 -1.5720764 0 2
9.71241 0.98826271 -1.5188272 0 3
12.093582 0.63591361 -1.5414824 1 4
36.736629 1.9317125 -0.2138087 6 19
16.464312 0.06034432 -1.5369233 1 6
17.999178 0.94644594 -1.4713953 2 7
20.780029 3.1463926 -1.3469459 4 9
37.101929 1.9509208 1.5136597 7 26
26.77656 2.7245839 -1.2537347 4 12
27.252899 1.433032 -1.4302372 5 11
37.455486 1.9695119 3.061908 9 28
28.439976 4.3062177 -1.1718813 6 13
5.5968633 0.54976445 -1.5743201 0 1
7.8391294 0.38477018 -1.569723 0 2
9.676465 0.95049244 -1.512678 0 3
12.09969 0.59389251 -1.5419877 1 4
62.028687 9.1706724 0.36443025 29 21
16.452471 0.0028743895 -1.5358078 1 6
20.030453 1.9675361 -1.4074066 2 8
18.010334 0.8840062 -1.4720461 2 7
64.40831 9.5224895 1.894841 30 25
20.826424 3.0790966 -1.3492484 4 9
26.893272 2.6416519 -1.25876 4 12
27.373438 1.3435781 -1.4363081 5 11
36.442753 1.7887299 2.978591 9 28
28.541815 4.2197838 -1.1754636 6 13
27.54772 1.2557628 -0.80254966 4 15
5.6294265 0.53313094 -1.5829465 0 1
7.8717704 0.35883468 -1.5759987 0 2
9.6757889 0.91633892 -1.5120631 0 3
12.113583 0.55219769 -1.5435029 1 4
27.634836 1.2597342 -0.16078079 3 19
13.501142 1.2786162 -1.4608039 2 5
16.49221 -0.054684173 -1.5395257 1 6
20.10076 1.9036285 -1.4118711 2 8
18.053135 0.82295221 -1.4753007 2 7
64.417412 9.2941923 1.8941427 30 25
27.651073 1.2604742 0.48315245 3 23
20.868652 3.0109448 -1.351295 4 9
27.009731 2.5579379 -1.2637854 4 12
27.461758 1.2518443 -1.4407043 5 11
28.639441 4.1321201 -1.178883 7 13
38.963074 3.6899707 -0.91070545 7 16
27.547739 1.1642278 -0.80243331 4 15
5.6273274 0.51410812 -1.5818683 0 1
7.8533235 0.33189869 -1.5720764 0 2
9.7496243 0.89071774 -1.5231316 0 3
12.151027 0.51352906 -1.5480485 1 4
54.078819 2.2854896 -0.3145873 16 19
13.509269 1.2341958 -1.4612323 2 5
16.511852 -0.10951085 -1.5413846 1 6
20.130804 1.839134 -1.4135453 2 8
18.103563 0.76509631 -1.4792062 2 7
27.647108 1.1684275 0.4830128 3 23
20.914099 2.9467318 -1.3535975 4 9
25.268629 -0.16758806 -1.471615 4 10
27.648365 1.1684805 1.1274289 3 26
27.137436 2.4792542 -1.269369 4 12
27.573515 1.1653173 -1.4463567 5 11
27.579556 1.1655725 2.2534707 4 28
28.755884 4.0516152 -1.1831166 7 13
38.967133 3.5600057 -0.91051936 7 16
47.265064 6.4913092 -0.83275908 16 17
5.632925 0.49479747 -1.5829465 0 1
7.854434 0.30448136 -1.5720764 0 2
9.6975508 0.85183513 -1.5145228 0 3
12.15671 0.47126141 -1.5485536 1 4
62.048504 8.5216427 0.36401182 61 21
54.098457 2.0971558 -0.31465703 16 19
13.517455 1.1873764 -1.4616606 2 5
16.559156 -0.16763532 -1.5458457 1 6
20.117226 1.7671019 -1.4121501 2 8
18.137995 0.70312917 -1.48181 2 7
47.208679 6.4835653 1.3868039 11 25
20.932165 2.8747904 -1.3541092 4 9
25.435596 -0.25749528 -1.4813824 4 10
27.712179 1.0742775 1.1298714 3 26
27.281256 2.3963921 -1.2756972 4 12
27.72909 1.0749332 -1.4543117 5 11
27.623293 1.0708319 2.2567253 4 28
28.904474 3.9696949 -1.1886526 7 13
5.6231027 0.4741621 -1.5797117 0 1
7.871129 0.2776171 -1.5752143 0 2
9.7162199 0.81930983 -1.5169824 0 3
12.146385 0.42840669 -1.5470383 1 4
62.081833 8.3055458 0.36403504 61 21
13.541332 1.1418583 -1.4638026 2 5
16.610241 -0.22613797 -1.5506788 1 6
20.190865 1.7025731 -1.4168935 2 8
18.13237 0.63953424 -1.481159 2 7
62.662945 8.3832884 1.839918 30 25
21.001419 2.8096504 -1.3579465 4 9
25.65415 -0.3492651 -1.4941729 4 10
27.787659 0.98007911 1.1328022 3 26
27.400942 2.310555 -1.2809088 4 12
27.844452 0.98208231 -1.4601734 5 11
37.017643 3.1214731 4.561326 15 29
28.993422 3.8788509 -1.1917465 7 13
5.6400814 0.45577314 -1.5840249 0 1
7.8446069 0.24926971 -1.569723 0 2
9.7426586 0.787301 -1.5206718 0 3
12.16367 0.38651195 -1.5490587 1 4
62.126312 8.090868 0.36412805 61 21
120.08936 3.8159516 -0.69831312 30 19
13.533344 1.0936251 -1.4625175 2 5
16.617315 -0.2842499 -1.5514226 1 6
93.302521 7.5397463 2.1781745 30 24
20.208618 1.6330519 -1.4177306 2 8
18.186291 0.5778864 -1.4853899 2 7
62.727512 8.1691628 1.8409654 30 25
21.022976 2.7378757 -1.3587141 4 9
25.640799 -0.43860242 -1.4934753 4 10
37.374634 3.020232 2.1837018 9 27
27.818871 0.88397062 1.1339421 3 26
27.524336 2.2242327 -1.2863064 4 12
27.979462 0.88907349 -1.4670817 5 11
29.101902 3.7900145 -1.1956544 7 13
5.6454782 0.43638083 -1.5851032 0 1
7.8885574 0.22310679 -1.5783521 0 2
9.7492876 0.7535947 -1.5212868 0 3
12.184776 0.34461385 -1.5515839 1 4
120.12994 3.3975546 -0.69847584 30 19
13.580695 1.0497526 -1.4672297 2 5
16.65604 -0.34307 -1.5551403 1 6
20.25 1.5652726 -1.4202418 2 8
18.228052 0.51553178 -1.4886446 2 7
21.083887 2.6710019 -1.3620399 4 9
25.698997 -0.52933079 -1.4969636 4 10
37.265507 2.8805273 2.1767251 9 27
27.703234 2.1413882 -1.2943097 4 12
28.138119 0.79581153 -1.4752461 5 11
36.794838 1.0406437 3.0049531 9 28
29.25769 3.7064962 -1.2015162 7 13
5.6353703 0.41680351 -1.5818683 0 1
7.8853331 0.19684613 -1.5775677 0 2
9.7517338 0.7212581 -1.5212868 0 3
12.193787 0.30440053 -1.5525942 1 4
13.56427 1.0032412 -1.4650877 2 5
16.658792 -0.39840141 -1.555512 1 6
93.327751 6.9027109 2.1776161 14 24
20.286915 1.5004616 -1.4224739 2 8
18.269514 0.45607245 -1.491899 2 7
66.6269 8.2161808 1.9537203 30 25
21.136209 2.6064384 -1.364854 4 9
25.808878 -0.61722922 -1.5034752 4 10
37.107601 2.7445538 2.1669579 9 27
27.829727 2.0583434 -1.2998935 4 12
28.280367 0.70597917 -1.4825732 5 11
36.917652 0.92159671 3.0147166 9 28
29.388824 3.6241202 -1.2064011 7 13
5.6252637 0.3963162 -1.5786334 0 1
7.8702869 0.16898109 -1.5744299 0 2
37.016247 2.6079023 0 10 20
9.7423639 0.68637788 -1.5194422 0 3
12.222544 0.26242739 -1.5561296 1 4
13.587526 0.95728076 -1.4672297 2 5
16.669245 -0.45688078 -1.5566274 1 6
20.323872 1.4318759 -1.4247062 2 8
18.310854 0.39314809 -1.4951537 2 7
66.663109 7.9844928 1.9539531 30 25
21.164993 2.5350113 -1.3661331 4 9
25.890394 -0.70961964 -1.508359 4 10
37.057198 2.6107874 2.1634693 9 27
28.000158 1.9726926 -1.3075246 4 12
28.47435 0.61136615 -1.4926215 5 11
36.844913 0.79108852 3.008533 9 28
29.524311 3.5362384 -1.2114488 7 13
40.372971 2.8443933 -0.94178498 8 16
5.6574249 0.37775013 -1.5872599 0 1
7.8708534 0.14013566 -1.5744299 0 2
36.973675 2.4687574 0 10 20
9.7448139 0.65066785 -1.5194422 0 3
12.223423 0.21763048 -1.5561296 1 4
13.638561 0.91065598 -1.4723704 2 5
16.73513 -0.52007294 -1.5629475 1 6
20.392685 1.3616334 -1.4291706 2 8
18.356016 0.32681751 -1.4987336 2 7
66.691925 7.7401209 1.9539531 30 25
21.304995 2.4726117 -1.3745755 4 9
25.947489 -0.80636287 -1.5118473 4 10
37.046597 2.4736266 2.1623065 9 27
28.166674 1.880708 -1.3149697 4 12
28.676096 0.5105601 -1.5030888 5 11
36.749577 2.4537942 4.5223279 15 29
29.676027 3.4441357 -1.2171478 7 13
5.6394258 0.35776907 -1.5818683 0 1
7.9026494 0.11449029 -1.5807055 0 2
9.7548065 0.61885166 -1.5206718 0 3
12.212175 0.1769249 -1.5546144 1 4
13.597847 0.86265677 -1.467658 2 5
16.729334 -0.57542551 -1.5625757 1 6
20.413019 1.2950161 -1.4302868 2 8
18.392879 0.26646838 -1.5016629 2 7
66.625839 7.5086341 1.9512767 30 25
21.265476 2.3965878 -1.3715055 4 9
26.020498 -0.89500624 -1.5162659 4 10
28.312323 1.7961533 -1.321484 4 12
29.029112 0.42056167 -1.5215111 5 11
36.83279 2.3366978 4.53159 15 29
29.7826 3.3564553 -1.2210557 7 13
49.002319 5.3406901 -0.86040366 17 17
5.6368542 0.33686864 -1.5807899 0 1
7.8912497 0.085399315 -1.5783521 0 2
9.784627 0.58474708 -1.5249763 0 3
12.240516 0.13246718 -1.5581499 1 4
13.644586 0.81542528 -1.4723704 2 5
16.814669 -0.64006686 -1.5707549 1 6
20.453474 1.2223369 -1.432798 2 8
18.429609 0.19944572 -1.5045919 2 7
66.672791 7.2665687 1.9518584 30 25
21.297928 2.3212297 -1.3730406 4 9
26.017042 -0.99036431 -1.5162659 4 10
28.47028 1.7014357 -1.3285567 4 12
29.693512 0.32134396 -1.5562621 5 11
36.948112 2.2080865 4.5447521 15 29
29.989388 3.2684991 -1.2290343 7 13
5.6340942 0.31795567 -1.5797117 0 1
7.8836451 0.059169415 -1.5767831 0 2
36.997135 2.0879042 0 10 20
116.84405 -4.835897 -1.361448 30 18
9.7865124 0.55229414 -1.5249763 0 3
12.232952 0.091812432 -1.5571399 1 4
13.690893 0.77263474 -1.4770826 2 5
16.788576 -0.6948393 -1.5685242 1 6
37.043018 2.0904937 0.86334169 8 24
20.485304 1.156072 -1.4347512 2 8
18.481997 0.13871363 -1.5088229 2 7
21.329325 2.2531004 -1.3745755 4 9
26.177198 -1.0834121 -1.5258006 5 10
37.002327 2.0881972 2.1583531 9 27
28.647306 1.6166883 -1.33656 4 12
36.887848 2.0817366 4.5364652 15 29
30.107374 3.1803603 -1.2334307 7 13
5.6467094 0.29889643 -1.5829465 0 1
7.8994932 0.031710912 -1.5799211 0 2
36.760536 1.9458399 0 10 20
116.74254 -5.2399945 -1.3604702 30 18
9.7844343 0.51791799 -1.5243614 0 3
12.280813 0.049298834 -1.5632006 1 4
13.705421 0.72546697 -1.4783678 2 5
16.845728 -0.75612134 -1.5741009 1 6
37.074051 1.9624351 0.86390001 8 24
20.533047 1.0868727 -1.4378204 2 8
18.498316 0.074257731 -1.5101248 2 7
21.420456 2.1871428 -1.3799479 4 9
26.209158 -1.1763994 -1.5278935 5 10
36.869823 1.9516248 2.1502137 9 27
28.800409 1.5244877 -1.3434466 4 12
36.871098 1.9516923 4.5335398 15 29
30.24155 3.0878236 -1.2384784 7 13
42.063984 -1.888044 -1.4703857 15 14
36.782536 1.9470044 -0.85710716 7 16
5.6592607 0.27975562 -1.5861815 0 1
7.8995557 0.0041379938 -1.5799211 0 2
36.731152 1.8157401 0 10 20
112.33298 -5.4350171 -1.309296 30 18
9.7901306 0.48395795 -1.5249763 0 3
12.288846 0.0064372192 -1.5642108 1 4
13.684037 0.67644644 -1.4757974 2 5
16.886745 -0.81703305 -1.5781904 1 6
20.544687 1.0155907 -1.4383785 2 8
18.542315 0.0097129494 -1.5137047 2 7
26.256744 -1.2703826 -1.5309168 5 10
27.65621 1.3671362 -1.2898427 4 12
36.711147 1.8147511 4.5130658 15 29
30.387377 2.9955797 -1.2440146 7 13
39.281391 1.9418067 -0.91517192 7 16
5.6409631 0.25911418 -1.5807899 0 1
7.8916769 -0.023415444 -1.5783521 0 2
54.102955 2.4851861 0 28 20
9.7996559 0.45014119 -1.5262061 0 3
12.288794 -0.036462158 -1.5642108 1 4
13.714125 0.62994987 -1.4787961 2 5
16.907656 -0.8772164 -1.5804211 1 6
20.607895 0.94661105 -1.4425639 2 8
18.598051 -0.055182394 -1.5182612 2 7
21.530577 2.0466125 -1.3860879 4 9
26.276075 -1.3632762 -1.5323122 5 10
27.62888 1.2691156 -1.2883538 4 12
36.630001 1.6825767 4.5023413 15 29
30.433455 2.8928854 -1.2454801 7 13
5.6495304 0.23974979 -1.5829465 0 1
7.919003 -0.051138043 -1.5838434 0 2
27.611151 1.1717377 0 4 20
9.8011675 0.41593331 -1.5262061 0 3
12.288591 -0.079355262 -1.5642108 1 4
13.736108 0.58292085 -1.4809382 2 5
16.908466 -0.93644655 -1.5807929 1 6
27.647629 1.1732857 0.64392376 4 24
20.63101 0.87552065 -1.443959 2 8
18.593758 -0.12007173 -1.5179356 2 7
21.565414 1.973996 -1.3878787 5 9
26.358875 -1.4598413 -1.5374284 5 10
27.424809 1.1638299 1.5985907 4 27
27.617174 1.1719933 -1.2876092 4 12
30.57869 2.7990286 -1.2510163 8 13
27.599686 1.1712511 -0.64280713 7 16
39.019188 3.4343393 -0.68371546 47 17
5.6464839 0.21987909 -1.5818683 0 1
7.9070106 -0.078661494 -1.5814899 0 2
27.643053 1.076445 0 4 20
97.065277 -5.7157016 -1.131979 30 18
9.8104591 0.38202798 -1.527436 0 3
12.312048 -0.12248424 -1.5672413 1 4
13.757928 0.53574592 -1.48308 2 5
16.924973 -0.9966293 -1.5826516 1 6
27.631577 1.0759981 0.64345849 4 24
20.721659 0.80691975 -1.4500976 3 8
18.617146 -0.18520938 -1.5198884 2 7
21.635798 1.9043112 -1.3919721 5 9
26.489157 -1.5598176 -1.5453353 5 10
27.484568 1.0702735 1.6018465 4 27
29.445734 1.146643 -1.3726681 5 12
30.69179 2.7013893 -1.2552499 8 13
51.355167 1.9998158 -1.1959115 14 16
5.6471462 0.20213747 -1.5818683 0 1
7.922411 -0.1037093 -1.5846277 0 2
100.7315 -6.2492309 -1.1749579 90 18
9.8195105 0.35148567 -1.5286657 0 3
12.291762 -0.16090684 -1.5647159 1 4
13.791338 0.49365574 -1.4865072 2 5
16.993309 -1.0542393 -1.5893437 1 6
20.740042 0.74238199 -1.4512137 3 8
18.700184 -0.24479705 -1.526723 2 7
21.669518 1.8386872 -1.3937628 5 9
36.738182 1.3150294 2.1409113 9 27
29.529051 1.0569812 -1.3763907 5 12
30.779772 2.6117043 -1.2585064 8 13
5.6478491 0.18143684 -1.5818683 0 1
7.902369 -0.13241912 -1.5807055 0 2
9.8365335 0.31599808 -1.5311253 0 3
12.32283 -0.2064923 -1.5687565 1 4
13.808955 0.44361189 -1.4882207 2 5
16.957539 -1.114431 -1.5863695 1 6
20.726669 0.66584307 -1.4500976 3 8
18.711121 -0.31354019 -1.5276995 2 7
93.281654 7.570797 2.7236886 30 25
21.70396 1.7615068 -1.3955537 5 9
26.67317 -1.7529317 -1.5567305 5 10
36.670918 1.1780511 2.1367254 9 27
29.588636 0.95053321 -1.3789964 5 12
30.880758 2.5063014 -1.2622515 8 13
40.264645 3.1264951 -0.70493764 12 17
5.6754007 0.16249663 -1.5894164 0 1
7.9136238 -0.16023554 -1.583059 0 2
9.8375769 0.28166699 -1.5311253 0 3
12.357739 -0.25022027 -1.5733021 1 4
17.009171 -1.177456 -1.5915743 1 6
20.736847 0.59373212 -1.4506557 3 8
18.773687 -0.38013074 -1.5329068 2 7
93.315475 7.24582 2.7239213 30 25
21.725895 1.6869863 -1.3965769 5 9
26.738598 -1.8509732 -1.5609165 5 10
29.759525 0.85206711 -1.3868136 5 12
31.004873 2.4074864 -1.2669735 8 13
5.6643562 0.14338145 -1.5861815 0 1
7.9248128 -0.1867566 -1.5854124 0 2
9.8503113 0.24934021 -1.5329701 0 3
12.340974 -0.29082808 -1.5712818 1 4
13.839485 0.35031787 -1.4912194 2 5
17.032978 -1.2358761 -1.5941768 1 6
20.82646 0.52717865 -1.4567941 3 8
18.784281 -0.44267142 -1.5338832 2 7
21.807009 1.6205461 -1.4014378 5 9
26.732313 -1.9396387 -1.5609165 5 10
29.949923 0.75812018 -1.3955615 5 12
31.096388 2.3108685 -1.270393 8 13
5.6532693 0.12335479 -1.5829465 0 1
7.9162707 -0.21420798 -1.5838434 0 2
9.8353157 0.21460734 -1.5305104 0 3
12.347816 -0.33412209 -1.572292 1 4
36.962845 2.6171098 0.2153663 11 21
13.840624 0.3020035 -1.4912194 2 5
17.088127 -1.2998602 -1.5997534 1 6
20.892002 0.45586511 -1.4612586 3 8
18.822474 -0.50932115 -1.5371376 2 7
21.82448 1.5452561 -1.4022052 5 9
26.789083 -2.0377929 -1.5646374 5 10
30.076223 0.65626556 -1.4013313 5 12
31.180014 2.2076635 -1.2734867 8 13
5.6382785 0.10235403 -1.5786334 0 1
7.9232736 -0.24346206 -1.5854124 0 2
66.061737 -5.2687845 -0.77152443 30 18
9.8716011 0.17920332 -1.5360447 0 3
12.358408 -0.37974247 -1.5738072 1 4
36.968193 2.4813485 0.21534304 11 21
13.933093 0.25293326 -1.5010724 2 5
17.107069 -1.3643823 -1.601984 1 6
20.893532 0.37928903 -1.4612586 3 8
18.872282 -0.57989728 -1.5413686 2 7
21.909653 1.4706016 -1.4073218 5 9
26.825224 -2.1394582 -1.5671955 5 10
30.10639 0.54653394 -1.4026341 5 12
31.33544 2.1032715 -1.2795113 8 13
5.6655474 0.084056251 -1.5861815 0 1
7.9185014 -0.26960179 -1.5846277 0 2
65.96418 -5.4812012 -0.77059323 30 18
9.8642378 0.14634965 -1.5348148 0 3
12.396737 -0.42207256 -1.5788579 1 4
13.945786 0.20690508 -1.5023575 2 5
17.066729 -1.4181359 -1.5986381 1 6
66.039909 -5.4874935 0.77147794 40 22
20.962502 0.3110078 -1.466002 3 8
18.886194 -0.64301962 -1.5426705 2 7
21.930344 1.3989549 -1.4083451 5 9
26.917469 -2.2366693 -1.5730095 5 10
30.171963 0.44764295 -1.4056122 5 12
30.077271 -1.024043 -1.5771966 6 11
31.374151 2.0013831 -1.2808139 8 13
37.007553 2.2245822 -0.64713526 10 17
5.6427064 0.063032262 -1.5797117 0 1
7.9017825 -0.29803142 -1.5814899 0 2
65.919739 -5.7208595 -0.7703138 60 18
9.872612 0.11028273 -1.5360447 0 3
12.395106 -0.46750605 -1.5788579 1 4
37.04451 2.2268035 0.21569176 11 21
13.946449 0.15578982 -1.5023575 2 5
17.132837 -1.4868772 -1.6053301 1 6
66.071167 -5.7340007 0.77208328 40 22
20.951529 0.23404057 -1.465165 3 8
18.931517 -0.71403974 -1.546576 2 7
37.053398 2.2273381 1.0803061 6 25
21.95923 1.3200039 -1.40988 5 9
26.95285 -2.3391092 -1.5755675 5 10
30.980473 0.3460696 -1.4432093 5 12
30.089285 -1.1348771 -1.5780339 6 11
31.500961 1.8935722 -1.2856989 8 13
5.6698556 0.043542229 -1.5872599 0 1
7.9163699 -0.32625797 -1.5846277 0 2
65.919281 -5.9527259 -0.77054662 60 18
9.8689852 0.075789869 -1.5354298 0 3
12.417187 -0.51175046 -1.5818884 1 4
37.024101 2.0958982 0.21552904 11 21
13.998609 0.10750373 -1.5079266 2 5
17.139442 -1.5477475 -1.6064453 1 6
21.040003 0.16157883 -1.4713036 3 8
18.928909 -0.78011864 -1.546576 2 7
37.040989 2.096854 1.0797243 6 25
22.031458 1.2471793 -1.4142293 5 9
26.956451 -2.4342554 -1.5762652 5 10
31.571222 1.7872159 -1.2883041 8 13
39.25869 2.084945 -0.68622863 12 17
5.6776767 0.023782745 -1.5894164 0 1
7.9112649 -0.35371411 -1.5838434 0 2
65.92997 -6.185781 -0.7709192 30 18
9.8810463 0.04138989 -1.5372744 0 3
12.415325 -0.55509144 -1.5818884 1 4
36.735611 1.9509495 0.2138087 10 21
13.967082 0.058505543 -1.5044994 2 5
17.17359 -1.6112864 -1.6101632 1 6
21.09231 0.088351816 -1.4749309 3 8
18.934036 -0.84654427 -1.5472269 2 7
22.023718 1.1696324 -1.4134617 5 9
27.047186 -2.5376618 -1.5820792 5 10
31.720947 1.6846316 -1.294166 8 13
39.261047 1.9614003 -0.68615884 12 17
5.6700196 0.0059376559 -1.5872599 0 1
7.9101143 -0.37856627 -1.5838434 0 2
65.92215 -6.394033 -0.7710588 30 18
9.8574133 0.010322704 -1.5335851 0 3
12.429373 -0.59485126 -1.5839087 1 4
105.32287 5.2617116 0.61290121 30 21
13.979128 0.014638971 -1.5057846 2 5
17.219975 -1.6702291 -1.6149963 1 6
21.136377 0.022134056 -1.4780002 3 8
18.975088 -0.90811944 -1.550807 2 7
22.146889 1.1064125 -1.4211366 5 9
27.217937 -2.6399684 -1.5925442 5 10
27.606642 1.3791704 -1.1261263 6 13
47.30106 -4.5879045 -1.6595409 20 14
27.598024 1.2821804 -0.48224491 5 17
5.6700058 -0.013854466 -1.5872599 0 1
7.9204965 -0.40677896 -1.5861968 0 2
65.931259 -6.627305 -0.77143139 30 18
9.8811035 -0.024144143 -1.5372744 0 3
12.427221 -0.63823432 -1.5839087 1 4
27.681675 1.2860668 0.16105977 5 21
13.979094 -0.034157444 -1.5057846 2 5
17.221966 -1.7311244 -1.6157398 1 6
21.1882 -0.05177265 -1.4816276 3 8
19.035507 -0.97762108 -1.5560143 2 7
27.714359 1.2875853 0.80743682 3 25
22.150616 1.0290985 -1.4211366 5 9
27.212528 -2.7353599 -1.5927768 5 10
27.603304 1.2824258 -1.1258007 6 13
5.6622128 -0.034588929 -1.5851032 0 1
7.918952 -0.4358063 -1.5861968 0 2
65.930397 -6.8713984 -0.77171069 30 18
9.873044 -0.060311753 -1.5360447 0 3
12.448571 -0.68508637 -1.5869391 1 4
27.614271 1.1815219 0.16064131 5 21
13.998759 -0.085514635 -1.5079266 2 5
17.199657 -1.792583 -1.6142526 1 6
21.203827 -0.12952843 -1.4827436 3 8
19.079563 -1.050012 -1.5599198 2 7
27.631012 1.1822382 0.80487692 3 25
22.198111 0.94978261 -1.4239508 5 9
27.210262 -2.8359084 -1.5932418 5 10
31.9722 1.3679831 -1.3037728 9 13
54.106007 2.1258307 -0.94515252 29 17
5.6620579 -0.054353505 -1.5851032 0 1
7.9291291 -0.46413353 -1.5885502 0 2
65.917938 -7.1027822 -0.77185041 30 18
9.9122963 -0.095154107 -1.5421938 0 3
12.438181 -0.72807199 -1.5859289 1 4
104.95725 4.1237812 0.61048347 30 21
14.085864 -0.13521871 -1.517351 2 5
17.209135 -1.8543168 -1.6157398 1 6
21.235167 -0.20384917 -1.4849757 3 8
19.123543 -1.1194012 -1.5638254 2 7
27.678917 1.0875075 0.80615693 3 25
22.26112 0.87464166 -1.4277883 5 9
27.327244 -2.9445622 -1.6006837 5 10
31.24468 -0.29993653 -1.4554936 6 12
30.477932 -1.7840332 -1.6000149 6 11
32.024704 1.2582538 -1.3057268 9 13
5.6734009 -0.073278509 -1.588338 0 1
7.9197168 -0.48994055 -1.5869812 0 2
65.961601 -7.3288431 -0.77264202 30 18
9.8803082 -0.12761557 -1.5372744 0 3
12.471342 -0.77151954 -1.5904746 1 4
14.025689 -0.18115793 -1.5109253 2 5
17.238516 -1.9153322 -1.6190857 1 6
21.278261 -0.27483326 -1.4880451 3 8
19.191349 -1.1872419 -1.5696836 2 7
22.283844 0.80153388 -1.4290675 5 9
27.388771 -3.0431039 -1.6048697 5 10
30.463875 -1.8845987 -1.5995963 6 11
5.6769619 -0.09314514 -1.5894164 0 1
7.9375286 -0.51886183 -1.5909036 0 2
66.027023 -7.5695262 -0.77371299 30 18
9.8916588 -0.16229805 -1.5391191 0 3
12.468574 -0.81504798 -1.5904746 1 4
14.056783 -0.23063761 -1.5143523 2 5
17.259422 -1.9786695 -1.6216881 1 6
66.042915 -7.5713477 0.77389926 41 22
21.317072 -0.34976128 -1.4908354 3 8
19.234825 -1.2573456 -1.573589 2 7
22.382259 0.72685331 -1.4352072 5 9
27.350212 -3.1355062 -1.6032418 5 10
31.357775 -0.51450479 -1.4608912 6 12
30.492987 -1.9932711 -1.6014805 6 11
5.6650295 -0.11371968 -1.5861815 0 1
7.9473128 -0.54876143 -1.5932571 0 2
78.780746 -9.3243151 -0.92355704 30 18
9.8909979 -0.19855168 -1.5391191 0 3
14.139344 -0.28383291 -1.5233486 2 5
17.346977 -2.0531499 -1.6306108 1 6
78.876068 -9.335597 0.92467463 62 22
21.355541 -0.42869067 -1.4936256 3 8
19.277817 -1.3311319 -1.5774945 2 7
22.400736 0.64527327 -1.4362307 5 9
27.398018 -3.2427688 -1.6067301 5 10
31.343695 -0.62919265 -1.4603328 6 12
30.541267 -2.1088724 -1.6044112 6 11
32.475582 0.93548822 -1.3236381 9 13
63.267628 -4.5794783 -1.8460853 41 15
5.6492176 -0.13214469 -1.5818683 0 1
7.933713 -0.57426316 -1.5909036 0 2
78.848648 -9.5975924 -0.92472112 30 18
9.9179449 -0.2319974 -1.5434237 0 3
12.46258 -0.90207446 -1.5904746 3 4
17.383564 -2.115957 -1.6347004 1 6
90.565376 -11.023772 1.0621325 53 22
21.425806 -0.5011856 -1.498648 3 8
19.30113 -1.3970668 -1.5797727 2 7
128.10631 -9.2726727 5.2328401 45 26
32.530441 0.8291139 -1.3257548 9 13
63.330158 -4.8174005 -1.8484126 40 15
5.6794991 -0.15368272 -1.5904946 0 1
7.9393778 -0.6039328 -1.5924727 0 2
91.175217 -11.437282 -1.069769 30 18
9.9170284 -0.26834688 -1.5434237 0 3
12.478972 -0.94925082 -1.5929999 3 4
14.133041 -0.38242885 -1.5229201 2 5
17.446821 -2.1885798 -1.6413925 1 6
21.459724 -0.58068305 -1.5011593 3 8
19.343582 -1.4714283 -1.5836782 2 7
27.683762 -3.4727309 -1.6248695 5 10
128.12726 -9.7463875 5.2351193 45 26
31.478334 -0.85177869 -1.4668472 6 12
32.653133 0.71249402 -1.3306396 9 13
5.6674376 -0.17117575 -1.5872599 0 1
7.9257107 -0.62794274 -1.5901192 0 2
91.222137 -11.734376 -1.0707469 30 18
9.924036 -0.29973939 -1.5446534 0 3
12.487794 -0.98939013 -1.5945152 1 4
65.968163 -5.2265635 -0.38460922 24 19
14.111894 -0.42622682 -1.5207782 2 5
17.435907 -2.242871 -1.6410205 1 6
90.710388 -11.668548 1.0647401 100 22
21.497679 -0.64930242 -1.5039496 3 8
19.370659 -1.5347097 -1.5862818 2 7
119.01202 -9.4291534 4.8638692 45 26
31.58733 -0.95404398 -1.4720587 6 12
5.6475573 -0.19030912 -1.5818683 0 1
7.9351969 -0.65657502 -1.5924727 0 2
85.649117 -11.321546 -1.0057896 30 18
9.9229298 -0.33437893 -1.5446534 0 3
12.511946 -1.035265 -1.5980506 1 4
17.451664 -2.3068516 -1.6432512 1 6
21.531172 -0.72554886 -1.5064608 3 8
19.412861 -1.6062613 -1.5901873 2 7
27.687834 -3.6599219 -1.6264974 5 10
117.2338 -9.7001734 4.7925501 45 26
31.695621 -1.0680664 -1.4772701 6 12
5.662219 -0.21158251 -1.5861815 0 1
7.936645 -0.68599236 -1.5932571 0 2
85.496071 -11.620306 -1.0044858 30 18
9.9176893 -0.37059844 -1.5440385 0 3
12.523882 -1.0824835 -1.6000711 1 4
65.952988 -5.700551 -0.38474873 49 19
14.211814 -0.53105885 -1.5319164 2 5
17.498341 -2.378309 -1.6484561 1 6
85.456436 -11.614919 1.0040202 58 22
21.588182 -0.80669469 -1.5106461 3 8
19.375069 -1.6746559 -1.5875838 2 7
27.824593 -3.7818146 -1.6353345 5 10
31.731426 -1.1857215 -1.4791315 6 12
47.066303 -6.3970761 -1.6587033 20 14
5.6576376 -0.23020136 -1.5851032 0 1
7.9304209 -0.7119568 -1.5924727 0 2
85.41745 -11.898239 -1.0040202 30 18
9.9519491 -0.40493089 -1.5495727 0 3
12.559744 -1.1275562 -1.6051217 1 4
65.949661 -5.9206581 -0.38484171 49 19
14.249712 -0.57980084 -1.5362002 2 5
17.51008 -2.4390697 -1.6503149 1 6
85.401604 -11.896032 1.0038339 58 22
21.589376 -0.87844151 -1.5109253 3 8
19.452797 -1.7463828 -1.5944183 2 7
27.93055 -3.8905909 -1.6423112 5 10
116.69749 -10.476565 4.773499 45 26
31.835114 -1.2953262 -1.4841567 6 12
46.565754 -6.4863853 -1.641812 19 14
5.6567559 -0.25093609 -1.5851032 0 1
7.9355679 -0.74174839 -1.5940415 0 2
84.316093 -12.060019 -0.99158746 30 18
9.9582939 -0.44175416 -1.5508025 0 3
12.555527 -1.1735823 -1.6051217 1 4
65.963364 -6.1656861 -0.38505095 49 19
14.235571 -0.63149601 -1.534915 2 5
17.524679 -2.5066147 -1.6525457 1 6
85.424744 -12.218592 1.0046256 58 22
21.637835 -0.95986348 -1.5145526 3 8
19.466112 -1.8195242 -1.5960456 2 7
27.943775 -3.9968934 -1.643939 5 10
114.43784 -10.696662 4.6826406 45 26
46.280487 -6.6196561 -1.6325985 19 14
5.6674347 -0.27024361 -1.588338 0 1
7.9525852 -0.76994967 -1.5979639 0 2
85.451035 -12.511657 -1.0054171 30 18
9.9409819 -0.47402167 -1.5483428 0 3
12.567364 -1.2167412 -1.607142 2 4
65.974396 -6.3874784 -0.38523692 49 19
14.181757 -0.67623699 -1.529346 2 5
