# .PCD v0.7 - Point Cloud Data file format
VERSION 0.7
FIELDS x y z intensity ring
SIZE 4 4 4 4 2
TYPE F F F F U
COUNT 1 1 1 1 1
WIDTH 1270
HEIGHT 1
VIEWPOINT 0 0 0 1 0 0 0
POINTS 1270
DATA ascii
-8.6538334 -5.1607676 0.058560845 11 21
-11.244077 -5.2934589 -0.072230466 6 19
-9.859314 -5.2444983 -1.2029141 1 5
-13.634116 -5.6223612 -1.3766876 2 6
-9.8183403 -5.222703 0.25877917 9 24
-13.008394 -5.3643293 0.16381332 6 22
-9.694911 -5.1570473 -0.76787925 11 8
-11.585722 -5.4542975 -1.0453708 3 7
-8.6915255 -5.1832452 0.29451257 13 25
-11.282356 -5.31148 0.2176664 7 23
-8.6054058 -5.1318874 -0.64213377 10 9
-12.865446 -5.3053813 -0.810458 6 10
-9.8854713 -5.2584124 0.65208733 10 27
-11.310884 -5.3249102 0.50932956 10 26
-9.7433348 -5.1828051 -0.51407588 10 12
-11.145733 -5.2471609 -0.64561641 7 11
-9.9686165 -5.3026404 1.3863858 7 29
-11.423406 -5.377883 1.0307252 8 28
-8.6468067 -5.1565771 -0.41016659 14 13
-12.957004 -5.3431373 -0.48943058 5 14
-32.3307 -17.197779 9.8123484 11 31
-36.806561 -17.327702 7.4172611 19 30
-9.7936268 -5.2095575 -0.25812781 11 16
-8.6990547 -5.1446099 -0.17640893 12 17
-11.255202 -5.2483907 -0.36142081 6 15
-5.3188457 -2.8043113 -1.6832286 1 1
-9.8613081 -5.1992817 0 8 20
-13.113141 -5.3513775 -0.16488431 4 18
-10.279017 -5.4195151 -1.8078347 0 3
-11.666121 -5.4400053 -1.6384566 2 4
-8.7381048 -5.1677036 0.059002552 11 21
-11.361281 -5.2978563 -0.072858155 6 19
-9.9734535 -5.2584095 -1.2144806 1 5
-13.835316 -5.6460919 -1.3949046 1 6
-9.9152374 -5.2277155 0.26082635 9 24
-13.150174 -5.3664904 0.16534995 6 22
-9.7878704 -5.1605625 -0.77373886 11 8
-11.594795 -5.4067454 -1.0443945 3 7
-8.7758532 -5.1900282 0.29672346 12 25
-11.403239 -5.3174214 0.21962108 7 23
-8.6825666 -5.1348591 -0.64648288 9 9
-13.0216 -5.3140202 -0.81906259 7 10
-9.9788551 -5.2612576 0.65697098 10 27
-11.4245 -5.3273358 0.5135631 8 26
-9.8364887 -5.1861963 -0.51798451 10 12
-11.248156 -5.2451048 -0.65043133 7 11
-10.061735 -5.304955 1.3966229 8 29
-11.529757 -5.3764176 1.0385362 7 28
-8.7172499 -5.1553702 -0.41260904 14 13
-13.106042 -5.3484807 -0.49431646 5 14
-32.489208 -17.129629 9.8413363 11 31
-37.197933 -17.345692 7.4832687 20 30
-9.8904762 -5.2146606 -0.26017499 10 16
-8.7756033 -5.1486158 -0.17759569 14 17
-11.364195 -5.2509947 -0.36432984 5 15
-5.3388448 -2.7910805 -1.6864636 1 1
-7.9045229 -3.6524019 -1.7415216 24 2
-9.9573841 -5.2055945 0 9 20
-13.26154 -5.3580098 -0.16651407 4 18
-10.262848 -5.3652868 -1.8016857 0 3
-11.69945 -5.4059043 -1.6404768 2 4
-8.8009415 -5.1634822 0.05930477 11 21
-11.477746 -5.303463 -0.073485844 5 19
-10.079862 -5.2696242 -1.2251903 1 5
-14.006342 -5.6589293 -1.4101475 1 6
-9.9972162 -5.226418 0.26250127 8 24
-13.298625 -5.372993 0.16697972 6 22
-9.8800869 -5.1651845 -0.77959836 11 8
-11.606361 -5.3628917 -1.0437436 1 7
-8.8387489 -5.1856632 0.29823616 11 25
-11.516129 -5.3211975 0.22143614 7 23
-8.7520838 -5.1348171 -0.65032029 9 9
-13.169658 -5.3208871 -0.82720202 4 10
-10.082094 -5.2707915 0.66255236 10 27
-11.551873 -5.3377142 0.518448 8 26
-9.921813 -5.1869984 -0.52152085 9 12
-11.364304 -5.2510448 -0.65608358 8 11
-10.157598 -5.3102641 1.4073473 7 29
-11.65341 -5.3846307 1.0479746 8 28
-8.7903481 -5.1572666 -0.4152143 14 13
-13.24324 -5.350616 -0.49878362 6 14
-32.761101 -17.127089 9.9055233 11 31
-37.579762 -17.364286 7.5478415 20 30
-9.9724092 -5.2134495 -0.26184991 10 16
-8.8617516 -5.1597352 -0.17899188 13 17
-11.483327 -5.2599049 -0.36758798 6 15
-5.3378115 -2.7680418 -1.6832286 1 1
-7.9094582 -3.6229045 -1.7399528 28 2
-10.052711 -5.2130594 0 9 20
-13.40549 -5.3645306 -0.16809724 4 18
-10.273565 -5.3275881 -1.8004559 0 3
-11.749778 -5.3819518 -1.6450225 2 4
-8.8698654 -5.1644592 0.059653491 11 21
-11.597093 -5.3120146 -0.074136779 6 19
-10.192603 -5.285603 -1.2367568 1 5
-14.095284 -5.6405683 -1.4172113 1 6
-10.103242 -5.2392626 0.26482761 9 24
-13.446339 -5.380877 0.16860947 4 22
-9.9573784 -5.1636219 -0.78434181 11 8
-11.678448 -5.3492794 -1.0486253 1 7
-8.921545 -5.19455 0.30044702 12 25
-11.635519 -5.3296161 0.2233908 5 23
-8.8242569 -5.1379042 -0.65441358 9 9
-13.291037 -5.3187294 -0.83371365 2 10
-10.163324 -5.2704201 0.66673833 9 27
-11.656714 -5.3393245 0.52235585 7 26
-10.024088 -5.198216 -0.52598786 9 12
-11.476076 -5.2565837 -0.66152656 8 11
-10.24564 -5.3131065 1.4170969 7 29
-11.769064 -5.3907857 1.0567619 8 28
-8.8661165 -5.1622767 -0.4179824 13 13
-13.401943 -5.3631115 -0.50408834 6 14
-33.0681 -17.148205 9.9810982 12 31
-37.973431 -17.39362 7.6152844 21 30
-10.067741 -5.2208533 -0.26389706 10 16
-8.9290934 -5.1552138 -0.17996921 11 17
-11.604483 -5.2640262 -0.37084612 5 15
-5.3307915 -2.7396543 -1.6778371 1 1
-7.9119682 -3.5890276 -1.7375994 27 2
-10.142905 -5.2127442 0 8 20
-13.56266 -5.3698354 -0.16982013 4 18
-10.278962 -5.2826676 -1.7979962 0 3
-11.863379 -5.3814669 -1.6581544 4 4
-8.9614801 -5.173912 0.060141686 12 21
-11.711196 -5.3124332 -0.074741215 5 19
-10.279116 -5.2827468 -1.2448962 1 5
-14.082538 -5.5756693 -1.4138653 1 6
-10.193511 -5.2387519 0.26668864 8 24
-13.599849 -5.3845596 0.17028578 6 22
-10.064963 -5.1726875 -0.79131746 10 8
-11.785113 -5.345964 -1.0564364 1 7
-9.0063152 -5.1997976 0.3026579 11 25
-11.760599 -5.3348436 0.22541527 5 23
-8.9121704 -5.145443 -0.65953016 9 9
-33.994534 -13.459385 -2.1292837 9 10
-10.274918 -5.2805891 0.67278481 10 27
-11.789039 -5.3477445 0.52740359 8 26
-10.11415 -5.1979661 -0.52971035 9 12
-11.597124 -5.2606878 -0.6673882 6 11
-10.353325 -5.3208852 1.4292837 7 29
-11.908556 -5.4019599 1.067502 6 28
-8.94382 -5.1637158 -0.4207505 12 13
-13.544168 -5.362514 -0.50869507 6 14
-33.385025 -17.15757 10.057708 12 31
-38.384544 -17.411999 7.6848793 21 30
-10.165057 -5.2241287 -0.26594421 9 16
-9.0025625 -5.1558175 -0.18108617 13 17
-11.721254 -5.2677422 -0.37398791 5 15
-5.3368897 -2.7192819 -1.6767588 0 1
-7.9387579 -3.5678205 -1.7407372 12 2
-10.250139 -5.2227082 0 8 20
-13.726556 -5.3793807 -0.17163613 4 18
-10.255078 -5.225225 -1.7906173 0 3
-9.0384922 -5.1763945 0.060536899 11 21
-11.839119 -5.320713 -0.075438648 5 19
-10.371905 -5.2847514 -1.2538923 1 5
-14.098205 -5.5250287 -1.4134935 1 6
-10.286558 -5.2412648 0.26864275 8 24
-13.76752 -5.3954349 0.17214835 4 22
-10.157619 -5.1755667 -0.79717696 7 8
-12.418251 -5.5809851 -1.1114388 1 7
-9.0764551 -5.1981363 0.30440336 11 25
-11.877643 -5.338026 0.22730014 5 23
-8.9854994 -5.1460457 -0.66362351 9 9
-34.063614 -13.349391 -2.1306791 9 10
-10.353772 -5.2755117 0.67673826 9 27
-11.89877 -5.3475213 0.53147429 8 26
-10.203435 -5.1989117 -0.53343284 9 12
-11.717433 -5.2660251 -0.67324978 6 11
-10.442582 -5.3207631 1.4390334 7 29
-12.025521 -5.4044852 1.0762893 8 28
-9.0276852 -5.1702056 -0.42384425 13 13
-13.700515 -5.3691754 -0.51386023 6 14
-33.709793 -17.176003 10.137425 12 31
-38.786076 -17.43116 7.7530398 22 30
-10.261617 -5.2285566 -0.26799139 9 16
-9.0935307 -5.1658463 -0.18255216 12 17
-11.845497 -5.2739568 -0.37736243 6 15
-5.3429108 -2.6988993 -1.6756804 0 1
-10.332573 -5.2193594 0 8 20
-13.886953 -5.3863959 -0.17340559 4 18
-10.276783 -5.1911778 -1.7912322 0 3
-12.103655 -5.3888965 -1.6864384 2 4
-9.1225853 -5.1823516 0.060978603 12 21
-11.959935 -5.3249083 -0.076089583 5 19
-10.482585 -5.295136 -1.2650304 1 5
-14.11369 -5.4743419 -1.4131217 1 6
-10.383318 -5.2449927 0.2706899 7 24
-13.920515 -5.3994141 0.17382467 7 22
-10.257541 -5.181458 -0.80359459 9 8
-9.1605978 -5.2039456 0.30661425 12 25
-12.01312 -5.3485875 0.22953404 4 23
-9.0658827 -5.1501403 -0.66822845 9 9
-34.143513 -13.243401 -2.132772 9 10
-10.457668 -5.2825499 0.68231964 9 27
-12.026897 -5.3547215 0.53635919 7 26
-10.307116 -5.2065005 -0.53789979 8 12
-11.83427 -5.2689586 -0.67890209 6 11
-10.556772 -5.3326111 1.4521952 7 29
-12.153574 -5.4111218 1.086053 6 28
-9.1082277 -5.1741953 -0.42677516 12 13
-13.864527 -5.3776975 -0.51930451 6 14
-34.048882 -17.199333 10.221282 12 31
-39.206169 -17.455719 7.8247871 22 30
-10.354762 -5.2305684 -0.26994547 8 16
-9.1654539 -5.1686845 -0.18366912 11 17
-11.968081 -5.283545 -0.38073692 5 15
-5.3616943 -2.6872785 -1.6789154 1 1
-7.9407163 -3.5055857 -1.7360303 0 2
-10.438319 -5.2316799 0 8 20
-14.034482 -5.3929563 -0.17503533 4 18
-10.275373 -5.150012 -1.7881577 0 3
-12.222164 -5.3957152 -1.7005805 2 4
-9.2085047 -5.1929626 0.061443556 12 21
-12.093699 -5.3390017 -0.076833501 5 19
-10.573833 -5.2995992 -1.2740266 1 5
-19.874603 -7.6371088 -1.987516 2 6
-10.485545 -5.2553496 0.27292317 8 24
-14.083018 -5.4116068 0.17564067 7 22
-10.345114 -5.1849656 -0.80917507 9 8
-12.549817 -5.5403643 -1.1199007 3 7
-9.2500391 -5.2163849 0.30905783 11 25
-12.12865 -5.3544312 0.23141891 6 23
-9.1480827 -5.1588883 -0.67308921 8 9
-34.296776 -13.17904 -2.1397486 9 10
-10.56346 -5.2944007 0.68813348 8 27
-12.160661 -5.3685632 0.54156971 7 26
-10.398437 -5.2116909 -0.54180843 8 12
-11.967701 -5.2833772 -0.68560106 7 11
-10.640911 -5.3332191 1.4614573 6 29
-12.276281 -5.4196062 1.0954914 6 28
-9.1801395 -5.1769662 -0.42938045 12 13
-14.038078 -5.3943377 -0.52516764 6 14
-34.375626 -17.229046 10.303069 12 31
-39.646011 -17.502514 7.901557 22 30
-10.44622 -5.23564 -0.27189958 8 16
-9.2576447 -5.176044 -0.18513513 12 17
-12.100939 -5.2892857 -0.38434416 5 15
-5.3646083 -2.6641822 -1.6767588 1 1
-7.9642935 -3.4811702 -1.7383838 0 2
-10.536241 -5.2325282 0 8 20
-14.19249 -5.3940573 -0.17675821 4 18
-10.272941 -5.1017675 -1.7844683 0 3
-13.488952 -5.8959827 -1.8738205 2 4
-9.2763538 -5.1865048 0.061769024 11 21
-12.212146 -5.3378944 -0.077461191 7 19
-10.671548 -5.2997251 -1.2834511 1 5
-19.828003 -7.5359139 -1.9800806 2 6
-10.590694 -5.2595716 0.27515644 7 24
-14.226138 -5.4068456 0.1771773 4 22
-10.44982 -5.1896095 -0.81587172 7 8
-12.321634 -5.3857512 -1.0977695 1 7
-9.3179531 -5.2097631 0.31068692 12 25
-12.261797 -5.3595967 0.23358302 3 23
-9.2191925 -5.1545448 -0.67692667 8 9
-34.501621 -13.112831 -2.1495159 9 10
-10.665053 -5.2964993 0.69348228 8 27
-12.282796 -5.3687754 0.54612893 7 26
-10.503356 -5.216197 -0.54627544 8 12
-12.093131 -5.2858729 -0.69167209 6 11
-10.756394 -5.3418612 1.4746192 6 29
-12.398347 -5.4192824 1.1046041 6 28
-9.2653332 -5.1803427 -0.4324742 12 13
-14.188542 -5.3925567 -0.53005356 6 14
-34.708458 -17.236982 10.383821 13 31
-40.045231 -17.503656 7.9682827 23 30
-10.554878 -5.2417841 -0.27422589 7 16
-9.3342113 -5.178298 -0.1863219 12 17
-12.221141 -5.2936258 -0.38760227 5 15
-5.3768692 -2.6480796 -1.6778371 1 1
-7.9649968 -3.4500637 -1.7360303 0 2
-10.636068 -5.2382073 0 8 20
-45.554565 -17.140989 -0.56664139 11 18
-10.264982 -5.0554495 -1.7801639 0 3
-13.482942 -5.840179 -1.8702849 2 4
-9.3634577 -5.1945229 0.062233973 12 21
-12.336221 -5.3434734 -0.078135371 6 19
-10.753284 -5.2959356 -1.2911621 1 5
-19.785789 -7.4448738 -1.9733886 2 6
-10.69059 -5.265059 0.27729666 7 24
-45.678101 -17.187471 0.568178 17 22
-10.545725 -5.1937137 -0.82201028 7 8
-12.449175 -5.3923998 -1.1075332 1 7
-9.4155931 -5.2234464 0.31336322 12 25
-12.418958 -5.3793111 0.23623577 7 23
-9.3095379 -5.1646104 -0.68229908 8 9
-34.761688 -13.079912 -2.1630044 9 10
-10.772118 -5.3052111 0.69929624 6 27
-12.425225 -5.3820257 0.55166513 6 26
-10.599456 -5.2201762 -0.55037016 7 12
-12.224222 -5.2949605 -0.69816172 6 11
-10.852407 -5.3447528 1.4853437 6 29
-12.544291 -5.4335999 1.1159952 6 28
-9.3488646 -5.1864271 -0.43556795 10 13
-14.2924 -5.3778558 -0.53326434 2 14
-35.049656 -17.26177 10.468713 13 31
-40.456924 -17.524046 8.0385952 23 30
-10.647539 -5.2438569 -0.27618 7 16
-9.4117966 -5.1784606 -0.18750866 12 17
-12.349776 -5.2982273 -0.39109313 5 15
-5.3860793 -2.6292956 -1.6778371 1 1
-7.9697814 -3.4191482 -1.7344615 0 2
-10.747746 -5.2466736 0 7 20
-46.757378 -17.407507 -0.58084351 11 18
-10.279013 -5.0178547 -1.7795489 0 3
-13.466777 -5.7774367 -1.8652343 2 4
-9.4446125 -5.196516 0.062652439 11 21
-12.476102 -5.3524232 -0.078902543 6 19
-10.853904 -5.2984962 -1.301015 1 5
-19.737005 -7.3479748 -1.965953 2 6
-10.791554 -5.2680597 0.27943686 8 24
-46.802357 -17.424252 0.5814023 18 22
-10.660605 -5.2041349 -0.82954395 9 8
-12.51555 -5.3693466 -1.1117642 1 7
-9.4898176 -5.2213888 0.31522503 11 25
-12.518517 -5.3706198 0.23777159 3 23
-9.393959 -5.1686459 -0.68715984 7 9
-34.960564 -13.015619 -2.172539 9 10
-10.873105 -5.3078699 0.70464498 9 27
-12.554122 -5.3858948 0.55655003 6 26
-10.707378 -5.2269678 -0.55502325 7 12
-12.345415 -5.2963567 -0.70402336 4 11
-10.967325 -5.3538651 1.4985056 6 29
-12.687749 -5.4432225 1.1270608 7 28
-9.4299402 -5.1884432 -0.43849885 11 13
-45.94907 -17.106579 -1.7121693 21 14
-35.404819 -17.283396 10.556711 14 31
-40.893948 -17.544079 8.1132126 24 30
-10.766398 -5.2557793 -0.27878547 9 16
-9.504447 -5.184145 -0.18897465 12 17
-12.48688 -5.302938 -0.39481673 3 15
-5.3852782 -2.6045046 -1.6746023 1 1
-7.9967017 -3.3960454 -1.7375994 0 2
-10.849728 -5.2472997 0 9 20
-46.858402 -17.249821 -0.58130914 22 18
-10.283106 -4.9732614 -1.7770892 0 3
-13.462298 -5.7171793 -1.8616987 2 4
-9.5373383 -5.202085 0.063140631 12 21
-12.609771 -5.3551273 -0.079623222 5 19
-10.948438 -5.2950387 -1.3100111 1 5
-19.681581 -7.2453122 -1.957774 2 6
-10.897191 -5.2702546 0.28167012 8 24
-46.903442 -17.266401 0.58186793 18 22
-10.755047 -5.2015085 -0.83540356 7 8
-13.863521 -5.8875709 -1.22958 1 7
-9.5826044 -5.2267752 0.31766862 12 25
-12.659599 -5.3762884 0.24007531 5 23
-9.4759207 -5.1685848 -0.69176483 8 9
-35.217892 -12.964641 -2.1855624 9 10
-10.98955 -5.3149219 0.71092403 7 27
-12.68782 -5.3882732 0.5615977 5 26
-10.802005 -5.2242193 -0.55893189 7 12
-12.475046 -5.2979126 -0.71030366 4 11
-11.065508 -5.3516579 1.5092301 6 29
-12.828711 -5.4481068 1.1378008 6 28
-9.5190678 -5.1921196 -0.44175544 10 13
-46.566681 -17.142429 -1.7328299 22 14
-35.7775 -17.303223 10.648851 14 31
-41.374516 -17.570961 8.1957216 24 30
-10.864792 -5.2545848 -0.28083265 8 16
-9.585803 -5.1851892 -0.19023123 10 17
-12.623253 -5.3089228 -0.39854032 3 15
-5.3978086 -2.5873566 -1.6756804 1 1
-8.0012751 -3.3650715 -1.7360303 0 2
-10.958152 -5.2526212 0 7 20
-47.320461 -17.232605 -0.58629155 12 18
-10.275452 -4.9253798 -1.7727849 0 3
-13.460225 -5.6609254 -1.8586683 2 4
-9.6258011 -5.2068253 0.063605584 11 21
-12.750059 -5.3622532 -0.080390394 5 19
-11.060096 -5.3014865 -1.3211492 1 5
-19.658102 -7.1588545 -1.9529409 2 6
-11.012883 -5.2788563 0.28418252 8 24
-47.421936 -17.269558 0.58754879 18 22
-10.866691 -5.2087808 -0.84265822 7 8
-13.850911 -5.8252354 -1.226651 1 7
-9.6711264 -5.2313428 0.31999588 11 25
-12.825751 -5.3940868 0.24286768 6 23
-9.571146 -5.1772609 -0.69739306 7 9
-35.428024 -12.901758 -2.1957946 9 10
-11.101658 -5.3214087 0.71697044 9 27
-12.846545 -5.4028325 0.5677852 5 26
-10.924664 -5.2365694 -0.56432945 7 12
-12.622336 -5.3085375 -0.71763068 4 11
-11.184363 -5.3610525 1.5228794 7 29
-12.965246 -5.452754 1.1482155 6 28
-9.6004095 -5.1930904 -0.44468638 9 13
-47.163376 -17.175398 -1.7527924 23 14
-36.158215 -17.331884 10.744097 15 31
-42.908306 -18.045816 8.4870167 26 30
-10.980429 -5.2632995 -0.28334504 8 16
-9.6778555 -5.1913977 -0.19169722 11 17
-12.770893 -5.3186283 -0.40261301 3 15
-5.4068074 -2.5684986 -1.6756804 1 1
-8.0093517 -3.3356135 -1.7352459 0 2
-11.073972 -5.2606797 0 7 20
-10.281872 -4.8843927 -1.7709402 0 3
-13.428621 -5.5925493 -1.8515973 2 4
-9.7108898 -5.2091184 0.064047292 11 21
-12.897938 -5.3715382 -0.081204064 5 19
-11.258147 -5.3481717 -1.3425686 3 5
-19.626766 -7.0699449 -1.9473643 2 6
-11.117932 -5.2815628 0.28641579 7 24
-48.795231 -17.576994 0.60379976 20 22
-10.971308 -5.2119088 -0.8493548 7 8
-23.830133 -9.9244127 -2.1073401 4 7
-9.7562714 -5.2334619 0.32220674 10 25
-12.944188 -5.3907995 0.24475256 4 23
-9.6524782 -5.1777849 -0.70199805 7 9
-35.698261 -12.859211 -2.2097483 9 10
-11.199518 -5.3203201 0.72208673 7 27
-12.979702 -5.4055901 0.57283288 5 26
-11.022278 -5.2361221 -0.56842422 7 12
-12.751416 -5.3105168 -0.72391105 4 11
-11.285489 -5.3611608 1.5340914 7 29
-13.113013 -5.4611092 1.1596066 4 28
-9.6994829 -5.2029996 -0.44843146 10 13
-47.76086 -17.204395 -1.7727548 24 14
-36.497688 -17.33819 10.826919 16 31
-42.832996 -17.838438 8.459753 26 30
-11.074588 -5.260972 -0.28529915 8 16
-9.7630081 -5.1932678 -0.19302362 10 17
-12.915059 -5.3258386 -0.4065693 3 15
-5.4052863 -2.5446863 -1.6724457 1 1
-8.0100698 -3.3031471 -1.7328925 0 2
-11.179127 -5.2628789 0 6 20
-48.82238 -17.394463 -0.60338062 29 18
-10.280981 -4.8400526 -1.7678658 0 3
-13.451732 -5.5471487 -1.8521023 2 4
-9.803175 -5.2146339 0.064535491 12 21
-13.034943 -5.3752756 -0.08194799 5 19
-11.427874 -5.3799834 -1.360561 3 5
-19.621315 -6.9906921 -1.9443899 2 6
-11.23399 -5.2887077 0.28892821 7 24
-48.875134 -17.413258 0.60403258 20 22
-11.083302 -5.2177668 -0.85660952 6 8
-23.731949 -9.7864466 -2.0956235 4 7
-9.8556709 -5.2425585 0.32488307 10 25
-13.09973 -5.4019923 0.24733551 4 23
-9.7374554 -5.1796751 -0.70685881 7 9
-35.859543 -12.776056 -2.2169571 9 10
-11.315571 -5.3271141 0.72836572 7 27
-13.116729 -5.4090023 0.57804346 3 26
-11.141712 -5.245265 -0.5736357 6 12
-12.895433 -5.3177457 -0.73102868 4 11
-11.41549 -5.3741536 1.5492033 7 29
-13.264683 -5.4700146 1.1713231 4 28
-9.7846298 -5.2047696 -0.45152521 9 13
-48.261223 -17.194532 -1.7890879 25 14
-42.91684 -17.697803 8.4640579 26 30
-11.190573 -5.2682676 -0.28781158 8 16
-9.8438435 -5.1944628 -0.19428019 10 17
-13.04369 -5.3283443 -0.41006017 4 15
-5.4136949 -2.5267489 -1.6724457 1 1
-8.0209789 -3.2765679 -1.7328925 0 2
-11.294381 -5.2714581 0 7 20
-49.068398 -17.298971 -0.60570884 15 18
-13.444339 -5.4920092 -1.8485668 2 4
-9.8947029 -5.2213006 0.065023698 11 21
-13.174891 -5.3819394 -0.082715161 3 19
-11.44565 -5.3420606 -1.360561 3 5
-19.4979 -6.8739481 -1.9298909 2 6
-11.331184 -5.2886357 0.29097536 7 24
-49.324905 -17.389402 0.60887522 20 22
-23.683077 -9.674531 -2.0884635 4 7
-9.9366522 -5.2434368 0.32697761 9 25
-13.232345 -5.4054098 0.2494996 4 23
-9.8322468 -5.188343 -0.71248704 7 9
-35.747303 -12.602644 -2.2074225 9 10
-11.438109 -5.3385406 0.73510987 6 27
-13.271489 -5.4214005 0.58406812 3 26
-11.238699 -5.2454696 -0.57773042 6 12
-13.038725 -5.3263164 -0.73814642 7 11
-11.519589 -5.3765702 1.5609027 7 29
-13.415612 -5.4802747 1.1830395 4 28
-9.87253 -5.2096 -0.4547818 10 13
-48.909874 -17.243084 -1.8110046 27 14
-36.730396 -17.143282 10.861082 32 31
-43.321362 -17.696766 8.532218 27 30
-11.294948 -5.2717228 -0.29004484 7 16
-9.9495964 -5.2081594 -0.19602543 10 17
-13.194716 -5.3390508 -0.41424921 4 15
-5.4115562 -2.5039296 -1.6692107 2 1
-8.0245275 -3.2470088 -1.7313235 0 2
-11.398926 -5.2742882 0 6 20
-49.616444 -17.307413 -0.61176223 16 18
-10.28057 -4.7568245 -1.7623315 17 3
-13.436728 -5.4369774 -1.8450314 2 4
-9.9792957 -5.2237053 0.065465406 11 21
-13.333565 -5.3952336 -0.083598576 3 19
-11.492178 -5.3174362 -1.3639882 1 5
-19.370167 -6.7567821 -1.9150196 2 6
-11.461168 -5.3030877 0.29385999 7 24
-49.64666 -17.317953 0.61213475 21 22
-11.675355 -5.4021921 -0.89957952 1 8
-14.10632 -5.7079177 -1.2422729 2 7
-10.031917 -5.2512503 0.32953757 9 25
-13.387368 -5.4170046 0.25208256 3 23
-9.923666 -5.1945858 -0.71785951 7 9
-35.600376 -12.418271 -2.1957946 9 10
-11.557224 -5.3475332 0.74162138 7 27
-13.426474 -5.4328279 0.59009278 3 26
-11.361195 -5.2568302 -0.58312804 7 12
-13.174807 -5.3309941 -0.74484539 7 11
-11.652658 -5.3916903 1.576502 6 29
-13.566754 -5.4895906 1.194756 4 28
-9.9641094 -5.2157564 -0.4582012 9 13
-49.653748 -17.320427 -1.8364116 28 14
-36.885231 -17.066813 10.89007 16 31
-43.999935 -17.803934 8.6541891 28 30
-11.417616 -5.2829366 -0.29274336 7 16
-10.038711 -5.210247 -0.19742163 10 17
-13.34318 -5.3450003 -0.41832191 4 15
-5.4062572 -2.4786043 -1.6648974 1 1
-8.024889 -3.2146039 -1.7289701 0 2
-11.526347 -5.2844791 0 6 20
-50.814682 -17.526678 -0.62577814 18 18
-10.304296 -4.724206 -1.7635612 16 3
-13.437208 -5.3826666 -1.8425061 2 4
-10.072022 -5.2275362 0.065953605 5 21
-13.478561 -5.3992314 -0.084388994 3 19
-11.56685 -5.3030481 0.29609326 7 24
-51.748619 -17.848804 0.63727951 23 22
-11.770311 -5.3963294 -0.90543902 1 8
-14.100252 -5.6482682 -1.2399946 2 7
-10.117613 -5.2511983 0.33174846 9 25
-13.547276 -5.4267569 0.25473532 3 23
-10.016141 -5.1985331 -0.72323191 6 9
-35.549133 -12.261381 -2.189981 9 10
-11.662937 -5.3471012 0.74720275 6 27
-13.5715 -5.4364605 0.59562898 3 26
-11.477542 -5.2621031 -0.58815342 6 12
-13.319409 -5.3354783 -0.75196314 5 11
-11.76524 -5.3940039 1.5891764 6 29
-13.711662 -5.4926071 1.2058216 4 28
-10.056748 -5.2196093 -0.4616206 9 13
-50.186291 -17.309937 -1.8538613 29 14
-37.01482 -16.970167 10.910776 16 31
-44.485558 -17.81999 8.7374163 28 30
-11.534134 -5.2880492 -0.29525578 7 16
-10.135074 -5.2154303 -0.19895743 10 17
-13.49556 -5.3514457 -0.42251092 4 15
-5.4148769 -2.4597166 -1.6648974 1 1
-8.0287704 -3.1836789 -1.7274013 0 2
-11.63213 -5.2839136 0 6 20
-51.787895 -17.660301 -0.63700008 40 18
-10.317126 -4.6865711 -1.7629464 13 3
-13.430097 -5.3254876 -1.8389705 2 4
-10.186239 -5.2417593 0.066581286 4 21
-13.631185 -5.4052258 -0.08522591 4 19
-19.413097 -6.6201019 -1.9146479 18 6
-11.698158 -5.3139071 0.29897788 6 24
-11.854472 -5.384913 -0.91046154 1 8
-14.112472 -5.5960722 -1.2393438 2 7
-10.228317 -5.2634125 0.33477387 10 25
-13.703694 -5.4339781 0.25731829 3 23
-10.101666 -5.1982393 -0.72809273 6 9
-35.213768 -12.008323 -2.1667252 9 10
-11.80151 -5.3608546 0.75487709 6 27
-13.731573 -5.4450331 0.60181648 3 26
-11.594064 -5.2666221 -0.59317875 5 12
-13.48277 -5.346374 -0.76012754 5 11
-11.888824 -5.4005179 1.6033133 4 29
-13.871582 -5.5005512 1.218189 4 28
-10.156645 -5.2265306 -0.46536565 9 13
-50.908546 -17.360434 -1.878291 31 14
-37.203991 -16.899973 10.949081 16 31
-45.023037 -17.853157 8.8306875 29 30
-11.658109 -5.2957149 -0.29795429 6 16
-10.232503 -5.2182231 -0.20049325 10 17
-13.660244 -5.3588963 -0.42704904 4 15
-5.4133167 -2.4351141 -1.6616627 1 1
-8.0330811 -3.1513672 -1.7258322 0 2
-11.771798 -5.2953992 0 7 20
-51.871227 -17.47677 -0.6372329 40 18
-13.423665 -5.2660866 -1.8354349 2 4
-10.269522 -5.2371016 0.066999748 12 21
-13.788677 -5.4092803 -0.086086072 4 19
-12.208236 -5.491725 -1.4419547 12 5
-19.391939 -6.5336504 -1.9101865 9 6
-11.826963 -5.3202143 0.30176947 6 24
-51.90913 -17.48954 0.63769859 23 22
-11.943269 -5.3725328 -0.91576296 1 8
-14.114329 -5.5370331 -1.2377164 2 7
-10.3259 -5.2658529 0.33733383 8 25
-13.861274 -5.4377599 0.25990126 3 23
-10.205996 -5.2047057 -0.7342326 6 9
-34.879116 -11.751684 -2.1434696 9 10
-11.912122 -5.3585219 0.76069099 7 27
-13.896541 -5.4515948 0.60816681 3 26
-11.704389 -5.2650752 -0.5978319 6 12
-13.639861 -5.3508997 -0.76787323 5 11
-12.009917 -5.402514 1.6169626 8 29
-14.047524 -5.5108252 1.2318581 4 28
-10.24338 -5.2237701 -0.46845943 8 13
-51.44537 -17.333288 -1.8957407 32 14
-40.521496 -18.228098 11.905677 23 31
-45.575386 -17.879164 8.9261122 29 30
-11.764965 -5.292325 -0.30018756 6 16
-10.324697 -5.2221689 -0.20195925 10 17
-13.819565 -5.3685851 -0.43147081 4 15
-5.4213624 -2.4171493 -1.6616627 1 1
-8.0471439 -3.1261315 -1.7266169 0 2
-11.876974 -5.2954254 0 7 20
-52.369068 -17.451342 -0.64263439 21 18
-10.353203 -4.6160421 -1.7635612 0 3
-13.385575 -5.1999898 -1.8278589 2 4
-10.35465 -5.237319 0.067441449 9 21
-13.959408 -5.4229107 -0.087039225 4 19
-12.211853 -5.4447327 -1.4402412 20 5
-11.943155 -5.3249326 0.30428189 6 24
-52.604332 -17.529741 0.6455214 24 22
-12.052131 -5.3735199 -0.92273861 1 8
-14.128898 -5.4887538 -1.237391 2 7
-10.414664 -5.2676744 0.33966109 8 25
-14.017165 -5.4453483 0.26248419 3 23
-10.294441 -5.2068663 -0.73934919 6 9
-34.728477 -11.572834 -2.1318419 9 10
-12.042889 -5.3693991 0.76790023 7 27
-14.052385 -5.4590302 0.61419147 3 26
-11.834915 -5.2766728 -0.60360175 5 12
-13.791574 -5.3577113 -0.77540964 5 11
-12.125672 -5.4063087 1.6301244 7 29
-14.18464 -5.5104084 1.2422729 5 28
-10.342675 -5.2312627 -0.47220451 8 13
-52.16626 -17.383757 -1.9201704 34 14
-40.497032 -18.055861 11.88083 23 31
-46.144287 -17.926001 9.0258417 30 30
-11.899326 -5.3053913 -0.30316526 6 16
-10.42509 -5.2273273 -0.20356487 10 17
-13.972573 -5.3719659 -0.43565986 4 15
-5.4262433 -2.3966539 -1.6605843 2 1
-8.0250578 -3.0853543 -1.7195566 0 2
-12.008815 -5.3040328 0 7 20
-53.181866 -17.516176 -0.6518541 22 18
-10.358406 -4.5750833 -1.7617166 0 3
-13.366609 -5.1389942 -1.8228081 2 4
-10.469411 -5.2495503 0.068069138 9 21
-14.127593 -5.4315658 -0.087969132 4 19
-12.241696 -5.4068918 -1.4415264 16 5
-19.398138 -6.3890424 -1.9064689 2 6
-12.071409 -5.3316793 0.30707347 5 24
-53.519974 -17.627537 0.65599835 25 22
-12.187616 -5.3830056 -0.93166751 1 8
-14.140529 -5.4365392 -1.2367401 2 7
-10.522343 -5.2760916 0.34257016 8 25
-14.170476 -5.4480529 0.26499733 3 23
-10.398194 -5.2138414 -0.74548912 9 9
-34.579021 -11.389074 -2.120214 9 10
-12.160184 -5.3708892 0.77417928 6 27
-14.194462 -5.4572744 0.61956483 3 26
-11.962913 -5.2837591 -0.60918552 6 12
-13.948146 -5.3625751 -0.78315532 5 11
-12.267948 -5.4184866 1.6466987 5 29
-46.194874 -17.760315 4.0402346 12 28
-10.450191 -5.239913 -0.47627524 8 13
-52.724018 -17.365377 -1.9384577 35 14
-40.549206 -17.909704 11.877724 23 31
-46.709785 -17.958281 9.124136 30 30
-12.023855 -5.3106756 -0.30586377 6 16
-10.514902 -5.2265081 -0.20496106 10 17
-14.136982 -5.3786097 -0.44019797 4 15
-5.434576 -2.3776984 -1.6605843 1 1
-8.0027847 -3.0447698 -1.7124963 0 2
-12.13353 -5.3085785 0 7 20
-53.866432 -17.533459 -0.6594907 23 18
-10.381555 -4.5420666 -1.7629464 0 3
-13.391882 -5.0951262 -1.8238182 2 4
-10.566471 -5.252141 0.068580583 9 21
-14.254883 -5.4234667 -0.088643312 2 19
-19.371088 -6.3052659 -1.9016358 2 6
-12.188865 -5.332788 0.30958587 6 24
-55.482838 -18.059597 0.67928052 28 22
-12.316004 -5.388413 -0.94003826 1 8
-23.292246 -8.8618555 -2.0344374 4 7
-10.623046 -5.280262 0.34524646 5 25
-14.327713 -5.4511757 0.2675803 1 23
-10.494972 -5.2166018 -0.75111741 7 9
-34.428707 -11.206504 -2.1085861 9 10
-12.295927 -5.3796291 0.78162104 5 27
-45.214005 -17.202291 1.970884 10 26
-12.080121 -5.2852111 -0.61421084 6 12
-14.116117 -5.3706713 -0.79152906 6 11
-12.392268 -5.4217801 1.6608355 5 29
-46.245411 -17.594704 4.039258 12 28
-10.543575 -5.2407608 -0.47969463 8 13
-53.422928 -17.389099 -1.9619101 36 14
-47.257675 -17.979834 9.2188425 30 30
-12.133911 -5.3087454 -0.30819011 6 16
-10.633533 -5.2392659 -0.20691574 10 17
-14.260444 -5.3686728 -0.44345608 2 15
-5.4569798 -2.3648398 -1.6648974 1 1
-8.0133638 -3.0168157 -1.7124963 0 2
-12.258422 -5.3123164 0 6 20
-55.606464 -17.88541 -0.68002558 27 18
-10.364707 -4.4916553 -1.7574122 0 3
-13.394732 -5.0427556 -1.821798 2 4
-10.670855 -5.2576542 0.069138534 9 21
-45.662453 -17.190683 -0.28357491 12 19
-12.596616 -5.4588761 -1.4787961 4 5
-19.343691 -6.2217565 -1.8968027 2 6
-12.32482 -5.3410907 0.31256357 5 24
-55.773998 -17.939297 0.68207437 28 22
-13.777268 -5.9705243 -1.0499744 1 8
-23.218569 -8.7411652 -2.0253246 4 7
-10.72749 -5.2855592 0.34803915 5 25
-10.588313 -5.2169852 -0.75648987 7 9
-34.467617 -11.086256 -2.1085861 9 10
-12.43554 -5.3890729 0.78929538 6 27
-45.651558 -17.186581 1.9873297 10 26
-12.219481 -5.2954407 -0.62035298 5 12
-14.254407 -5.3664002 -0.79822809 2 11
-12.545904 -5.4369001 1.6788722 3 29
-46.623688 -17.552563 4.0669222 12 28
-10.644263 -5.2445521 -0.48343971 7 13
-41.407089 -17.944199 12.092026 24 31
-47.876251 -18.024118 9.3271809 30 30
-12.27712 -5.3204193 -0.31135389 5 16
-10.720037 -5.2354622 -0.2082421 10 17
-46.097015 -17.170813 -1.4316033 16 15
-5.4581223 -2.3427384 -1.6627408 1 1
-7.998117 -2.9792421 -1.707005 0 2
-12.405541 -5.3247132 0 6 20
-55.748608 -17.716637 -0.68100339 27 18
-10.376692 -4.4538894 -1.7567973 0 3
-13.356477 -4.9751935 -1.814222 2 4
-10.778996 -5.264257 0.069719717 9 21
-12.608284 -5.4117351 -1.4779394 4 5
-19.327332 -6.1421328 -1.8930849 2 6
-12.460979 -5.3485088 0.31554124 4 24
-55.866776 -17.75419 0.6824469 28 22
-13.768691 -5.9098053 -1.0477422 1 8
-23.16301 -8.6280575 -2.0178392 3 7
-10.8321 -5.2901917 0.35083184 8 25
-46.810356 -17.436527 0.87192225 22 23
-10.699718 -5.2255392 -0.76314139 7 9
-12.553354 -5.3881578 0.79557443 6 27
-46.606392 -17.360552 2.0262458 11 26
-12.344372 -5.2984581 -0.6257506 6 12
-39.379097 -14.668435 -2.2022972 12 11
-12.677903 -5.4416165 1.693984 1 29
-47.271217 -17.608194 4.1180191 14 28
-10.752287 -5.2512126 -0.48751044 9 13
-55.878429 -17.757895 -2.0474837 42 14
-42.112114 -18.075384 12.279411 25 31
-48.410881 -18.032711 9.4190178 30 30
-12.409534 -5.326427 -0.31423849 6 16
-10.839043 -5.2468019 -0.21019679 9 17
-46.614376 -17.178469 -1.4457995 17 15
-5.4591775 -2.3206577 -1.6605843 1 1
-8.0011072 -2.9485917 -1.705436 0 2
-12.530807 -5.3267574 0 5 20
-56.371071 -17.698046 -0.68784833 28 18
-10.403089 -4.4222789 -1.7586421 0 3
-13.399826 -4.9381437 -1.8177575 2 4
-46.937336 -17.297487 -0.29073519 12 19
-16.140726 -6.8613086 -1.8891921 3 5
-19.325861 -6.0674729 -1.8908544 2 6
-12.57894 -5.3472185 0.31805366 4 24
-56.81374 -17.837023 0.69324982 29 22
-13.89206 -5.9054165 -1.055555 1 8
-23.047096 -8.4933844 -2.0051463 3 7
-10.91888 -5.2854481 0.35304272 5 25
-47.264969 -17.418226 0.8792522 11 23
-10.800533 -5.2281609 -0.7690255 7 9
-34.258434 -10.755647 -2.0911446 8 10
-12.697036 -5.3974199 0.80348134 6 27
-47.037979 -17.334576 2.0423658 11 26
-12.473109 -5.3022304 -0.6313343 5 12
-39.624962 -14.60271 -2.2131832 12 11
-40.410606 -17.178263 5.3915 23 29
-47.665333 -17.565771 4.1469846 15 28
-10.860486 -5.2571816 -0.49158114 9 13
-55.932457 -17.560339 -2.0472045 42 14
-42.142948 -17.914669 12.270094 25 31
-49.138165 -18.108543 9.5481634 30 30
-12.538457 -5.3300095 -0.31703007 5 16
-10.94383 -5.2504554 -0.21187221 8 17
-47.241276 -17.22245 -1.4633702 18 15
-5.4636936 -2.3000939 -1.659506 1 1
-7.9781847 -2.9085557 -1.6983759 0 2
-12.659924 -5.3295474 0 5 20
-46.125511 -14.304712 -0.56221777 10 18
-10.389318 -4.3736725 -1.7537228 0 3
-13.409524 -4.8886242 -1.8167473 2 4
-47.463417 -17.303434 -0.2936179 13 19
-16.003298 -6.7370338 -1.870343 3 5
-19.28986 -5.9822836 -1.8852775 2 6
-12.733896 -5.3606882 0.32149661 5 24
-58.915657 -18.271267 0.71811521 33 22
-14.103827 -5.9373984 -1.0700643 1 8
-23.140278 -8.4361029 -2.010679 3 7
-11.067038 -5.309566 0.35723177 3 25
-47.611046 -17.357254 0.88455778 11 23
-10.912292 -5.2353239 -0.77567708 6 9
-34.223301 -10.61353 -2.086726 8 10
-12.848291 -5.4088459 0.81185335 6 27
-47.045624 -17.151123 2.0400863 11 26
-12.61675 -5.3113723 -0.63766253 6 12
-39.62315 -14.445158 -2.2102523 12 11
-40.825256 -17.186529 5.4387856 23 29
-48.733917 -17.766613 4.2345328 19 28
-10.97246 -5.2641907 -0.49581471 9 13
-46.089081 -14.293415 -1.6850872 21 14
-49.785213 -18.149878 9.6615248 30 30
-12.678611 -5.3374143 -0.32010081 5 16
-11.048779 -5.2534394 -0.21354766 9 17
-47.756222 -17.22156 -1.47745 19 15
-5.457468 -2.2750795 -1.6551927 1 1
-7.9882894 -2.8806887 -1.6983759 0 2
-12.807671 -5.3391914 0 6 20
-46.159866 -14.13893 -0.56203151 21 18
-10.368041 -4.3221722 -1.7475737 1 3
-13.422775 -4.8404403 -1.8162422 2 4
-11.097235 -5.2764792 0.071416795 9 21
-15.94963 -6.6489944 -1.8613468 3 5
-19.272545 -5.9032488 -1.8815598 2 6
-12.874334 -5.366982 0.32456735 4 24
-59.116756 -18.107672 0.71979153 33 22
-14.109734 -5.8819885 -1.0689481 3 8
-23.12458 -8.3390465 -2.0067735 3 7
-11.172166 -5.3121071 0.36002445 3 25
-11.020626 -5.2400537 -0.78207284 6 9
-34.252506 -10.491663 -2.0862608 8 10
-12.985039 -5.4131322 0.81929517 6 27
-47.071377 -16.974594 2.0386207 11 26
-12.745853 -5.3134217 -0.64324623 5 12
-39.485451 -14.239004 -2.199785 12 11
-41.291759 -17.213484 5.4928956 24 29
-49.009407 -17.673475 4.2530842 19 28
-11.073786 -5.2653298 -0.49955979 7 13
-46.096653 -14.119568 -1.6835517 20 14
-50.455364 -18.194908 9.779191 30 30
-12.815278 -5.3423629 -0.32307848 5 16
-11.153879 -5.2557516 -0.21522307 8 17
-48.339516 -17.241447 -1.4936243 20 15
-5.4724984 -2.2589536 -1.6573493 1 1
-7.9835191 -2.8475137 -1.6952379 0 2
-12.940851 -5.3417621 0 5 20
-46.155346 -13.961492 -0.56137961 21 18
-10.379413 -4.2844439 -1.7469587 1 3
-13.402217 -4.7802224 -1.8111914 2 4
-11.206046 -5.280333 0.071997993 9 21
-48.886608 -17.436583 -0.30166161 14 19
-19.209167 -5.8105655 -1.8733807 2 6
-13.00758 -5.3693066 0.32745194 5 24
-59.244686 -17.920876 0.72058308 33 22
-14.093298 -5.817472 -1.0661579 1 8
-23.16857 -8.2636261 -2.0080752 3 7
-11.270213 -5.3105688 0.36258441 8 25
-48.906361 -17.443626 0.90633839 13 23
-11.132738 -5.24579 -0.78872448 6 9
-34.258343 -10.362777 -2.0844004 8 10
-13.140429 -5.4241443 0.82789969 5 27
-47.088936 -16.795399 2.0368297 11 26
-12.889901 -5.3207302 -0.64957452 5 12
-39.587593 -14.119864 -2.2027159 12 11
-41.729591 -17.225262 5.5431056 24 29
-49.769245 -17.751396 4.3136191 22 28
-11.186101 -5.2709346 -0.50379336 9 13
-46.092094 -13.942359 -1.6815974 20 14
-51.148663 -18.243399 9.9011612 30 30
-12.963224 -5.350997 -0.32633534 4 16
-11.273623 -5.2641635 -0.21717775 8 17
-49.002693 -17.285412 -1.5122423 22 15
-5.4696527 -2.2354648 -1.6541145 1 1
-7.9897113 -2.8183239 -1.6944535 0 2
-13.089011 -5.3495216 0 4 20
-46.184639 -13.794571 -0.5611468 21 18
-10.376011 -4.2407093 -1.7438842 1 3
-13.373916 -4.7175703 -1.8051306 2 4
-11.315017 -5.2834926 0.072579183 9 21
-49.441319 -17.440136 -0.30470702 15 19
-15.947803 -6.5179191 -1.8557779 23 5
-19.248413 -5.7491755 -1.8752396 2 6
-13.166907 -5.3813581 0.33098796 5 24
-60.310982 -18.01387 0.73278296 35 22
-14.0655 -5.7486157 -1.0625306 1 8
-22.998009 -8.1124125 -1.990826 3 7
-11.404612 -5.3253284 0.36630803 4 25
-49.502514 -17.461721 0.91625136 13 23
-11.245021 -5.2508082 -0.79537606 8 9
-34.164219 -10.204274 -2.0764935 8 10
-13.281264 -5.4280963 0.83557409 5 27
-47.237728 -16.662832 2.0407376 11 26
-13.034149 -5.3270993 -0.65590274 4 12
-39.610264 -13.972288 -2.2012506 12 11
-42.847889 -17.512074 5.6834993 25 29
-50.161755 -17.694265 4.3422594 23 28
-11.302207 -5.2775111 -0.50818974 6 13
-46.113667 -13.773373 -1.6806202 20 14
-51.761261 -18.258482 10.007348 30 30
-13.10768 -5.3571515 -0.32949913 5 16
-11.382669 -5.266768 -0.21892299 8 17
-49.632786 -17.313118 -1.5298129 24 15
-5.4702806 -2.2134702 -1.6519579 1 1
-7.9994998 -2.7904191 -1.6944535 0 2
-13.244799 -5.3593168 0 4 20
-46.194138 -13.621968 -0.56068116 21 18
-10.37243 -4.1970544 -1.7408096 1 3
-13.382809 -4.6682477 -1.8041205 2 4
-11.442294 -5.2943563 0.073276617 9 21
-50.733112 -17.696938 -0.31228578 16 19
-15.94465 -6.4517727 -1.8527792 27 5
-19.211063 -5.6650586 -1.869663 2 6
-13.311646 -5.3863659 0.33415174 3 24
-61.393967 -18.104174 0.74516904 36 22
-14.08548 -5.6994863 -1.0625306 1 8
-22.883142 -7.9821939 -1.9784588 3 7
-11.50296 -5.3224268 0.36886796 7 25
-50.79044 -17.716934 0.93893951 15 23
-11.357472 -5.2551093 -0.80202764 8 9
-34.188133 -10.081575 -2.0757959 8 10
-13.425986 -5.432632 0.84348094 5 27
-47.952225 -16.726896 2.0690699 12 26
-13.174894 -5.3310308 -0.66204482 4 12
-42.960281 -17.383259 5.6903238 25 29
-51.262154 -17.881479 4.432086 26 28
-11.41124 -5.2799873 -0.5122605 7 13
-46.119282 -13.599895 -1.6790847 20 14
-52.218529 -18.215086 10.0834 30 30
-13.244922 -5.3593669 -0.33247682 5 16
-11.50913 -5.2790146 -0.22101727 9 17
-50.260639 -17.34539 -1.5473837 25 15
-5.477591 -2.1953175 -1.6519579 0 1
-13.385024 -5.3644714 0 4 20
-46.177616 -13.450809 -0.55993611 21 18
-10.360609 -4.1523414 -1.7365053 1 3
-13.371958 -4.6147809 -1.8005849 2 4
-11.557953 -5.3014088 0.073904298 9 21
-51.725452 -17.85091 -0.31802794 17 19
-15.940117 -6.3885055 -1.8497804 23 5
-19.153269 -5.5790439 -1.8622276 2 6
-13.45564 -5.3927732 0.33731556 3 24
-61.895283 -18.029116 0.75052392 37 22
-14.074672 -5.6408691 -1.0602984 1 8
-22.932098 -7.9140692 -1.9804115 3 7
-11.636844 -5.3375945 0.37259156 3 25
-11.469174 -5.2606878 -0.80867922 8 9
-34.03735 -9.9145412 -2.0646331 8 10
-13.577367 -5.4415588 0.85185295 4 27
-48.502346 -16.738588 2.0904005 13 26
-13.322311 -5.3393369 -0.66855919 4 12
-39.353287 -13.581166 -2.1817815 12 11
-43.279339 -17.345564 5.7249346 26 29
-51.664112 -17.829741 4.4617023 27 28
-11.534037 -5.2904391 -0.5169825 6 13
-46.141098 -13.440172 -1.678247 20 14
-52.241444 -18.028984 10.076225 30 30
-13.403673 -5.3719454 -0.33601278 4 16
-11.61395 -5.2805471 -0.2226927 7 17
-50.469242 -17.230295 -1.5520382 26 15
-5.5063224 -2.185668 -1.6584277 1 1
-7.9769998 -2.7233629 -1.6858244 0 2
-13.540299 -5.3746576 0 4 20
-45.057285 -12.962537 -0.54582709 10 18
-10.363301 -4.1135869 -1.7346605 1 3
-13.405965 -4.5768218 -1.8031104 2 4
-11.666501 -5.304441 0.074485496 8 21
-19.102768 -5.4956779 -1.8555355 2 6
-13.610971 -5.4027104 0.34075847 3 24
-63.061749 -18.142242 0.76393443 39 22
-14.078465 -5.5882764 -1.0591823 1 8
-22.890306 -7.8147936 -1.9745532 3 7
-11.679958 -5.3105597 0.37340608 2 25
-51.826557 -17.693686 0.95590323 16 23
-11.581036 -5.2655821 -0.81533074 5 9
-33.835949 -9.7342682 -2.0504472 8 10
-13.743798 -5.4554343 0.86115521 4 27
-49.098469 -16.76231 2.1136851 14 26
-13.477353 -5.3496723 -0.6754458 4 12
-39.371647 -13.441555 -2.1803162 12 11
-43.908588 -17.428982 5.8004937 27 29
-52.337944 -17.868273 4.5147524 29 28
-11.646113 -5.2951713 -0.52121609 6 13
-45.029049 -12.954413 -1.6362281 19 14
-52.308395 -17.858185 10.07766 30 30
-13.558936 -5.3820558 -0.33945575 4 16
-11.746278 -5.2888465 -0.22485681 7 17
-51.263252 -17.291845 -1.5744962 28 15
-5.50354 -2.1612475 -1.6551927 1 1
-7.9869275 -2.6941078 -1.6858244 1 2
-13.697666 -5.3790917 0 4 20
-45.135277 -12.80604 -0.54619968 10 18
-10.374631 -4.0741315 -1.7340456 0 3
-13.377531 -4.5124373 -1.7970494 2 4
-11.78434 -5.305985 0.075113177 6 21
-51.924622 -17.514935 -0.31849289 17 19
-16.00654 -6.28579 -1.8523507 3 5
-19.103626 -5.4201903 -1.8536766 2 6
-13.77957 -5.4112554 0.34448057 3 24
-63.7127 -18.076933 0.77101225 40 22
-14.076569 -5.5278873 -1.0575081 1 8
-22.847019 -7.706634 -1.9683695 3 7
-52.398865 -17.674906 0.9652577 16 23
-11.716734 -5.2755446 -0.82351732 6 9
-33.606331 -9.5349808 -2.0344007 8 10
-13.912378 -5.4634094 0.87045753 4 27
-52.62093 -17.749809 2.2625108 21 26
-13.63448 -5.3542786 -0.6823324 4 12
-44.408237 -17.439175 5.858016 27 29
-53.143494 -17.926079 4.5785422 32 28
-11.774772 -5.3016763 -0.52610093 6 13
-45.926144 -13.030429 -1.6670792 20 14
-13.720015 -5.3878679 -0.34299174 5 16
-11.863282 -5.2918015 -0.22674167 6 17
-52.317062 -17.444149 -1.604983 30 15
-5.50387 -2.1392324 -1.6530362 1 1
-7.9813995 -2.6612489 -1.6826866 0 2
-13.86549 -5.3892088 0 4 20
-46.250462 -12.948174 -0.55914456 10 18
-10.363001 -4.0278692 -1.7297413 1 3
-13.370616 -4.4581828 -1.7940191 2 4
-11.919684 -5.3169603 0.075857103 3 21
-52.827835 -17.614456 -0.32365388 18 19
-15.909765 -6.1837735 -1.8386424 3 5
-19.049561 -5.3330717 -1.8466128 2 6
-13.936283 -5.4167247 0.34792352 3 24
-64.32235 -18.007538 0.77762443 41 22
-14.103217 -5.4816079 -1.0580662 1 8
-22.828396 -7.6117029 -1.9644639 3 7
-11.991523 -5.3490047 0.38213325 4 25
-53.256992 -17.757551 0.97991771 17 23
-11.829861 -5.2768927 -0.8301689 4 9
-33.493282 -9.3767033 -2.0255635 8 10
-14.061633 -5.4654455 0.87859696 4 27
-53.266453 -17.760706 2.2875867 22 26
-13.790883 -5.3602109 -0.689219 4 12
-39.239456 -13.083665 -2.1677556 12 11
-44.927704 -17.462404 5.9184632 28 29
-53.878944 -17.96493 4.6364732 34 28
-11.906356 -5.3110147 -0.53114861 6 13
-54.797882 -18.271332 10.531822 30 30
-13.87292 -5.392097 -0.34634164 5 16
-11.984113 -5.29562 -0.22869635 6 17
-53.042187 -17.480427 -1.6253463 32 15
-5.5041137 -2.1172414 -1.6508795 1 1
-7.9906406 -2.6333721 -1.6826866 1 2
-14.022352 -5.3939114 0 4 20
-50.247143 -13.878118 -0.60687298 15 18
-10.376999 -3.9916706 -1.7297413 1 3
-13.35218 -4.4003053 -1.7894734 2 4
-12.047933 -5.3238215 0.076554537 6 21
-53.591801 -17.661556 -0.32795468 18 19
-15.879288 -6.1082101 -1.8326449 3 5
-19.014315 -5.2516994 -1.8414079 2 6
-14.093204 -5.4211655 0.35136649 5 24
-65.464317 -18.081059 0.79066247 43 22
-14.111094 -5.4280477 -1.0572292 1 8
-22.75638 -7.4995255 -1.9560021 3 7
-12.101552 -5.3475156 0.38504234 3 25
-53.89222 -17.760561 0.99045897 18 23
-11.961398 -5.285583 -0.83809972 4 9
-33.302563 -9.1980724 -2.0120754 8 10
-14.199891 -5.4622045 0.88603872 4 27
-53.734287 -17.708513 2.3050094 23 26
-13.943766 -5.3636818 -0.69591945 4 12
-39.106583 -12.88785 -2.1579163 12 11
-45.477512 -17.493618 5.9828105 28 29
-54.660748 -18.013836 4.6983104 37 28
-12.023527 -5.3130374 -0.53554505 5 13
-45.969757 -12.696715 -1.665404 20 14
-55.025776 -18.134132 10.563391 30 30
-14.040951 -5.4010658 -0.35006374 3 16
-12.111512 -5.3039804 -0.23079063 7 17
-53.818356 -17.53858 -1.6473387 34 15
-5.5075049 -2.0976059 -1.6498013 1 1
-7.9732232 -2.5983517 -1.6771951 1 2
-14.170993 -5.3972096 0 6 20
-52.959377 -14.438379 -0.63904893 20 18
-10.382791 -3.9544227 -1.7285115 0 3
-13.310106 -4.3375607 -1.7818972 2 4
-12.17544 -5.3319764 0.077251963 8 21
-55.620071 -18.125732 -0.33999699 20 19
-15.869723 -6.0441933 -1.8292177 3 5
-18.989359 -5.1770921 -1.8373185 2 6
-14.223214 -5.417099 0.35415807 4 24
-52.936218 -14.432066 0.63876957 23 22
-14.136474 -5.3840623 -1.0577872 1 8
-22.663618 -7.3857269 -1.9459128 3 7
-12.291355 -5.3827386 0.39051133 3 25
-54.745556 -17.84074 1.0050491 19 23
-12.062961 -5.2827182 -0.84398377 3 9
-32.959175 -8.9856997 -1.9895175 8 10
-45.792171 -17.440552 2.8536959 14 27
-55.685108 -18.146927 2.3860981 27 26
-14.118304 -5.3771424 -0.70373672 4 12
-46.054703 -17.540543 6.0510573 29 29
-55.398689 -18.053587 4.7565675 39 28
-12.147248 -5.3196301 -0.54026705 6 13
-52.888275 -14.418995 -1.9143071 33 14
-55.014519 -17.928391 10.549759 30 30
-14.189581 -5.4042888 -0.35332057 5 16
-12.233611 -5.3041019 -0.23274529 6 17
-53.398907 -17.185654 -1.6325608 33 15
-5.5115509 -2.0760493 -1.6487229 1 1
-7.9826932 -2.5691125 -1.6771951 1 2
-14.29549 -5.3847175 0 1 20
-50.439373 -13.552946 -0.60803711 15 18
-10.38242 -3.9107711 -1.7260518 0 3
-13.329694 -4.2899661 -1.7824024 2 4
-12.301326 -5.3334608 0.077926144 6 21
-55.724209 -17.934017 -0.34022945 21 19
-15.835943 -5.9649634 -1.8227919 3 5
-19.050516 -5.1188312 -1.8414079 2 6
-45.55431 -17.159054 1.1327288 12 24
-52.973312 -14.233811 0.6385833 23 22
-22.644997 -7.2879591 -1.9420074 3 7
-12.373363 -5.3646936 0.39248949 4 25
-55.530117 -17.871552 1.0182432 20 23
-13.759618 -5.9657297 -0.96115398 2 9
-32.964897 -8.8575945 -1.9878895 8 10
-46.248161 -17.420408 2.8781142 14 27
-55.751247 -17.94272 2.3860981 27 26
-14.205222 -5.3507161 -0.70708698 1 12
-46.605389 -17.554966 6.1149168 30 29
-56.253857 -18.104477 4.8242626 42 28
-12.269336 -5.319591 -0.54482633 6 13
-50.400478 -13.542496 -1.8224517 27 14
-55.473183 -17.853228 10.625094 30 30
-14.299106 -5.3860793 -0.35555384 1 16
-12.376998 -5.315021 -0.23511884 6 17
-55.428493 -17.625563 -1.6927201 38 15
-5.5259829 -2.0594878 -1.6508795 1 1
-7.9841371 -2.5388548 -1.6756263 1 2
-46.788204 -17.437574 0 17 20
-72.590103 -19.23337 -0.87424541 30 18
-10.366378 -3.8634627 -1.7211324 0 3
-13.337023 -4.2410049 -1.7813922 2 4
-12.441156 -5.3425722 0.078693323 6 21
-55.855083 -17.761211 -0.34064791 21 19
-15.860394 -5.911037 -1.8232203 3 5
-19.041317 -5.0451603 -1.8388056 2 6
-46.636898 -17.381184 1.1581322 12 24
-52.964676 -14.033445 0.6378848 23 22
-27.436954 -10.225525 -2.047492 5 8
-22.503128 -7.1557107 -1.9276873 3 7
-12.494883 -5.3656435 0.39574763 2 25
-56.426838 -17.943022 1.0335315 21 23
-30.938868 -13.285995 -2.1579275 14 9
-32.97245 -8.7363338 -1.9864943 8 10
-46.791382 -17.438759 2.9081142 15 27
-56.464832 -17.955105 2.4139421 28 26
-41.795319 -15.576769 -2.0777078 12 12
-39.292686 -12.494578 -2.1608472 12 11
-47.176052 -17.582123 6.1817012 30 29
-56.97398 -18.117006 4.8805666 44 28
-12.401673 -5.3256173 -0.54987401 5 13
-55.63641 -17.691677 10.644465 30 30
-46.157265 -17.202429 -1.1462215 11 16
-12.508637 -5.3224907 -0.23728292 6 17
-55.871887 -17.562754 -1.7044725 39 15
-5.5219407 -2.0371523 -1.6476448 1 1
-7.973803 -2.5064831 -1.6717038 1 2
-72.599312 -18.978382 -0.87359351 30 18
-10.360592 -3.8222253 -1.718058 0 3
-13.313161 -4.1848555 -1.7763414 2 4
-12.561859 -5.3451371 0.07934425 5 21
-46.114571 -14.495642 -0.28094795 11 19
-15.857521 -5.8501506 -1.8206499 3 5
-18.926935 -4.9477415 -1.8261652 2 6
-46.896873 -17.301176 1.1631571 12 24
-52.956749 -13.843568 0.6372329 23 22
-27.826359 -10.265689 -2.0739996 6 8
-22.598997 -7.1037626 -1.933871 3 7
-12.703918 -5.4055843 0.40179846 2 25
-57.218578 -17.986073 1.046935 22 23
-14.119466 -6.0079069 -0.98341119 2 9
-32.854435 -8.5885668 -1.9776572 7 10
-47.051258 -17.358131 2.9206722 31 27
-58.399944 -18.357422 2.4940538 30 26
-41.974201 -15.485106 -2.0840361 13 12
-39.173859 -12.3139 -2.1520548 12 11
-47.777916 -17.626211 6.2528729 30 29
-58.079647 -18.256741 4.970068 45 28
-12.536949 -5.3345375 -0.55508453 5 13
-61.468472 -19.321981 11.747943 39 30
-46.713036 -17.233355 -1.1585975 11 16
-12.641392 -5.3269386 -0.23944701 6 17
-5.5290184 -2.0178645 -1.6476448 1 1
-7.9825039 -2.4786336 -1.6717038 1 2
-47.06739 -17.177664 0 17 20
-56.254368 -14.496009 -0.67630041 26 18
-10.355306 -3.7792611 -1.7149833 0 3
-13.30495 -4.1312976 -1.773311 2 4
-12.720511 -5.3602786 0.080227666 5 21
-15.833015 -5.7784004 -1.8155094 3 5
-18.886242 -4.8667355 -1.8205886 2 6
-47.535488 -17.348499 1.1774871 14 24
-52.973766 -13.650641 0.63686043 23 22
-27.858273 -10.167125 -2.0737205 6 8
-22.399019 -6.9550815 -1.9146689 3 7
-12.77798 -5.3844953 0.40354389 7 25
-58.136581 -18.051891 1.0625724 23 23
-14.191853 -5.9802852 -0.98699284 2 9
-32.745003 -8.4379549 -1.969285 7 10
-47.070297 -17.178726 2.9181139 31 27
-59.036205 -18.331232 2.5184784 31 26
-42.046764 -15.345342 -2.0849667 13 12
-39.151749 -12.156943 -2.1484959 12 11
-48.391129 -17.660774 6.3250194 30 29
-58.877853 -18.282063 5.0328813 46 28
-12.688084 -5.3466139 -0.5609464 6 13
-56.254879 -14.49614 -2.0286379 41 14
-61.561852 -19.115467 11.752965 39 30
-47.325123 -17.271725 -1.1722761 12 16
-12.790025 -5.3344531 -0.24189036 6 17
-46.10659 -14.131407 -1.4034438 31 15
-5.5291305 -1.9949712 -1.645488 1 1
-7.984035 -2.4470613 -1.670135 1 2
-47.558968 -17.1598 0 18 20
-72.613075 -18.427887 -0.87215 30 18
-10.361653 -3.7385986 -1.7137536 0 3
-13.308621 -4.0790167 -1.7717957 2 4
-12.86559 -5.3659701 0.081018083 5 21
-46.140629 -14.14184 -0.28048298 23 19
-15.85783 -5.7216797 -1.8159378 3 5
-18.884649 -4.792583 -1.8187296 2 6
-48.106567 -17.35738 1.1900492 16 24
-56.291607 -14.285793 0.67611414 27 22
-27.831543 -10.041927 -2.0689771 6 8
-22.553959 -6.9126596 -1.9257345 3 7
-12.941547 -5.3976502 0.40808201 5 25
-59.066536 -18.103556 1.0783492 24 23
-14.132624 -5.8944235 -0.98136461 2 9
-32.698296 -8.2982368 -1.9646338 7 10
-47.087872 -16.989822 2.9153233 31 27
-59.160309 -18.132298 2.5209208 31 26
-42.057629 -15.174855 -2.0827332 13 12
-39.299164 -12.04497 -2.1541483 12 11
-49.004513 -17.681368 6.3966784 30 29
-59.802101 -18.329004 5.1061091 47 28
-12.818256 -5.3462281 -0.56583124 4 13
-56.392876 -14.311493 -2.0317092 41 14
-70.853088 -21.716066 13.511497 55 30
-47.873352 -17.273233 -1.1842799 13 16
-12.92316 -5.3371005 -0.24405445 6 17
-46.121197 -13.959953 -1.4023966 31 15
-5.5288048 -1.9730694 -1.6433314 1 1
-7.9925284 -2.4191766 -1.670135 1 2
-72.68084 -18.175276 -0.87219656 30 18
-10.348583 -3.6931078 -1.7094493 0 3
-13.288598 -4.0221896 -1.7672501 2 4
-12.995154 -5.3668332 0.081715509 5 21
-46.162914 -13.97258 -0.28032026 23 19
-15.825268 -5.6475768 -1.8099403 3 5
-18.893538 -4.7247014 -1.8179861 2 6
-48.694141 -17.377522 1.2030766 18 24
-56.438141 -14.113469 0.67727828 27 22
-27.701069 -9.885705 -2.0566998 6 8
-22.387159 -6.7761402 -1.9094615 3 7
-13.089654 -5.4058604 0.41215467 5 25
-60.005959 -18.16259 1.0943357 25 23
-14.167871 -5.8511505 -0.9823879 2 9
-32.568237 -8.1443291 -1.9550992 7 10
-47.101761 -16.809246 2.9125326 30 27
-60.171921 -18.212822 2.5613024 32 26
-42.031315 -14.999752 -2.0788245 12 12
-39.56654 -11.97599 -2.1664996 12 11
-49.623077 -17.709032 6.4693127 30 29
-62.200977 -18.826977 5.3052893 49 28
-12.95505 -5.3502707 -0.57104182 4 13
-71.557442 -21.658989 13.631316 56 30
-48.49453 -17.306284 -1.1981448 14 16
-13.074977 -5.3464541 -0.24656759 5 17
-46.146656 -13.792016 -1.4016984 31 15
-5.5538192 -1.9601692 -1.6487229 2 1
-8.0009241 -2.3912644 -1.670135 1 2
-48.933662 -17.270683 0 22 20
-74.600197 -18.378819 -0.89445436 30 18
