# .PCD v0.7 - Point Cloud Data file format
VERSION 0.7
FIELDS x y z intensity ring
SIZE 4 4 4 4 2
TYPE F F F F U
COUNT 1 1 1 1 1
WIDTH 1272
HEIGHT 1
VIEWPOINT 0 0 0 1 0 0 0
POINTS 1272
DATA ascii
-5.494441 -4.1856441 -0.48299381 8 8
-10.149139 -6.9753146 -1.0053395 10 7
-21.212996 -17.863008 0.80708778 15 25
-29.822227 -20.49626 0.63163751 5 23
-9.7711735 -6.0348024 -0.66883135 19 10
-27.330702 -20.820425 2.0009127 7 27
-29.495728 -20.271864 1.458135 6 26
-5.6576357 -4.3099656 -0.3313016 6 12
-10.152486 -6.9776139 -0.64561641 11 11
-27.122417 -20.661755 4.1864562 26 29
-18.310507 -12.58447 1.813777 3 28
-9.7783661 -6.0392451 -0.40134424 18 14
-27.26478 -20.770206 9.1839352 10 31
-18.235619 -12.533001 4.0343642 6 30
-25.26376 -19.245836 -0.73902345 5 16
-2.8833032 -1.968331 -1.6279256 0 0
-21.029392 -17.595776 -0.47861481 10 17
-10.127873 -6.9139476 -0.35688269 8 15
-4.5211248 -3.4217813 -1.5872599 0 1
-6.4529881 -4.405231 -1.5626627 2 2
-27.066042 -20.484741 0 25 20
-9.812829 -6.0180216 -0.13401215 17 18
-5.2694435 -3.9881408 -1.0281292 16 3
-9.1203499 -6.2261467 -1.405618 3 4
-21.897337 -18.322004 0.16594177 5 21
-10.135293 -6.919013 -0.071323812 10 19
-5.3116751 -4.0201035 -0.71755028 26 5
-9.8287315 -6.0277743 -1.0762924 18 6
-27.393524 -20.732594 0.79941458 14 24
-34.164192 -20.952251 0.46657464 15 22
-5.5489268 -4.199666 -0.48662117 8 8
-10.118323 -6.9074278 -1.0001322 10 7
-29.969055 -20.458834 0.63338268 5 23
-9.8105106 -6.0166001 -0.67022669 22 10
-27.354589 -20.703127 1.9978895 15 27
-29.932274 -20.433725 1.4765347 6 26
-10.121573 -6.909647 -0.64226693 12 11
-11.415585 -8.6398039 1.7578436 2 29
-18.475075 -12.612293 1.8261443 3 28
-9.8109236 -6.0168533 -0.40190262 21 14
-27.246721 -20.621487 9.155983 10 31
-25.556873 -19.342539 -0.74581629 5 16
-2.8781517 -1.9501204 -1.6211637 0 0
-21.25065 -17.655163 -0.48224491 11 17
-10.079124 -6.8292117 -0.3543227 12 15
-4.5176444 -3.3944094 -1.5818683 0 1
-6.4650788 -4.3804789 -1.5618782 1 2
-27.099007 -20.361303 0 24 20
-9.8576946 -5.9982862 -0.13433811 18 18
-5.3212514 -3.9982135 -1.0355082 5 3
-9.158452 -6.2054014 -1.4081433 3 4
-21.893473 -18.189222 0.16543032 5 21
-10.093156 -6.8387189 -0.070858859 9 19
-5.3193169 -3.9967601 -0.71669352 8 5
-9.8735285 -6.0079207 -1.0788949 11 6
-27.433758 -20.612823 0.79848403 14 24
-34.185867 -20.801682 0.46587616 15 22
-5.6050243 -4.211431 -0.4902485 8 8
-10.079664 -6.8295774 -0.99394846 13 7
-21.863049 -18.163946 0.82721841 4 25
-30.371384 -20.578436 0.64036369 5 23
-9.8485088 -5.9926968 -0.67138946 24 10
-27.388384 -20.578732 1.9950988 15 27
-18.773643 -12.72027 0.92389256 2 26
-17.866484 -13.424289 -1.0409943 9 12
-10.076186 -6.8272214 -0.63787073 11 11
-18.370468 -12.447095 1.8114989 3 28
-9.8455267 -5.9908824 -0.40246099 16 14
-27.306179 -20.516966 9.1518412 10 31
-9.460515 -6.4100666 2.0835485 2 30
-25.879999 -19.445381 -0.75326049 5 16
-2.8969738 -1.9481546 -1.6279256 0 0
-21.481827 -17.720854 -0.48608443 11 17
-10.049814 -6.7582908 -0.35246089 8 15
-4.5325522 -3.380923 -1.5829465 0 1
-6.4868388 -4.3622642 -1.5634472 2 2
-27.141056 -20.245068 0 24 20
-9.1899338 -6.1800389 -1.4096586 3 4
-10.040623 -6.7521095 -0.07032416 10 19
-5.4384327 -4.0566382 -0.73083031 13 5
-27.473484 -20.493032 0.79755348 14 24
-5.6708655 -4.2300143 -0.49471292 7 8
-10.057125 -6.763207 -0.9893921 25 7
-30.964075 -20.822695 0.65132385 5 23
-27.431234 -20.461517 1.9930059 15 27
-30.462225 -20.485212 1.4955857 6 26
-18.034937 -13.452627 -1.048067 6 12
-10.04029 -6.7518859 -0.63410246 10 11
-27.218798 -20.303057 4.1693945 26 29
-18.317862 -12.31838 1.8020605 3 28
-27.362143 -20.409981 9.1466646 10 31
-9.4632387 -6.3638306 2.0792439 2 30
-26.197735 -19.541426 -0.76051861 5 16
-2.8947105 -1.9319929 -1.6228542 0 0
-21.723007 -17.792747 -0.4901334 5 17
-10.00018 -6.6743383 -0.34990096 6 15
-4.5474219 -3.367373 -1.5840249 0 1
-6.5118141 -4.3461266 -1.5658005 3 2
-27.169771 -20.119259 0 24 20
-9.2919865 -5.565547 -0.12609622 2 18
-5.5364399 -4.0997424 -1.0717877 1 3
-9.2246523 -6.1567335 -1.4116788 3 4
-21.973503 -17.997923 0.16508161 17 21
-10.004245 -6.6770511 -0.069905706 11 19
-5.4845214 -4.0612969 -0.73511422 14 5
-9.2626419 -5.5479712 -1.0078856 2 6
-27.506285 -20.368448 0.79643685 14 24
-9.3022804 -5.571713 0.12623592 2 22
-5.7433186 -4.2529364 -0.49973539 4 8
-9.9911404 -6.6683044 -0.98060471 15 7
-21.961481 -17.988077 0.82617116 24 25
-31.239489 -20.849915 0.65558225 5 23
-9.2734718 -5.5544577 -0.62952936 4 10
-27.473612 -20.344252 1.9909129 15 27
-31.115297 -20.767027 1.5240808 7 26
-18.158855 -13.44666 -1.052534 6 12
-9.9840584 -6.6635776 -0.62907827 10 11
-27.25441 -20.181932 4.1640325 26 29
-18.062309 -12.055178 1.7727692 2 28
-9.2732372 -5.5543175 -0.37747297 2 14
-27.380436 -20.275255 9.1290665 10 31
-9.4559374 -6.3110981 2.0727866 2 30
-26.510031 -19.63072 -0.76759058 5 16
-2.9017723 -1.9213701 -1.6228542 0 0
-21.98979 -17.876995 -0.49467102 5 17
-9.9478989 -6.5868702 -0.34722462 9 15
-4.5380049 -3.3347166 -1.5764767 1 1
-6.5211587 -4.3178992 -1.5642316 3 2
-27.207869 -19.993484 0 24 20
-9.8178282 -5.8317194 -0.13294117 1 18
-5.682013 -4.1753817 -1.096999 1 3
-9.2603884 -6.1316442 -1.413699 3 4
-22.036219 -17.914742 0.16505836 17 21
-9.9652834 -6.598381 -0.069463998 11 19
-5.5282125 -4.0623627 -0.73896968 13 5
-9.2794886 -5.51195 -1.0075138 0 6
-27.551752 -20.246183 0.7955994 14 24
-9.357028 -5.5580072 0.12670156 1 22
-5.8038831 -4.2649369 -0.50364172 3 8
-9.9457064 -6.5854187 -0.97377008 13 7
-22.03347 -17.912506 0.82640392 12 25
-11.604335 -6.8928914 -0.78603959 2 10
-27.502937 -20.210314 1.9876568 15 27
-31.274511 -20.708004 1.5281514 7 26
-18.278851 -13.432067 -1.0566287 6 12
-9.9517937 -6.5894489 -0.62551939 10 11
-27.2994 -20.060745 4.1596446 13 29
-18.103048 -11.986694 1.7724438 2 28
-12.187451 -7.2392583 -0.49501449 1 14
-27.435881 -20.161037 9.1228542 10 31
-9.4560375 -6.2611909 2.0677643 3 30
-26.852486 -19.732334 -0.77540702 5 16
-2.9020693 -1.9077539 -1.6194733 0 0
-22.232536 -17.952215 -0.49878979 5 17
-9.9128914 -6.5165076 -0.34524646 11 15
-4.5801544 -3.3423562 -1.5872599 0 1
-6.5551071 -4.3091774 -1.5689384 5 2
-27.241714 -19.879574 0 24 20
-5.7054067 -4.1635065 -1.0988438 1 3
-9.283989 -6.1030817 -1.4142042 3 4
-22.204428 -17.929518 0.16587202 11 21
-9.9169207 -6.5191565 -0.068975799 10 19
-5.576992 -4.0697961 -0.74368197 11 5
-11.57926 -6.8261528 -1.254745 1 6
-34.796852 -20.513283 0.47025323 15 22
-5.8985767 -4.304472 -0.51061738 1 8
-9.9041948 -6.5107908 -0.96758634 13 7
-22.251398 -17.967447 0.83233839 12 25
-18.664812 -12.269819 0.38988674 6 23
-11.644329 -6.864512 -0.78720242 2 10
-18.497587 -13.498569 -1.0666795 6 12
-9.9168482 -6.5191088 -0.62196058 11 11
-27.320877 -19.937344 4.1528201 13 29
-18.502489 -12.163113 1.8075933 6 28
-5.2581916 -4.2458577 -0.27534407 0 13
-12.163178 -7.170382 -0.49306008 1 14
-9.4438677 -6.2081819 2.0605896 2 30
-2.9026384 -1.8936503 -1.6160923 0 0
-22.472927 -18.017094 -0.50276893 5 17
-9.8920441 -6.453464 -0.34373376 12 15
-4.5886741 -3.3240881 -1.5861815 0 1
-6.5733948 -4.2884126 -1.569723 1 2
-27.27207 -19.756201 0 24 20
-5.755115 -4.1690712 -1.1056079 1 3
-9.3085585 -6.072804 -1.4147092 3 4
-22.416676 -17.971996 0.16698793 12 21
-9.8826647 -6.4473443 -0.068580583 10 19
-5.6362548 -4.0829678 -0.74967939 8 5
-11.609894 -6.789712 -1.2554885 1 6
-27.420134 -19.863459 0.78787601 35 24
-35.127197 -20.543129 0.47374555 15 22
-9.8801155 -6.4456816 -0.96302998 13 7
-26.693798 -21.40107 0.99571079 11 25
-32.383953 -21.126944 0.67491943 5 23
-11.630302 -6.8016472 -0.78464425 2 10
-27.390865 -19.842257 1.9697502 30 27
-18.496056 -13.398755 -1.0638876 6 12
-9.872633 -6.4408002 -0.61777371 11 11
-18.578222 -12.120234 1.8108478 6 28
-5.307281 -4.2549767 -0.27713519 0 13
-12.184684 -7.1258612 -0.49292049 1 14
-9.4325218 -6.1536765 2.0534148 2 30
-27.245258 -19.736776 -0.78285116 11 16
-2.9241159 -1.8938682 -1.6245446 0 0
-22.642056 -18.029669 -0.50521225 5 17
-9.8429155 -6.3749809 -0.34129015 11 15
-4.6059256 -3.3133519 -1.588338 0 1
-6.5941629 -4.2708549 -1.5712918 1 2
-27.30496 -19.642294 0 24 20
-12.944777 -7.5128822 -0.17424373 1 18
-5.7817421 -4.1591959 -1.1080674 1 3
-9.3452978 -6.0526881 -1.4172347 3 4
-26.500143 -21.10183 0.19688441 9 21
-9.8435593 -6.3753982 -0.068162128 11 19
-5.7014179 -4.1014132 -0.75653356 6 5
-11.580676 -6.7211866 -1.2499119 1 6
-27.450146 -19.746735 0.78685248 28 24
-35.814342 -20.78591 0.48208058 15 22
-14.194183 -10.210831 -1.2226915 8 8
-9.8345108 -6.3695378 -0.9565208 9 7
-26.96793 -21.474325 1.0032744 5 25
-33.054707 -21.408609 0.68741536 6 23
-11.645886 -6.7590337 -0.78417921 2 10
-27.417612 -19.723331 1.9669595 30 27
-10.353554 -7.4480071 -0.59410942 2 12
-9.8369408 -6.3711114 -0.61421484 11 11
-27.394718 -19.706863 4.143558 39 29
-18.437618 -11.941529 1.7932731 3 28
-12.142555 -7.0472894 -0.49026811 1 14
-27.318642 -19.652136 9.0172558 29 31
-9.4330587 -6.1095285 2.0491099 2 30
-10.355482 -7.4493947 -0.29683766 1 16
-2.9429078 -1.8914896 -1.6313065 0 0
-24.361361 -19.260162 -0.54207176 7 17
-9.8012028 -6.299509 -0.33907926 11 15
-4.5861158 -3.274869 -1.5775551 0 1
-6.6090312 -4.2478104 -1.5712918 1 2
-10.358191 -7.3966122 0 2 20
-12.908529 -7.4317298 -0.17340559 1 18
-5.802659 -4.1435823 -1.1092973 1 3
-9.3863964 -6.0329018 -1.420265 3 4
-26.780733 -21.172924 0.19841875 9 21
-9.7984571 -6.2977443 -0.067697175 11 19
-5.770721 -4.1207757 -0.76381624 3 5
-11.586809 -6.6707859 -1.2480531 1 6
-27.489618 -19.629879 0.78601503 35 24
-36.850315 -21.215553 0.49502546 15 22
-10.349195 -7.3901882 -0.88925552 3 8
-9.8164406 -6.3093028 -0.95261526 5 7
-27.114862 -21.437088 1.0059507 5 25
-33.647354 -21.626102 0.69816607 6 23
-5.2951684 -4.1863756 -0.43260884 0 9
-11.669409 -6.7183409 -0.78417921 2 10
-27.460297 -19.60894 1.9650991 30 27
-18.790903 -12.077442 0.91005206 2 26
-9.805356 -6.3021784 -0.61086535 15 11
-27.427803 -19.585737 4.1381955 26 29
-17.590445 -11.305874 1.7070268 2 28
-12.167081 -7.0048614 -0.49026811 1 14
-27.346203 -19.527468 9.0037975 19 31
-9.4344654 -6.063797 2.044805 3 30
-2.9464355 -1.8792568 -1.6296161 0 0
-24.651802 -19.350342 -0.54702824 7 17
-9.7691946 -6.2308598 -0.33721748 11 15
-4.6132317 -3.2699795 -1.5829465 0 1
-6.61059 -4.21628 -1.568154 2 2
-13.615149 -7.7753983 -0.18253219 1 18
-5.8461075 -4.1438742 -1.1148314 1 3
-9.4241247 -6.0107713 -1.4227904 3 4
-26.892227 -21.108955 0.19869772 9 21
-9.7664204 -6.2290902 -0.067325212 10 19
-5.8824062 -4.1696038 -0.77666783 2 5
-11.603106 -6.6263528 -1.2473096 1 6
-27.528608 -19.512999 0.78517753 21 24
-36.878986 -21.061014 0.49442008 15 22
-10.306565 -7.3055634 -0.88339597 7 8
-9.7610941 -6.2256927 -0.94512975 8 7
-27.123474 -21.290472 1.0035071 5 25
-33.793446 -21.553692 0.69963205 6 23
-5.4039488 -4.2418098 -0.44028375 0 9
-11.654644 -6.6557851 -0.78162104 2 10
-27.515541 -19.503736 1.9641688 22 27
-18.863268 -12.031122 0.9115175 2 26
-10.314022 -7.3108492 -0.58889788 9 12
-9.7532005 -6.2206583 -0.60625976 12 11
-27.479803 -19.478405 4.1357584 13 29
-17.646606 -11.255127 1.7086542 2 28
-5.633759 -4.4221988 -0.2917898 0 13
-12.181043 -6.9564033 -0.48984933 1 14
-27.398434 -19.420727 8.998621 19 31
-9.435667 -6.0181332 2.0405002 3 30
-10.315887 -7.312171 -0.29423222 5 16
-2.9502404 -1.8665061 -1.6279256 0 0
-24.93395 -19.42453 -0.55170548 7 17
-9.7277699 -6.1543937 -0.33500659 11 15
-4.6314878 -3.2574799 -1.5851032 0 1
-6.6326299 -4.1962152 -1.569723 2 2
-10.315973 -7.255568 0 7 20
-13.720127 -7.7687979 -0.1835566 1 18
-9.4528008 -5.9804311 -1.4238006 3 4
-26.931557 -20.980745 0.19841875 9 21
-9.728343 -6.1547561 -0.06690675 11 19
-10.097245 -7.1017289 -1.329717 3 5
-11.603057 -6.5700412 -1.244707 2 6
-27.737324 -19.508585 0.78908575 14 24
-37.986164 -21.509047 0.50820315 16 22
-10.26147 -7.2172337 -0.87725741 11 8
-9.7097282 -6.1429796 -0.93796974 12 7
-27.20764 -21.195824 1.0037398 11 25
-34.585358 -21.880854 0.71436191 6 23
-11.675487 -6.6110539 -0.78138852 2 10
-27.763226 -19.526802 1.9767268 15 27
-34.507915 -21.83186 1.6636254 8 26
-10.272117 -7.2247224 -0.58498931 10 12
-9.7286777 -6.1549683 -0.603329 12 11
-27.671169 -19.462055 4.1537952 13 29
-17.718065 -11.209553 1.7115833 2 28
-12.213416 -6.915647 -0.49012855 1 14
-27.50104 -19.342398 9.0089741 19 31
-9.4310598 -5.9666767 2.0347605 3 30
-10.293556 -7.2398009 -0.2928364 3 16
-2.9441338 -1.8490002 -1.6211637 0 0
-25.203829 -19.500818 -0.55624312 7 17
-9.6939487 -6.0880771 -0.33314481 11 15
-4.6612124 -3.2553363 -1.591573 0 1
-6.6830454 -4.1971436 -1.5783521 1 2
-10.27111 -7.1732225 0 9 20
-5.9915509 -4.1844292 -1.1369683 3 3
-9.4961014 -5.9638233 -1.4273361 3 4
-27.016798 -20.903557 0.19853498 9 21
-9.6945028 -6.0884252 -0.066534795 16 19
-10.156607 -7.0932555 -1.3344294 4 5
-27.982183 -19.542429 0.79420364 7 24
-39.0476 -21.939379 0.52142745 16 22
-10.233005 -7.1466103 -0.87279302 8 8
-27.25564 -21.088356 1.0029253 11 25
-18.356544 -12.819996 1.3039421 6 27
-10.24033 -7.1517262 -0.5818252 10 12
-9.7050591 -6.0950541 -0.60060751 16 11
-27.934111 -19.508856 4.1835313 13 29
-17.839542 -11.203743 1.7197196 2 28
-5.5949535 -4.3289523 -0.28820759 4 13
-12.211887 -6.8614001 -0.48915136 1 14
-27.780428 -19.401527 9.0793724 10 31
-9.4141359 -5.9123468 2.0268681 3 30
-10.225709 -7.1415157 -0.29023096 7 16
-2.9782603 -1.8559684 -1.636378 0 0
-25.490591 -19.580839 -0.56106001 7 17
-9.7117481 -6.0520892 -0.33302844 15 15
-4.653553 -3.2258797 -1.5851032 0 1
-6.6976552 -4.1737909 -1.5783521 1 2
-10.236912 -7.0963082 0 6 20
-7.4288788 -5.1497574 -1.4062988 1 3
-9.5336981 -5.941134 -1.4298614 3 4
-27.099117 -20.816442 0.19860473 9 21
-9.7258797 -6.0608959 -0.06660454 16 19
-10.06037 -6.973928 -1.318579 10 5
-11.637072 -6.4850965 -1.2435918 2 6
-28.884995 -20.023306 0.81783897 7 24
-26.179291 -14.58917 0.34890658 7 22
-10.1923 -7.0653825 -0.86721247 8 8
-9.7580833 -6.0809641 -0.93862063 17 7
-27.291037 -20.963867 1.0015289 11 25
-5.4797287 -4.2093053 -0.44284204 7 9
-11.664405 -6.5003285 -0.77766758 36 10
-18.411026 -12.762668 1.3046397 3 27
-34.740513 -21.649315 1.667696 16 26
-10.183134 -7.0590291 -0.57717204 11 12
-9.7500057 -6.0759301 -0.60207289 16 11
-28.364216 -19.662298 4.2376413 13 29
-34.670971 -21.605978 3.3349674 11 28
-5.638556 -4.3313098 -0.28967303 1 13
-12.239254 -6.8206801 -0.48929095 1 14
-28.089312 -19.471733 9.1580534 10 31
-9.4046593 -5.8607202 2.020411 3 30
-10.20785 -7.0761623 -0.28902125 6 16
-2.9662204 -1.8341217 -1.6262352 0 0
-25.803654 -19.67848 -0.56643528 7 17
-9.7566195 -6.0328722 -0.33384299 15 15
-4.6774783 -3.2183497 -1.5894164 0 1
-6.7088475 -4.148324 -1.5775677 0 2
-10.179237 -7.0038481 0 6 20
-14.436508 -7.9792476 -0.19203131 1 18
-7.453321 -5.1282749 -1.4075285 2 3
-9.5746288 -5.9203405 -1.4328918 3 4
-27.174795 -20.724146 0.19862798 9 21
-9.7878008 -6.0521526 -0.066883504 16 19
-10.123968 -6.9658203 -1.3237196 8 5
-11.66661 -6.4482884 -1.2443353 2 6
-10.147867 -6.9822636 -0.86135292 8 8
-9.7962046 -6.0573487 -0.94024795 15 7
-27.325895 -20.839378 1.0001326 11 25
-35.080963 -21.691832 0.71994668 6 23
-5.5419998 -4.2264609 -0.44667947 7 9
-18.406116 -12.664371 1.3011514 3 27
-35.02663 -21.658237 1.6777915 8 26
-10.158337 -6.9894671 -0.57438022 10 12
-9.7847443 -6.0502629 -0.60291028 5 11
-28.684523 -19.736452 4.275177 14 29
-18.507332 -11.443755 1.7763493 2 28
-19.42704 -14.815523 -0.99537456 5 13
-12.238499 -6.7643785 -0.48831376 1 14
-9.3748541 -5.7968125 2.0096488 5 30
-10.153422 -6.9860859 -0.28678802 8 16
-2.9695146 -1.8218604 -1.6245446 0 0
-26.11133 -19.769346 -0.57167101 8 17
-9.7980671 -6.011323 -0.33454117 10 15
-4.6695986 -3.1889687 -1.5829465 0 1
-6.719944 -4.1228285 -1.5767831 0 2
-10.160682 -6.9389467 0 9 20
-13.650571 -7.4827623 -0.1812284 1 18
-7.4711766 -5.1022263 -1.4075285 2 3
-9.6121483 -5.8972573 -1.4354173 3 4
-27.262917 -20.641233 0.19874422 9 21
-9.8259163 -6.0284085 -0.066999748 16 19
-10.135086 -6.9214668 -1.3220061 6 5
-11.675077 -6.3998661 -1.2428482 2 6
-29.902496 -20.421053 0.84259093 8 24
-50.593395 -27.733517 0.67169058 27 22
-10.119455 -6.9107924 -0.85688853 10 8
-9.8206873 -6.0252008 -0.94057339 12 7
-27.366592 -20.719728 0.9989689 11 25
-36.295059 -22.26779 0.74326307 7 23
-5.6076403 -4.2456431 -0.45077279 6 9
-11.720007 -6.4244952 -0.77836525 2 10
-29.863293 -20.394281 2.1060281 9 27
-36.236431 -22.231821 1.7320135 8 26
-10.123279 -6.9134035 -0.57102996 10 12
-9.81602 -6.022337 -0.60353833 11 11
-18.156836 -12.399692 2.6996498 5 29
-35.588947 -21.834578 3.4085207 11 28
-19.446772 -14.723493 -0.99374622 5 13
-12.262036 -6.7216163 -0.48831376 1 14
-29.800749 -20.351568 9.6694794 11 31
-9.2977619 -5.7043748 1.9888419 9 30
-10.131514 -6.9190273 -0.28548527 11 16
-2.9665658 -1.8058286 -1.6194733 0 0
-26.435944 -19.870319 -0.57725579 8 17
-9.829236 -5.9833207 -0.33489022 16 15
-4.6934557 -3.181294 -1.5872599 0 1
-6.7342939 -4.0993462 -1.5767831 0 2
-10.111998 -6.8540626 0 9 20
-13.852307 -7.5305834 -0.1835566 1 18
-7.4889417 -5.0761156 -1.4075285 1 3
-9.639452 -5.867794 -1.4364274 3 4
-27.322012 -20.536325 0.19865122 9 21
-9.8605652 -6.0023913 -0.067092739 11 19
-10.116388 -6.857038 -1.316437 4 5
-11.700845 -6.3609757 -1.24322 3 6
-30.05966 -20.374884 0.84501034 8 24
-50.584465 -27.49943 0.67029357 27 22
-10.077456 -6.8306499 -0.85130799 10 8
-9.8689022 -6.0074668 -0.9431771 8 7
-27.397205 -20.592844 0.99745625 11 25
-9.2853041 -5.6522145 0.18974257 1 23
-5.6702905 -4.2620187 -0.45461023 5 9
-11.763411 -6.3949885 -0.7797606 2 10
-18.741991 -12.7036 1.318593 3 27
-9.2756062 -5.6463118 0.4424068 1 26
-10.097738 -6.8443966 -0.56823808 3 12
-19.218788 -13.02678 2.8507679 6 29
-19.555557 -14.698746 -0.99667716 5 13
-12.267862 -6.6692257 -0.48761579 1 14
-9.3310614 -5.6800685 1.9917117 3 30
-10.09271 -6.8409891 -0.28371727 12 16
-3.0125577 -1.8208785 -1.6414495 0 0
-26.748188 -19.973818 -0.58270091 8 17
-4.7034268 -3.1665332 -1.5872599 0 1
-6.7538538 -4.0822277 -1.5783521 0 2
-10.073756 -6.7820511 0 9 20
-13.787899 -7.4395456 -0.18239251 1 18
-7.5114102 -5.0569787 -1.4087584 1 3
-27.379984 -20.445602 0.19860473 9 21
-10.078498 -6.7852435 -1.308726 10 5
-11.706752 -6.3166199 -1.2417328 3 6
-52.867104 -28.525539 0.69934976 30 22
-10.029356 -6.7521596 -0.84544849 11 8
-9.2599363 -5.5969777 -0.88329279 2 7
-27.426525 -20.480356 0.9961763 11 25
-5.734827 -4.2823982 -0.45870352 3 9
-11.793986 -6.3636894 -0.78045827 2 10
-18.715561 -12.600056 1.313942 3 27
-10.042958 -6.7613163 -0.56395721 2 12
-18.409931 -12.394294 2.7249987 5 29
-9.3077021 -5.6258492 0.88784921 3 28
-19.649673 -14.673105 -0.99911958 5 13
-12.306345 -6.6401429 -0.48831376 1 14
-9.3791714 -5.6690469 1.9981691 2 30
-10.027906 -6.751183 -0.28129789 11 16
-2.9974453 -1.7967772 -1.6296161 0 0
-27.087919 -20.073284 -0.58849514 8 17
-9.2661657 -5.5544753 -0.31441051 3 15
-4.7150011 -3.1492724 -1.5872599 0 1
-6.7620416 -4.0534124 -1.5767831 0 2
-10.018714 -6.691761 0 10 20
-7.5364676 -5.0338039 -1.4099883 1 3
-9.2469425 -5.5429521 -1.3722832 6 4
-27.445095 -20.337967 0.19853498 9 21
-9.3111019 -5.5814114 -0.063094139 1 19
-10.020621 -6.6930351 -1.2980163 4 5
-11.729824 -6.2736697 -1.2417328 3 6
-31.115452 -20.782824 0.87069285 8 24
-57.330608 -30.663147 0.75690329 38 22
-10.007583 -6.6843257 -0.84154207 15 8
-9.2701283 -5.5568504 -0.88231641 3 7
-27.462856 -20.351128 0.99477994 11 25
-5.8114209 -4.3065066 -0.46356428 1 9
-11.796104 -6.3091197 -0.77906293 2 10
-18.306688 -12.227516 1.2820818 2 27
-9.3206806 -5.5871534 0.44273242 2 26
-9.2779417 -5.5615339 -0.56690317 3 11
-18.537771 -12.381862 2.7371857 5 29
-37.436138 -22.440577 3.5631135 11 28
-19.770756 -14.650958 -1.0025389 5 13
-12.337649 -6.5987639 -0.48859298 1 14
-9.386385 -5.6265388 1.9952992 2 30
-9.9927254 -6.6744027 -0.27962294 12 16
-9.263916 -5.5114532 -0.31371233 1 15
-4.718998 -3.1293631 -1.5851032 0 1
-6.7687035 -4.026957 -1.5752143 0 2
-9.9608421 -6.6054473 0 9 20
-7.5531182 -5.0087857 -1.4099883 1 3
-9.2823219 -5.5224032 -1.3748084 2 4
-27.418957 -20.178095 0.19786081 9 21
-9.9895706 -5.9431725 -0.067557693 1 19
-9.9897289 -6.6246033 -1.2911621 3 5
-11.747045 -6.2328734 -1.2413611 2 6
-31.284176 -20.745832 0.87348437 8 24
-57.361305 -30.435379 0.75597197 38 22
-9.9498806 -6.5981779 -0.83484548 12 8
-11.55324 -6.8734584 -1.0974441 1 7
-27.398157 -20.162788 0.99000907 16 25
-38.622715 -22.978109 0.78445077 8 23
-14.554528 -10.710935 -1.1581433 6 9
-11.824014 -6.2737126 -0.77952808 2 10
-18.320509 -12.149089 1.2802213 2 27
-9.9467239 -6.5960846 -0.55595386 8 12
-11.675341 -6.9461007 -0.71197844 1 11
-18.701151 -12.401509 2.7552223 5 29
-38.00029 -22.607807 3.6096537 11 28
-19.864294 -14.618484 -1.0048187 5 13
-12.373588 -6.5653114 -0.48915136 1 14
-9.3779354 -5.5792875 1.9895595 2 30
-9.9614792 -6.6058698 -0.27813411 14 16
-27.240074 -19.900234 -0.58884418 17 17
-12.578325 -7.4239907 -0.42507088 1 15
-4.7266755 -3.1107531 -1.5840249 1 1
-6.7759647 -3.999316 -1.5736452 0 2
-9.9370623 -6.5398498 0 9 20
-7.5606527 -4.9758701 -1.4081435 2 3
-9.7423601 -5.7501445 -1.4399629 4 4
-27.350348 -19.980795 0.19686116 9 21
-9.9397068 -6.5415902 -1.2817376 2 5
-11.78988 -6.2029538 -1.2435918 2 6
-57.39996 -30.19957 0.75508732 38 22
-9.9195223 -6.528306 -0.83038104 12 8
-27.313406 -19.953808 0.98442364 16 25
-39.76696 -23.471291 0.80602193 9 23
-14.640179 -10.695382 -1.1619807 9 9
-18.602976 -12.243122 1.2969654 6 27
-19.408813 -11.455487 0.91819352 2 26
-9.9229612 -6.5305691 -0.55334812 12 12
-11.67888 -6.8931189 -0.71072239 3 11
-18.465752 -12.15281 2.7142742 5 29
-38.535618 -22.744526 3.6529398 11 28
-19.973293 -14.591489 -1.0077496 5 13
-12.375206 -6.5109086 -0.48831376 1 14
-9.3770227 -5.5345149 1.9852546 2 30
-9.90765 -6.5204926 -0.27599388 13 16
-27.251303 -19.755667 -0.5875178 17 17
-12.767632 -7.4727659 -0.43053994 1 15
-4.7477212 -3.099726 -1.5872599 1 1
-6.7736511 -3.9645491 -1.569723 1 2
-9.9006758 -6.4640241 0 8 20
-7.5854573 -4.9524474 -1.4093732 2 3
-9.7770662 -5.7224178 -1.4419831 3 4
-27.391006 -19.856945 0.19662867 27 21
-35.774261 -20.938313 -0.24091548 8 19
-9.9070044 -6.4681559 -1.274455 2 5
-11.833721 -6.1707516 -1.2458223 2 6
-18.701054 -12.209677 0.51969856 9 24
-57.446404 -29.955706 0.75424904 38 22
-9.8799 -6.4504595 -0.82507962 12 8
-27.383116 -19.851225 0.98430735 22 25
-39.976971 -23.398115 0.8085351 9 23
-14.908746 -10.808005 -1.1801447 10 9
-11.847362 -6.1778641 -0.77813274 6 10
-18.647722 -12.174858 1.2969654 9 27
-39.953369 -23.384302 1.8860499 10 26
-9.8832617 -6.4526539 -0.54981178 10 12
-11.690274 -6.8421988 -0.709885 3 11
-18.626522 -12.161016 2.7313359 5 29
-39.131382 -22.9032 3.7014327 11 28
-20.013695 -14.508807 -1.0070982 5 13
-12.406073 -6.4692073 -0.48859298 1 14
-18.741646 -12.236178 5.997355 4 31
-9.3734694 -5.4861965 1.9802324 2 30
-9.8779058 -6.4491577 -0.27450505 12 16
-27.303865 -19.648739 -0.58716875 8 17
-4.7488141 -3.0768509 -1.5840249 1 1
-6.8010163 -3.9487579 -1.5728608 0 2
-9.85604 -6.3859239 0 6 20
-7.6093326 -4.9302378 -1.410603 2 3
-9.8244343 -5.7041931 -1.4460238 3 4
-27.437429 -19.744858 0.19646594 17 21
-35.857506 -20.819332 -0.2409852 8 19
-9.8727818 -6.3967714 -1.2671725 4 5
-11.865804 -6.1348934 -1.2469376 2 6
-57.48312 -29.720095 0.75336438 38 22
-9.8420773 -6.3768773 -0.82005709 12 8
-27.423035 -19.734499 0.9832601 22 25
-41.068336 -23.844807 0.82891953 9 23
-10.326059 -7.4309645 -0.81533074 4 9
-11.904326 -6.1548104 -0.78045827 2 10
-18.777241 -12.166147 1.3030118 3 27
-19.103176 -11.091551 0.8999567 2 26
-9.8420115 -6.3768344 -0.54627544 10 12
-11.693359 -6.7893152 -0.70862895 3 11
-18.588892 -12.044112 2.7196367 5 29
-25.344301 -14.715229 2.392441 4 28
-12.481845 -6.4534006 -0.49068692 1 14
-18.35298 -11.89126 5.8596635 3 31
-9.3755474 -5.4435639 1.9766449 2 30
-9.8399487 -6.3754983 -0.27283013 13 16
-13.737645 -7.9122601 -0.46137586 1 15
-4.7627664 -3.0623376 -1.5851032 1 1
-6.8011642 -3.9171619 -1.569723 0 2
-9.8311691 -6.3211923 0 6 20
-7.6231728 -4.9015069 -1.4099883 1 3
-9.8580408 -5.677784 -1.4480441 3 4
-10.346962 -7.3913183 0.073904298 4 21
-13.067333 -7.5261908 -0.087643668 1 19
-9.8314943 -6.3214011 -1.259033 4 5
-11.894236 -6.0970678 -1.2476813 2 6
-57.522453 -29.486408 0.75252622 37 22
-9.8072214 -6.3057942 -0.8153137 13 8
-11.559434 -6.6577091 -1.0889822 112 7
-27.468985 -19.622379 0.9824456 27 25
-41.224106 -23.743214 0.83038551 9 23
-12.131846 -6.2188683 -0.79394656 2 10
-18.084011 -11.627561 1.2520821 2 27
-9.7902727 -6.2948966 -0.54218066 13 12
-11.699681 -6.7384853 -0.70758218 3 11
-32.312572 -20.776163 4.7168317 16 29
-25.488792 -14.680387 2.4012284 4 28
-10.315796 -7.3690548 -0.51649404 5 13
-12.507855 -6.4116135 -0.49082655 1 14
-18.410629 -11.837568 5.86484 3 31
-9.3706236 -5.3970537 1.9716226 1 30
-9.7982359 -6.3000174 -0.27106211 12 16
-10.334126 -7.3305197 -0.2211569 3 17
-13.604124 -7.7754011 -0.45602322 1 15
-4.7923751 -3.0589635 -1.591573 1 1
-6.8277364 -3.9023747 -1.5728608 0 2
-9.7778969 -6.2412128 0 5 20
-7.6493769 -4.8825822 -1.4118328 2 3
-9.8974819 -5.6568799 -1.4510745 3 4
-10.319213 -7.3199415 0.073532335 4 21
-13.064434 -7.4669428 -0.087457679 1 19
-9.7920589 -6.2502522 -1.251322 4 5
-11.932137 -6.0666208 -1.2495401 2 6
-33.674057 -21.494083 0.92959511 9 24
-57.580688 -29.275576 0.75201404 37 22
-9.7540789 -6.2260098 -0.80917507 12 8
-11.5676 -6.6114311 -1.0876803 132 7
-27.543678 -19.53813 0.98279458 11 25
-42.368587 -24.215656 0.85181707 10 23
-10.268956 -7.2842922 -0.80688834 9 9
-18.109001 -11.55894 1.2511518 2 27
-9.7538338 -6.2258534 -0.53901654 12 12
-11.701151 -6.6877623 -0.70632613 3 11
-18.764143 -11.977117 2.7332859 5 29
-25.187738 -14.395987 2.3683572 4 28
-10.278235 -7.2908745 -0.51340026 2 13
-12.521918 -6.3664813 -0.49054733 1 14
-42.039696 -24.027678 8.8285351 29 30
-9.7685108 -6.2352214 -0.26966634 13 16
-10.285705 -7.2396479 -0.21955128 11 17
-13.646447 -7.7333698 -0.45648867 1 15
-4.7905374 -3.0331349 -1.5872599 0 1
-6.8556447 -3.8850577 -1.5759987 0 2
-9.7533951 -6.1753745 0 5 20
-7.6672225 -4.8545117 -1.4118328 2 3
-9.9285078 -5.6264334 -1.4525898 3 4
-10.283827 -7.2383261 0.073090628 4 21
-13.091717 -7.4190068 -0.087457679 1 19
-9.7476997 -6.1717687 -1.2427542 4 5
-11.979192 -6.035388 -1.2521427 2 6
-34.293198 -21.712782 0.94448352 10 24
-57.616169 -29.02833 0.75108272 37 22
-9.7296362 -6.1603322 -0.80526876 13 8
-11.567477 -6.5552287 -1.0854021 132 7
-27.857061 -19.60734 0.99140543 11 25
-42.432713 -24.046396 0.85132837 10 23
-10.233567 -7.20295 -0.80202764 8 9
-18.438025 -11.67406 1.2709191 2 27
-26.07872 -14.778674 1.2212186 4 26
-9.7293272 -6.1601362 -0.53641081 12 12
-11.708211 -6.6349816 -0.70527941 3 11
-18.449003 -11.68101 2.6811259 5 29
-24.074919 -13.64313 2.2590034 4 28
-10.226452 -7.1979423 -0.5094924 2 13
-12.57373 -6.3349299 -0.49166411 1 14
-18.662569 -11.81623 5.9186745 3 31
-9.7271051 -6.1587291 -0.26789832 13 16
-10.257206 -7.1688404 -0.21843432 4 17
-13.710353 -7.7096305 -0.45776865 1 15
-4.8103528 -3.0233812 -1.5904946 0 1
-6.8684897 -3.8623016 -1.5759987 0 2
-9.7128592 -6.1046824 0 6 20
-7.6899714 -4.8332663 -1.4130627 2 3
-9.9713221 -5.6070919 -1.4561253 3 4
-10.242202 -7.1583543 0.072625674 4 21
-13.067435 -7.348104 -0.087132215 1 19
-9.6940355 -6.0928512 -1.2333298 12 5
-12.024079 -6.008091 -1.254745 2 6
-57.730003 -28.846043 0.75131553 37 22
-9.6959562 -6.0940585 -0.80080432 18 8
-11.599575 -6.5226941 -1.0863785 171 7
-28.062849 -19.613342 0.996409 5 25
-43.603348 -24.519114 0.87317878 11 23
-10.188685 -7.1209517 -0.79665518 9 9
-12.166661 -6.0793352 -0.79208606 29 10
-18.125021 -11.391856 1.2467332 2 27
-26.155453 -14.707782 1.2225212 4 26
-9.7023392 -6.0980701 -0.53380501 15 12
-11.709258 -6.5843711 -0.70402336 3 11
-18.470829 -11.609201 2.6786885 5 29
-24.113077 -13.559309 2.2583525 4 28
-10.188023 -7.1204882 -0.50639862 3 13
-12.608974 -6.3003459 -0.49222252 1 14
-18.570801 -11.672035 5.8772631 3 31
-9.6933022 -6.0923905 -0.26640949 15 16
-10.228352 -7.0983043 -0.21731737 2 17
-13.756794 -7.6758122 -0.45846683 1 15
-4.8170843 -3.005374 -1.5894164 1 1
-6.8778358 -3.8375928 -1.5752143 0 2
-9.7398376 -6.0766745 0 12 20
-13.948324 -6.9118748 -0.1812284 1 18
-7.7093101 -4.8098307 -1.4136776 2 3
-10.003721 -5.581728 -1.4581455 3 4
-10.200161 -7.0787406 0.072160728 4 21
-13.063787 -7.2891388 -0.086946234 1 19
-9.7411804 -6.0775123 -1.2367568 23 5
-12.065346 -5.9787941 -1.2569757 1 6
-34.731613 -21.669018 0.95257908 30 24
-45.980728 -22.785034 0.59742045 19 22
-9.7296534 -6.0703206 -0.80192041 20 8
-11.610699 -6.4783659 -1.0854021 171 7
-29.14274 -20.224571 1.032365 6 25
-10.140097 -7.0370564 -0.79102695 8 9
-26.148243 -14.589808 1.219916 4 26
-9.7292881 -6.0700932 -0.5341773 17 12
-11.734517 -6.547452 -0.70423269 3 11
-18.377857 -11.465926 2.6596768 5 29
-26.180647 -14.607889 2.4474435 5 28
-10.14591 -7.0410914 -0.50314206 6 13
-12.651286 -6.2691479 -0.49306008 1 14
-18.553679 -11.575621 5.8596635 3 31
-9.7338095 -6.0729136 -0.2669678 19 16
-10.144378 -6.9876885 -0.21501365 2 17
-13.734526 -7.6006408 -0.45683774 1 15
-4.8275461 -2.9885406 -1.5894164 0 1
-6.8946204 -3.8154602 -1.5759987 0 2
-9.7677927 -6.0468497 0 13 20
-13.972367 -6.863143 -0.1812284 1 18
-7.7361345 -4.7891316 -1.4155223 2 3
-10.030087 -5.5506172 -1.4591557 3 4
-10.172104 -7.0067868 0.071788758 9 21
-13.078652 -7.2376828 -0.086876497 1 19
-9.7792435 -6.0539389 -1.2388988 20 5
-12.129041 -5.9577122 -1.2614369 1 6
-34.912449 -21.6129 0.95546371 20 24
-45.959465 -22.575014 0.59611666 19 22
-9.7813187 -6.0552235 -0.80443168 14 8
-11.629753 -6.4358664 -1.0850767 179 7
-29.525969 -20.338188 1.0434192 6 25
-10.118575 -6.9699149 -0.78744525 8 9
-34.944313 -21.632627 2.3934674 11 27
-26.202505 -14.50038 1.2200787 4 26
-9.7775965 -6.0529189 -0.53566629 14 12
-11.75031 -6.5025821 -0.70381403 3 11
-18.421146 -11.403795 2.6601644 5 29
-26.14427 -14.468152 2.439307 5 28
-10.127639 -6.9761581 -0.50102526 3 13
-12.719739 -6.2478595 -0.49487486 1 14
-19.026413 -10.529154 3.9647696 6 30
-9.7753496 -6.0515285 -0.26752612 5 16
-13.714529 -7.5209322 -0.45520869 1 15
-4.8357029 -2.9679673 -1.588338 0 1
-6.922977 -3.7965021 -1.5791365 0 2
-9.8113928 -6.0218534 0 11 20
-7.7544665 -4.7593913 -1.4155223 1 3
-10.072203 -5.5235109 -1.4621861 3 4
-10.132878 -6.9225502 0.071323812 4 21
-13.123882 -7.1970267 -0.086992726 1 19
-9.8159742 -6.0246654 -1.2406123 19 5
-12.212713 -5.9407129 -1.2677572 1 6
-35.291691 -21.660675 0.96355927 10 24
-9.8147001 -6.0238833 -0.80526876 18 8
-11.647389 -6.3873301 -1.0844258 187 7
-29.907576 -20.432171 1.0541246 6 25
-50.493107 -27.689995 1.0051888 19 23
-10.085935 -6.89048 -0.78284037 8 9
-12.280969 -5.9739151 -0.79534185 9 10
-19.752954 -12.123599 1.3497556 3 27
-26.058245 -14.290121 1.2107974 4 26
-9.8109827 -6.0216012 -0.53622466 16 12
-11.782197 -6.4612575 -0.70423269 3 11
-19.578032 -12.016238 2.8205442 6 29
-25.923481 -14.216218 2.4135959 5 28
-10.091649 -6.8943839 -0.49793151 2 13
-12.783179 -6.2182088 -0.49641046 2 14
-36.051098 -22.126768 11.334205 19 31
-19.042549 -10.442773 3.9597468 6 30
-9.8223715 -6.0285916 -0.26817748 15 16
-10.110177 -6.8605571 -0.2132684 11 17
-13.759158 -7.4892821 -0.45590687 1 15
-4.8450022 -2.9527619 -1.588338 0 1
-6.9176435 -3.7653601 -1.5752143 0 2
-9.8439245 -5.9993296 0 12 20
-13.299491 -6.4177752 -0.17191553 1 18
-7.7828794 -4.7432361 -1.4179819 2 3
-10.106929 -5.501328 -1.4647114 3 4
-10.094997 -6.850256 0.07090535 4 21
-12.928607 -7.0372024 -0.085551374 1 19
-9.8620195 -6.0103574 -1.2440394 9 5
-12.407072 -5.9871311 -1.2859741 1 6
-46.07272 -22.232758 0.59555787 19 22
-9.8506107 -6.0034046 -0.80666381 12 8
-11.65689 -6.3449912 -1.0834495 191 7
-30.269375 -20.540173 1.0645971 6 25
-50.643066 -27.565655 1.0064454 19 23
-10.04477 -6.8161736 -0.77797955 7 9
-9.2885122 -5.6608367 0.63348281 1 27
-25.523796 -13.892921 1.1839306 4 26
-9.8503208 -6.0032282 -0.53734142 15 12
-11.802435 -6.4242129 -0.70423269 3 11
-45.608589 -24.825327 4.2390895 19 28
-12.867455 -6.2092924 -0.49892321 2 14
-18.978483 -10.330226 3.9396577 6 30
-9.8583336 -6.008111 -0.26864275 15 16
-10.057767 -6.773839 -0.21166278 11 17
-13.753551 -7.4241142 -0.45485958 1 15
-4.8552799 -2.9358315 -1.588338 0 1
-6.944551 -3.7486422 -1.5783521 0 2
-7.7993889 -4.7160397 -1.4179819 2 3
-10.119087 -5.462245 -1.4637014 3 4
-10.062447 -6.7769914 0.070510142 4 21
-13.041089 -7.0395303 -0.086132564 1 19
-9.9033585 -5.9882421 -1.2466097 6 5
-12.603948 -6.0279856 -1.3041912 1 6
-60.936821 -29.143747 0.7863785 42 22
-9.2637138 -5.60147 -0.75699723 4 8
-11.67195 -6.3004746 -1.0827985 171 7
-30.606195 -20.61307 1.0739062 6 25
-57.23225 -30.893751 1.1352441 27 23
-9.9956617 -6.7320118 -0.77235126 10 9
-12.453607 -5.9560833 -0.80394644 2 10
-57.221657 -30.888033 2.64923 33 26
-11.831818 -6.3867702 -0.70465142 3 11
-9.2986536 -5.6225967 1.3342258 3 29
-46.76849 -25.245455 4.3386793 23 28
-9.991292 -6.7290688 -0.49076703 10 13
-12.921507 -6.179862 -0.50017959 2 14
-9.2667122 -5.6032829 -0.25198635 3 16
-10.004877 -6.687571 -0.21005715 12 17
-13.821684 -7.3987031 -0.45625594 1 15
-4.8853173 -2.9307551 -1.5948079 0 1
-6.9506783 -3.7206759 -1.5767831 0 2
-9.2852983 -5.5703516 0 2 20
-7.8293614 -4.6969194 -1.4204416 2 3
-10.442446 -5.589808 -1.5076426 1 4
-10.026185 -6.7018142 0.070091687 3 21
-13.241907 -7.0883503 -0.087294951 1 19
-9.2557678 -5.5526361 -1.1626457 5 5
-12.693294 -6.0163631 -1.311255 1 6
-9.2999325 -5.5791306 0.25235856 1 24
-61.533348 -29.165556 0.79275787 43 22
-9.262681 -5.5567832 -0.75532305 3 8
-11.707932 -6.2672191 -1.0841002 97 7
-31.100124 -20.78829 1.0886842 6 25
-57.25864 -30.650368 1.1336385 27 23
-9.9460907 -6.6482763 -0.7667231 10 9
-12.607835 -5.9758573 -0.81255102 2 10
-57.255135 -30.648493 2.6458106 33 26
-9.282095 -5.5684295 -0.50421125 2 12
-11.857563 -6.3473158 -0.70486069 1 11
-9.3590784 -5.6146131 1.3400754 2 29
-47.264057 -25.300301 4.3764324 24 28
-9.9515896 -6.6519518 -0.48767325 11 13
-13.091107 -6.2049189 -0.50590312 2 14
-36.853043 -22.108541 11.515377 20 31
-9.2862158 -5.5709019 -0.25198635 1 16
-9.9615059 -6.6083889 -0.20866098 12 17
-13.826236 -7.3391628 -0.45555776 1 15
-4.8723478 -2.8998938 -1.5872599 0 1
-6.9566951 -3.6927128 -1.5752143 0 2
-9.3459339 -5.5624552 0 0 20
-7.8321238 -4.6614747 -1.4179819 2 3
-10.598582 -5.6258783 -1.5273405 1 4
-10.009521 -6.6402411 0.069812715 3 21
-13.089917 -6.9483147 -0.086132564 1 19
-9.288764 -5.528429 -1.1643592 3 5
-12.728635 -5.9787903 -1.3127421 1 6
-9.3915138 -5.5895829 0.25431263 0 24
-63.079258 -29.629074 0.81133699 46 22
-9.2991657 -5.5346198 -0.75671822 1 8
-11.736782 -6.230051 -1.0847512 58 7
-18.674847 -12.388754 0.65220982 2 25
-57.322895 -30.427809 1.1328008 27 23
-9.9160147 -6.5782099 -0.76262981 9 9
-12.968368 -6.0913954 -0.83441126 2 10
-19.984793 -11.894424 1.3544067 3 27
-57.298229 -30.414717 2.6428797 33 26
-11.742726 -6.9889631 -0.63654578 1 12
-11.879647 -6.3058858 -0.70486069 1 11
-9.3513269 -5.5656652 1.3361756 2 29
-26.551254 -14.093783 2.4539528 5 28
-9.9147997 -6.577404 -0.48474237 5 13
-13.268272 -6.2322645 -0.51190579 2 14
-37.281925 -22.189226 11.625116 21 31
-72.751984 -38.617786 15.017479 63 30
-9.9310656 -6.5383883 -0.20754401 11 17
-14.495709 -7.6297922 -0.47673568 1 15
-4.8923912 -2.8887436 -1.5904946 0 1
-6.9660726 -3.6665804 -1.5744299 0 2
-34.777996 -20.534889 0 12 20
-7.8687682 -4.6461649 -1.4216714 2 3
-10.653269 -5.6073298 -1.5323912 1 4
-10.005911 -6.5876641 0.069626734 3 21
-13.223819 -6.9603348 -0.086853243 1 19
-11.54768 -6.8184018 -1.4445251 2 5
-12.789145 -5.9528098 -1.3168316 1 6
-63.592049 -29.599428 0.81659871 47 22
-57.357979 -30.190275 1.1314046 27 23
-9.8822365 -6.5062399 -0.75828069 10 9
-13.23573 -6.1606765 -0.85022509 2 10
-25.782343 -15.22335 1.7437056 5 27
-57.358067 -30.190321 2.6407628 33 26
-11.739526 -6.9316783 -0.63505679 1 12
-11.905122 -6.2662406 -0.70507008 1 11
-9.319417 -5.5027094 1.3288634 2 29
-26.547373 -13.973165 2.4490709 5 28
-9.8776121 -6.5031948 -0.4818114 11 13
-13.521895 -6.2938743 -0.52084011 2 14
-37.844902 -22.345764 11.776267 22 31
-12.69947 -7.4984832 -0.34317786 1 16
-9.8902149 -6.462121 -0.20621765 11 17
-14.578967 -7.6087484 -0.47859749 1 15
-4.912415 -2.87749 -1.5937296 0 1
-6.9996901 -3.6531315 -1.5791365 0 2
-35.626041 -20.868263 0 13 20
-7.9054003 -4.6306572 -1.4253609 2 3
-10.665739 -5.5664392 -1.531381 1 4
-9.9987068 -6.5330081 0.069417499 2 21
-13.212571 -6.895628 -0.086620763 1 19
-11.578272 -6.7820735 -1.4453819 4 5
-14.383048 -6.6337237 -1.4785544 2 6
-39.857101 -23.346645 1.0748502 11 24
-65.372971 -30.151207 0.83811146 50 22
-11.544578 -6.7623367 -0.93557382 11 8
-57.395638 -29.954727 1.1300783 27 23
-9.8347101 -6.4258547 -0.75290823 10 9
-13.590757 -6.2683048 -0.87162024 2 10
-26.059288 -15.264455 1.7588217 5 27
-57.406406 -29.960346 2.6381578 33 26
-11.742963 -6.8785429 -0.63394004 1 12
-11.930462 -6.2264962 -0.70527941 1 11
-19.081371 -11.177079 2.7152491 5 29
-26.005745 -13.572372 2.3947194 4 28
-9.8333349 -6.4249568 -0.47855484 10 13
-13.765216 -6.3487682 -0.52935559 2 14
-38.422745 -22.506458 11.931559 23 31
-9.8489532 -6.3862157 -0.20489125 11 17
-14.587682 -7.5486231 -0.47801566 1 15
-4.9190998 -2.8583901 -1.5926514 0 1
-7.0298181 -3.6376889 -1.583059 0 2
-35.805882 -20.806078 0 13 20
-14.849742 -6.7862091 -0.19007562 1 18
-7.9454379 -4.6169343 -1.4296652 2 3
-10.7133 -5.5437636 -1.5354217 1 4
-9.9912453 -6.4784799 0.069208279 2 21
-13.215247 -6.8384356 -0.086481288 1 19
-11.619069 -6.7516074 -1.4475238 4 5
-14.453208 -6.6049962 -1.4833875 2 6
-65.557861 -29.9594 0.83913583 50 22
-11.575013 -6.7260075 -0.93613189 16 8
-11.847406 -6.1306252 -1.0889822 3 7
-57.432362 -29.719271 1.1287519 27 23
-9.8034906 -6.3567371 -0.74881494 9 9
-13.859529 -6.3336897 -0.88743407 2 10
-25.708452 -14.938665 1.7316128 5 27
-57.421894 -29.713854 2.6340868 33 26
-11.756537 -6.8314877 -0.63338166 1 12
-11.966314 -6.1921558 -0.7061168 1 11
-19.058481 -11.074501 2.7064745 5 29
-26.276033 -13.596942 2.4152231 5 28
-9.7986946 -6.3536272 -0.47578675 11 13
-14.07453 -6.4319434 -0.54038382 2 14
-39.095715 -22.717733 12.115838 24 31
-57.27142 -29.635988 11.757271 39 30
-13.515629 -7.8536606 -0.36374247 1 16
-9.8117485 -6.311131 -0.20363468 11 17
-4.9228678 -2.8364949 -1.5904946 0 1
-7.0256524 -3.6029491 -1.5791365 0 2
-36.082916 -20.790527 0 13 20
-18.769875 -8.4946527 -0.23985288 2 18
-7.9760046 -4.5956745 -1.4321249 2 3
-10.737077 -5.5062704 -1.5359267 1 4
-9.9745541 -6.4158511 0.0689293 1 21
-13.247342 -6.7936034 -0.08652778 1 19
-11.636845 -6.7050047 -1.4466671 4 5
-14.480947 -6.5536199 -1.4837592 2 6
-41.121525 -23.693708 1.1043478 12 24
-65.998825 -29.868988 0.84337324 51 22
-11.5823 -6.6735768 -0.93473673 13 8
-11.915915 -6.1108108 -1.0932132 1 7
-33.560066 -21.586567 1.1612941 7 25
-57.49464 -29.484844 1.1278443 27 23
-9.7595787 -6.2775741 -0.7436983 10 9
-14.446542 -6.5380492 -0.92348027 2 10
-25.385895 -14.627036 1.7062641 5 27
-57.505524 -29.490425 2.632947 33 26
-11.760724 -6.7763824 -0.63226491 1 12
-12.006702 -6.1573691 -0.70716351 1 11
-19.061106 -10.982771 2.7011125 5 29
-26.04899 -13.358644 2.3898375 4 28
-9.7681341 -6.2830768 -0.47318149 12 13
-14.52776 -6.5748057 -0.55685633 2 14
-39.707661 -22.879059 12.279411 25 31
-57.330639 -29.400738 11.747226 39 30
-13.526999 -7.7940884 -0.36327723 1 16
-9.773037 -6.2381101 -0.20237811 12 17
-4.9227066 -2.8135595 -1.5872599 0 1
-7.0451794 -3.5819583 -1.5807055 0 2
-13.20704 -7.5484476 0 1 20
-18.945398 -8.4945374 -0.24171548 2 18
-8.0057249 -4.5756502 -1.4345846 2 3
-10.73501 -5.4579673 -1.5328963 1 4
-9.9328279 -6.3401041 0.068487592 1 21
-13.238885 -6.7310042 -0.086318545 1 19
-11.663632 -6.666317 -1.4470955 4 5
-14.52554 -6.5128083 -1.4859899 3 6
-66.792473 -29.947704 0.85217386 52 22
-11.595132 -6.6271658 -0.93389964 12 8
-11.947834 -6.0745993 -1.0941895 1 7
-33.726212 -21.527372 1.164436 7 25
-57.529484 -29.249535 1.126518 27 23
-9.7208652 -6.2048092 -0.73909342 10 9
-14.83365 -6.6509552 -0.94673586 2 10
-25.897898 -14.801873 1.7371941 5 27
-57.50124 -29.235174 2.6280625 33 26
-11.7739 -6.7293401 -0.63170654 1 12
-12.053047 -6.1280928 -0.70862895 1 11
-19.095879 -10.914197 2.7006249 5 29
-25.864466 -13.150188 2.3686826 4 28
-9.7293663 -6.2102351 -0.47025058 15 13
-14.813255 -6.6418109 -0.56690747 2 14
-40.33741 -23.054737 12.449197 26 31
-57.373283 -29.170116 11.735028 39 30
-13.647863 -7.8003993 -0.36578962 1 16
-9.728406 -6.1666918 -0.20105173 11 17
-4.9382219 -2.8018818 -1.5894164 0 1
-7.0388875 -3.5509741 -1.5767831 0 2
-13.143714 -7.4575701 0 1 20
-18.858694 -8.3846045 -0.24027197 2 18
-8.0338106 -4.5582781 -1.4370443 2 3
-10.762732 -5.4295769 -1.5344115 1 4
-9.9121561 -6.2831688 0.068208627 1 21
-13.270679 -6.6947846 -0.08638829 1 19
-11.687977 -6.6316037 -1.4475238 4 5
-14.585962 -6.484941 -1.4900795 3 6
-42.397701 -24.055897 1.1343107 12 24
-67.452721 -29.989582 0.85939139 53 22
-11.612425 -6.5887365 -0.93362063 8 8
-11.995334 -6.0513992 -1.0967932 1 7
-34.536617 -21.892248 1.1900356 7 25
-57.560383 -29.038031 1.1253312 27 23
-9.6829958 -6.137907 -0.73474431 10 9
-15.288683 -6.7973719 -0.97441006 2 10
-25.419832 -14.422877 1.7020781 5 27
-57.528572 -29.021982 2.6251316 33 26
-11.781082 -6.6844306 -0.63096201 1 12
-12.093638 -6.1009922 -0.709885 1 11
-19.092089 -10.832599 2.6952627 5 29
-25.877174 -13.054503 2.3660791 4 28
-9.6846914 -6.1389823 -0.4671568 12 13
-16.806564 -7.4722238 -0.64229035 2 14
-40.960758 -23.240595 12.618981 27 31
-57.401398 -28.957825 11.722115 39 30
-13.720995 -7.7851114 -0.36709237 1 16
-9.705863 -6.1050138 -0.2001442 13 17
-4.9479718 -2.784627 -1.5894164 0 1
-7.0617642 -3.5316448 -1.5791365 0 2
-13.176638 -7.4155674 0 1 20
-8.1185617 -4.5689764 -1.4493424 2 3
-10.824206 -5.4132719 -1.5404724 1 4
-9.8798561 -6.2144556 0.067836665 1 21
-13.293967 -6.6484194 -0.08638829 1 19
-11.714519 -6.5927138 -1.4479522 4 5
-14.67776 -6.4644866 -1.4971433 1 6
-11.617965 -6.5383754 -0.93222553 5 8
-12.002122 -6.0023575 -1.0954914 1 7
-57.843826 -28.92816 1.1288915 27 23
-9.6976042 -6.0998187 -0.7342326 13 9
-16.657171 -7.3362727 -1.0599906 3 10
-19.320885 -10.873436 1.2911514 3 27
-57.697445 -28.854954 2.6282251 33 26
-11.779968 -6.6295481 -0.62965918 1 12
-12.147015 -6.0748191 -0.71176904 1 11
-25.779713 -14.508344 3.632194 9 29
-25.926153 -12.965876 2.3664045 4 28
-9.6959124 -6.0987544 -0.46666831 13 13
-16.876446 -7.432848 -0.64396554 2 14
-41.307636 -23.247171 12.700768 28 31
-57.709789 -28.861126 11.764445 39 30
-9.7339001 -6.0753317 -0.20028383 22 17
-4.9475722 -2.7617061 -1.5861815 0 1
-7.0916209 -3.5156841 -1.583059 0 2
-13.195457 -7.3656278 0 1 20
-18.062582 -7.8800883 -0.22942246 2 18
-8.2207422 -4.5887704 -1.4647152 2 3
-10.889253 -5.3983674 -1.5470383 1 4
-9.8607683 -6.1545153 0.067557693 1 21
-11.747879 -6.5575981 -1.4492373 4 5
-14.733091 -6.4275455 -1.5004891 1 6
-43.727371 -24.408363 1.1652973 13 24
-11.637234 -6.4958363 -0.93194652 4 8
-34.725922 -21.673893 1.1913157 16 25
-58.367271 -28.935682 1.1371291 27 23
-9.7289963 -6.0722713 -0.73500013 10 9
-16.785162 -7.322794 -1.0665023 3 10
-26.332327 -14.698552 1.7562637 5 27
-58.213184 -28.859293 2.6471131 33 26
-11.796061 -6.5844927 -0.62928689 1 12
-12.193198 -6.0448003 -0.71323448 1 11
-26.225403 -14.638867 3.6877668 10 29
-25.824808 -12.802696 2.3530607 4 28
-9.7374849 -6.077569 -0.46764529 9 13
-16.927938 -7.3850822 -0.6449427 2 14
-43.254192 -24.144239 13.273277 32 31
-58.33197 -28.918182 11.870631 40 30
-9.766305 -6.0459299 -0.20049325 16 17
-4.9745126 -2.7528791 -1.591573 0 1
-7.0833349 -3.4792926 -1.5783521 0 2
-13.162868 -7.2842889 0 1 20
-18.693529 -8.0739231 -0.23705903 2 18
-8.3585434 -4.6255908 -1.4862369 1 3
-10.844857 -5.3269305 -1.5379469 1 4
-34.088066 -21.102564 0.23301126 13 21
-13.344792 -6.554884 -0.086411543 2 19
-11.778795 -6.5183473 -1.4500942 4 5
-14.771173 -6.379818 -1.5019761 1 6
-11.650491 -6.4473438 -0.93110943 2 8
-12.109176 -5.9479561 -1.1013496 3 7
-34.981911 -21.655907 1.1973665 8 25
-45.880196 -22.536083 0.89223683 12 23
-9.7749462 -6.0512795 -0.7367909 3 9
-17.152819 -7.4084744 -1.08813 3 10
-26.17639 -14.485929 1.7423104 5 27
-59.290726 -29.123257 2.6912398 34 26
-11.823612 -6.543149 -0.62947303 1 12
-12.261881 -6.022964 -0.71595591 1 11
-26.258038 -14.531114 3.6848419 10 29
-25.785677 -12.665773 2.3452497 4 28
-9.7732887 -6.0502534 -0.46829662 12 13
-17.112698 -7.3911452 -0.65094543 3 14
-43.359295 -23.994894 13.278453 32 31
-58.960316 -28.960962 11.976818 41 30
-13.757616 -7.61342 -0.36588266 1 16
-9.8009796 -6.020175 -0.20077249 17 17
-13.95172 -6.7926555 -0.45160148 1 15
-4.9705844 -2.7280846 -1.5872599 0 1
-7.1095433 -3.4614139 -1.5814899 0 2
-13.191721 -7.240221 0 1 20
-20.402166 -8.7275238 -0.25833893 2 18
-8.4855146 -4.6572394 -1.5059141 0 3
-10.856251 -5.2855682 -1.5369369 1 4
-34.141068 -20.970882 0.23287177 13 21
-13.378382 -6.5135145 -0.086481288 2 19
-11.797989 -6.4752774 -1.4496657 4 5
-14.829972 -6.3438821 -1.505694 1 6
-26.215042 -14.388018 0.69584703 5 24
-11.662431 -6.4008765 -0.93027234 4 8
-12.212309 -5.9457903 -1.1088351 1 7
-36.276966 -22.282843 1.239024 8 25
-59.806206 -29.117767 1.1610737 29 23
-9.8164177 -6.0296574 -0.73832589 11 9
-17.450258 -7.4647732 -1.1053392 3 10
-25.323627 -13.898767 1.6823108 4 27
-60.038837 -29.231028 2.7205491 35 26
-11.846379 -6.5018363 -0.62947303 1 12
-12.318746 -5.997611 -0.71804935 1 11
-26.242472 -14.403071 3.6755798 10 29
-25.822563 -12.572196 2.3445988 4 28
-9.8181868 -6.0307441 -0.46943641 17 13
-17.689701 -7.5672007 -0.67188513 3 14
-43.510529 -23.880571 13.299158 32 31
-59.609455 -29.021975 12.088027 42 30
-13.80514 -7.5768943 -0.36644098 1 16
-9.8355932 -5.9942536 -0.20105173 17 17
-14.097777 -6.8029971 -0.45555776 1 15
-4.9800763 -2.7107184 -1.5872599 0 1
-7.1109838 -3.431463 -1.5791365 0 2
-13.206372 -7.1883955 0 1 20
-20.590866 -8.7233496 -0.2603412 2 18
-8.5919781 -4.6767225 -1.5219017 1 3
-10.867486 -5.2441936 -1.5359267 1 4
-9.3040924 -5.6703329 0.06332662 1 21
-13.411842 -6.4719939 -0.086551026 1 19
-11.837984 -6.4435644 -1.4518077 4 5
-14.866693 -6.2982945 -1.5071812 1 6
-50.584385 -27.53372 1.340143 37 24
-11.681197 -6.3582234 -0.92999333 4 8
-12.311979 -5.9412456 -1.1159952 1 7
-9.2798271 -5.6555448 0.31627229 0 25
-60.469383 -29.179993 1.1719639 30 23
-9.8544464 -6.0057435 -0.73960501 10 9
-17.52033 -7.4225121 -1.1081299 3 10
-26.364559 -14.350563 1.7481241 5 27
-60.846008 -29.361734 2.7524638 35 26
-11.869001 -6.4604478 -0.62947303 1 12
-12.415154 -5.9910331 -0.72244561 1 11
-25.954336 -14.127274 3.6282945 9 29
-60.823833 -29.351036 5.513257 51 28
-9.8425894 -5.998517 -0.46959922 7 13
-60.323505 -29.109598 12.212149 43 30
-13.799892 -7.511456 -0.36560351 1 16
-4.9822598 -2.6905284 -1.5851032 0 1
-7.1223245 -3.4078631 -1.5791365 0 2
-13.209022 -7.1331577 0 1 20
-22.644403 -9.5048857 -0.28590503 3 18
-8.7013397 -4.6989121 -1.5385042 0 3
-10.888397 -5.2098393 -1.5364318 1 4
-13.559517 -6.4879069 -0.087364696 1 19
-11.859288 -6.4042726 -1.4518077 4 5
-14.872808 -6.242794 -1.505694 1 6
-50.74931 -27.405725 1.342097 37 24
-12.594141 -6.0259976 -1.1397536 1 7
-61.247669 -29.305555 1.185158 30 23
-21.164278 -8.8836098 -1.3367324 4 10
-25.168179 -13.591361 1.6657993 4 27
-61.007935 -29.190847 2.7553947 35 26
-11.897391 -6.424849 -0.62984526 1 12
-12.525034 -5.9929314 -0.72767919 1 11
-26.165232 -14.129792 3.6512058 9 29
-61.021526 -29.197351 5.5223699 52 28
-9.26056 -5.6017714 -0.4409413 2 13
-21.71064 -9.1129427 -0.82223219 4 14
-60.984116 -29.179451 12.326228 44 30
-13.821209 -7.4637523 -0.36551046 1 16
-9.2897711 -5.5752411 -0.18911427 3 17
-5.0018082 -2.6785758 -1.588338 0 1
-7.1270895 -3.3796198 -1.5775677 0 2
-13.188 -7.0624571 0 1 20
-22.751314 -9.4564867 -0.2868363 3 18
-8.7420788 -4.681571 -1.5428087 0 3
-10.899346 -5.1683998 -1.5354217 1 4
-9.2807398 -5.5698214 0.062908158 2 21
-13.824231 -6.5553617 -0.088922292 1 19
-11.885077 -6.3647137 -1.4522361 4 5
-14.876121 -6.1831965 -1.5038351 1 6
-57.278248 -30.673731 1.5119181 41 24
-42.374321 -17.612707 0.53423262 16 22
-11.717171 -6.2747965 -0.92943525 27 8
-12.665532 -6.0059137 -1.1443101 1 7
-9.2941103 -5.5778456 0.31545776 1 25
-61.638691 -29.228668 1.1907429 31 23
-9.2584715 -5.556457 -0.69202065 2 9
-21.18041 -8.8035479 -1.3358023 4 10
-25.391479 -13.597683 1.6774272 4 27
