# .PCD v0.7 - Point Cloud Data file format
VERSION 0.7
FIELDS x y z intensity ring
SIZE 4 4 4 4 2
TYPE F F F F U
COUNT 1 1 1 1 1
WIDTH 1269
HEIGHT 1
VIEWPOINT 0 0 0 1 0 0 0
POINTS 1269
DATA ascii
-2.2159863 -5.8924141 -1.259073 5 2
-2.8868606 -8.9861298 -1.4684045 1 3
-27.943386 -74.302811 -10.104488 63 4
-2.965606 -9.2312469 -1.0444106 1 5
-3.9843647 -9.2029171 -0.93613273 1 6
-2.9523063 -9.1898479 -0.67496365 0 8
-3.9965041 -9.2309561 -0.58580881 2 10
-2.9575319 -9.2061138 -0.45042127 1 12
-1.2093718 -3.1820219 -1.5873543 12 0
-2.4951642 -9.1774035 -0.16600728 1 17
-1.7125815 -5.2676582 -1.5505975 1 1
-2.2393277 -5.8919764 -1.2606421 5 2
-2.9145436 -8.9647226 -1.4665599 1 3
-28.160286 -74.093544 -10.089337 63 4
-2.9818249 -9.1716709 -1.0388415 1 5
-4.0228438 -9.2035503 -0.93761981 0 6
-2.9908836 -9.1995344 -0.45060739 1 12
-3.5137718 -9.2452126 -0.51833534 0 11
-1.2251139 -3.1915317 -1.5941161 6 0
-2.5287704 -9.1806469 -0.16621672 1 17
-1.73365 -5.2729278 -1.5538325 1 1
-2.2602596 -5.8881793 -1.2614264 5 2
-2.9380836 -8.9362345 -1.4634854 1 3
-42.399372 -96.132278 -9.8078299 63 6
-3.0263665 -9.2047491 -0.45135191 1 12
-3.5444109 -9.2335091 -0.51833534 1 11
-1.2349361 -3.1838558 -1.5924257 1 0
-2.5651042 -9.1871729 -0.16649596 1 17
-1.7483977 -5.2558784 -1.5505975 1 1
-2.2850549 -5.8912244 -1.2637799 6 2
-2.9717543 -8.9334249 -1.4647152 1 3
-42.550022 -95.568924 -9.7654486 63 6
-3.0820463 -9.2649746 -0.68277633 0 8
-4.1254539 -9.2659225 -0.59069252 1 10
-3.0610011 -9.2017107 -0.45172414 1 12
-2.5827143 -9.2502451 -0.39127842 0 13
-4.1006594 -9.2102327 -0.35206613 2 14
-1.2428432 -3.1729922 -1.5890448 1 0
-2.5977328 -9.1863117 -0.16663557 1 17
-1.7719574 -5.2683063 -1.555989 1 1
-2.3074396 -5.8909183 -1.2653488 5 2
-3.0026228 -8.9272671 -1.46533 1 3
-28.788765 -73.498032 -10.047416 62 4
-3.1036761 -9.2277145 -1.0486944 1 5
-2.6036713 -9.2073126 -0.61322492 0 9
-4.1528859 -9.2449055 -0.59022737 1 10
-3.0953207 -9.2028723 -0.45228252 1 12
-2.6090257 -9.2262468 -0.39062712 1 13
-4.1672168 -9.2768078 -0.35513729 1 14
-1.2550175 -3.1681967 -1.5890448 2 0
-2.6362953 -9.1878023 -0.16684501 1 17
-1.7859633 -5.2432327 -1.5505975 1 1
-2.3329315 -5.8893089 -1.2669178 6 2
-3.0368788 -8.9156723 -1.46533 0 3
-28.971392 -73.136086 -10.01307 62 4
-3.1365204 -9.2081995 -1.0478376 2 5
-4.1855192 -9.2226458 -0.94542718 0 6
-2.6357026 -9.1857367 -0.61245745 0 9
-3.1344991 -9.2022657 -0.45284089 2 12
-3.6734083 -9.273241 -0.5227316 1 11
-2.6708875 -9.3083601 -0.39453501 0 13
-1.2668626 -3.1673834 -1.5907352 1 0
-2.670095 -9.1905317 -0.16705443 1 17
-1.8033402 -5.2372818 -1.5505975 1 1
-2.358274 -5.8961077 -1.2700557 6 2
-3.0625665 -8.8943415 -1.4634854 1 3
-29.193123 -72.988037 -10.006 62 4
-30.278486 -87.935135 -10.017859 44 5
-43.274899 -94.520599 -9.7041054 63 6
-3.1728022 -9.214489 -0.45395765 1 12
-1.2792693 -3.1663029 -1.5924257 2 0
-2.7055483 -9.1926651 -0.16726387 1 17
-1.8203442 -5.2273169 -1.5495192 1 1
-2.3788412 -5.8878393 -1.2700557 6 2
-3.0935953 -8.8835964 -1.4634854 0 3
-30.526402 -87.659897 -9.9985819 44 5
-43.569496 -94.293045 -9.6962976 63 6
-4.2929482 -9.2907934 -0.59604132 1 10
-3.2062614 -9.2071295 -0.45414376 1 12
-1.2916837 -3.1651745 -1.5941161 1 0
-2.7410481 -9.194663 -0.1674733 1 17
-1.8411388 -5.2281976 -1.5516758 1 1
-2.4053068 -5.8940253 -1.2731935 4 2
-4.3797188 -9.3923368 -0.12064819 0 18
-3.1285245 -8.8839273 -1.46533 0 3
-3.7631581 -9.2213383 -1.2677331 1 4
-3.270803 -9.2879496 -1.0606892 1 5
-4.298779 -9.2187614 -0.94951665 0 6
-2.7620823 -9.2652216 -0.61962074 0 9
-3.2436898 -9.2109575 -0.45488825 1 12
-1.2994112 -3.15417 -1.5907352 1 0
-2.7761447 -9.200839 -0.16775253 1 17
-1.8558832 -5.2148056 -1.5495192 1 1
-2.4293218 -5.8968973 -1.2755469 4 2
-4.3597698 -9.2691822 -0.11925126 0 18
-3.1553175 -8.8660574 -1.4641002 0 3
-29.702839 -72.100204 -9.9256926 61 4
-4.3344116 -9.2152691 -0.95063204 0 6
-3.2978785 -9.2666368 -0.68779886 0 8
-3.2782359 -9.2114429 -0.45544663 1 12
-3.8114779 -9.2519207 -0.52440631 1 11
-1.3090205 -3.1462681 -1.5890448 1 0
-2.8094125 -9.1949158 -0.16782233 1 17
-1.870162 -5.1974225 -1.5462843 1 1
-2.4559174 -5.9028673 -1.2786849 5 2
-4.383523 -9.2358398 -0.11901844 0 18
-3.1862459 -8.85499 -1.4641002 0 3
-44.206852 -93.14138 -9.6241732 63 6
-3.3171337 -9.2187443 -0.45637727 1 12
-1.3219482 -3.1447911 -1.5907352 1 0
-2.8490081 -9.203661 -0.16817139 1 17
-1.8918339 -5.197772 -1.5484409 1 1
-2.4790556 -5.8974419 -1.2794693 5 2
-4.4173446 -9.2197113 -0.11901844 0 18
-3.2173278 -8.8395376 -1.4634854 0 3
-31.480743 -86.492653 -9.9146175 44 5
-3.863852 -9.1917429 -0.81397027 1 7
-4.4395037 -9.2659607 -0.59836686 1 10
-3.3536327 -9.2140322 -0.45674953 1 12
-1.3329177 -3.1401575 -1.5907352 2 0
-2.884706 -9.2051086 -0.16838083 1 17
-1.9086362 -5.1875219 -1.5473626 2 1
-2.4996266 -5.888752 -1.2794693 5 2
-4.4442787 -9.1934328 -0.11887875 0 18
-3.2481644 -8.8282537 -1.4634854 0 3
-3.9132473 -9.2190342 -1.2748041 1 4
-4.4530749 -9.211628 -0.95509326 1 6
-3.394969 -9.2272568 -0.68751985 1 8
-4.4648695 -9.2360268 -0.59743661 1 10
-3.3912945 -9.2172699 -0.45749402 1 12
-3.4092422 -9.2660503 -0.22974677 0 16
-1.3438704 -3.1354856 -1.5907352 2 0
-2.9192379 -9.2026081 -0.16852044 1 17
-1.9280745 -5.1844382 -1.5484409 2 1
-2.5263474 -5.8944125 -1.2826072 5 2
-4.5008883 -9.2281923 -0.11953065 0 18
-3.2748268 -8.805747 -1.4616406 0 3
-30.570621 -71.32663 -9.8777113 60 4
-3.426856 -9.2145414 -1.0589757 2 5
-4.4939308 -9.2139263 -0.95695221 0 6
-3.4257655 -9.2116098 -0.68724078 0 8
-3.4290183 -9.220356 -0.45823851 1 12
-3.9890952 -9.3072596 -0.53068662 1 11
-1.3542608 -3.131012 -1.5907352 2 0
-2.9521828 -9.2004938 -0.16866006 1 17
-2.5474372 -5.8896017 -1.2833916 5 2
-4.573833 -9.2993546 -0.12064819 0 18
-3.3109603 -8.8133392 -1.4647152 0 3
-30.799107 -71.20665 -9.875185 60 4
-3.4378135 -9.1510057 -1.0529783 1 5
-45.100475 -91.696678 -9.5390358 63 6
-2.9587834 -9.2210646 -0.62064403 0 9
-3.4651964 -9.223896 -0.458983 1 12
-3.9945652 -9.2353201 -0.52733713 2 11
-1.3628248 -3.1193833 -1.5873543 1 0
-2.9908285 -9.2048244 -0.16893929 1 17
-1.9669576 -5.1780529 -1.5505975 4 1
-2.5752881 -5.8946028 -1.2865295 5 2
-4.5652037 -9.1965456 -0.11953065 0 18
-3.3418372 -8.7974491 -1.4641002 0 3
-4.0254583 -9.213912 -1.2798548 2 4
-32.453697 -85.434967 -9.8443613 44 5
-45.30167 -91.259644 -9.5107813 63 6
-4.0333104 -9.231885 -0.82243216 1 7
-4.591526 -9.2495708 -0.60139012 1 10
-3.5032375 -9.2223387 -0.45954138 1 12
-1.3746241 -3.1181641 -1.5890448 1 0
-3.0225852 -9.1986561 -0.1690091 1 17
-1.9868773 -5.1786947 -1.5527542 3 1
-2.5948215 -5.8860302 -1.2865295 5 2
-4.6225305 -9.2350063 -0.12022911 0 18
-3.3738239 -8.7937002 -1.46533 0 3
-4.0591922 -9.2077732 -1.2808648 1 4
-3.5433083 -9.2354527 -0.69170517 0 8
-4.6203861 -9.2307224 -0.60115749 1 10
-3.5380945 -9.2218628 -0.46009976 1 12
-1.388448 -3.1199706 -1.5924257 1 0
-3.0571995 -9.1956387 -0.16914873 1 17
-4.1128201 -9.2418861 -0.29439622 0 15
-1.9965885 -5.150178 -1.5462843 2 1
-2.6185412 -5.8841033 -1.2880985 5 2
-4.665555 -9.2402363 -0.1205085 0 18
-3.4016421 -8.774498 -1.4641002 0 3
-31.359171 -70.466949 -9.8176079 59 4
-3.5751414 -9.2220383 -1.0654016 1 5
-4.6654205 -9.2399702 -0.96624666 0 6
-3.5639865 -9.193264 -0.68947303 0 8
-3.0702953 -9.2350302 -0.62371403 0 9
-3.5789292 -9.2318087 -0.46121651 1 12
-4.1300354 -9.28057 -0.53236145 1 11
-1.3973019 -3.1120424 -1.5907352 2 0
-3.0940485 -9.2044058 -0.16949777 1 17
-2.0206773 -5.1614637 -1.5516758 2 1
-2.6428595 -5.8861227 -1.2904519 4 2
-4.6907277 -9.2140207 -0.1203688 0 18
-3.4422479 -8.7926149 -1.4690195 0 3
-3.5984542 -9.1916161 -1.0632596 1 5
-45.892506 -90.146889 -9.4427462 63 6
-3.1009033 -9.2247982 -0.62371403 0 9
-3.6138937 -9.2310534 -0.46177489 0 12
-1.4101954 -3.1102018 -1.5924257 2 0
-3.1316276 -9.2043629 -0.16970721 1 17
-2.0438333 -5.1647677 -1.5549107 4 1
-2.6692739 -5.8871136 -1.2928053 6 2
-4.7409158 -9.2287874 -0.12078788 0 18
-2.389503 -6.0382752 -1.0102968 0 3
-33.392948 -84.384003 -9.7753906 44 5
-4.7662101 -9.2780266 -0.97368217 0 6
-4.1964316 -9.2552776 -0.82959217 1 7
-4.749639 -9.2457685 -0.60534352 2 10
-3.6550531 -9.2363214 -0.46270549 0 12
-1.4189935 -3.1022112 -1.5907352 1 0
-3.1634343 -9.1977091 -0.16977702 1 17
-2.0566614 -5.1472306 -1.5516758 4 1
-2.6920447 -5.8853626 -1.2943742 6 2
-4.7714939 -9.2130146 -0.12078788 0 18
-2.413913 -6.0413284 -1.0121415 1 3
-4.2121682 -9.2086649 -1.288946 1 4
-3.6851125 -9.2227745 -0.69449544 0 8
-48.9939 -107.11073 -9.6153288 29 7
-4.783946 -9.2370577 -0.60580862 1 10
-3.6945577 -9.2464132 -0.46382225 1 12
-1.4298136 -3.0972395 -1.5907352 1 0
-3.1994627 -9.1979437 -0.16998644 1 17
-2.0746162 -5.1400204 -1.5516758 4 1
-2.7158599 -5.8830523 -1.2959431 6 2
-4.8054757 -9.1998472 -0.12083445 0 18
-2.429069 -6.0182052 -1.0096819 2 3
-32.119873 -69.57756 -9.7544737 59 4
-3.7213023 -9.2198124 -1.0709705 1 5
-3.7172835 -9.2098551 -0.69449544 0 8
-3.2117589 -9.2332926 -0.62652808 0 9
-3.7193339 -9.2149343 -0.46289164 0 12
-4.3044786 -9.3242931 -0.53822303 1 11
-1.4390851 -3.0889437 -1.5890448 2 0
-3.2381847 -9.2055826 -0.17033549 1 17
-2.0896366 -5.1256137 -1.5495192 2 1
-2.7396913 -5.8806472 -1.2975121 5 2
-4.8543372 -9.2148666 -0.12125353 0 18
-2.4634902 -6.0426292 -1.015216 2 3
-32.36422 -69.468613 -9.7549782 59 4
-3.7549636 -9.2104492 -1.071399 1 5
-46.584225 -88.429672 -9.3300982 63 6
-3.239995 -9.2107286 -0.62576061 0 9
-4.9153171 -9.3306236 -0.61418062 1 10
-3.7635436 -9.2314949 -0.46438062 0 12
-4.3083224 -9.2476568 -0.53466421 2 11
-4.8684773 -9.2417097 -0.36476955 1 14
-1.4529437 -3.0904627 -1.5924257 1 0
-3.2783408 -9.2168322 -0.17075434 1 17
-2.1119158 -5.1289735 -1.5527542 4 1
-2.765209 -5.8816972 -1.2998655 6 2
-4.9089923 -9.2402515 -0.12181231 0 18
-2.4800537 -6.0230293 -1.0133713 2 3
-4.3370681 -9.2250977 -1.2975323 2 4
-34.273102 -83.235252 -9.6961393 44 5
-4.9142332 -9.2501173 -0.97777164 0 6
-4.3321228 -9.2145786 -0.83121949 2 7
-3.8079157 -9.247859 -0.46586961 0 12
-4.3575721 -9.2687101 -0.53675765 1 11
-4.930716 -9.2811432 -0.36700311 1 14
-1.4627067 -3.0818417 -1.5907352 1 0
-3.3134542 -9.2085171 -0.17082416 1 17
-2.1277411 -5.1140862 -1.5505975 3 1
-2.7968385 -5.8927832 -1.3045723 6 2
-4.944716 -9.2257233 -0.12185887 0 18
-2.4975579 -6.0029516 -1.0115266 2 3
-4.3725524 -9.2127247 -1.2980374 1 4
-4.9386969 -9.2144928 -0.97591281 1 6
-3.8396482 -9.2287045 -0.69895989 1 8
-3.8402505 -9.2301512 -0.46568349 1 12
-1.4734552 -3.0767171 -1.5907352 1 0
-3.3510456 -9.2119284 -0.1711034 1 17
-2.1455791 -5.1066279 -1.5505975 2 1
-2.8224733 -5.8935976 -1.3069258 5 2
-4.9730844 -9.2013693 -0.12176573 0 18
-2.5169654 -5.9905529 -1.0109117 2 3
-32.889442 -68.676346 -9.6923494 58 4
-3.8728344 -9.2176161 -1.0769681 1 5
-47.174595 -87.284027 -9.2616911 45 6
-3.86411 -9.1968517 -0.69756472 1 8
-3.3774455 -9.2845011 -0.63317972 0 9
-3.8801847 -9.2351103 -0.46661413 0 12
-4.4375877 -9.2661133 -0.53843236 1 11
-3.3624411 -9.2432537 -0.40072253 1 13
-1.48365 -3.0718143 -1.5907352 1 0
-3.3857148 -9.2120285 -0.17131284 1 17
-2.1625018 -5.0994849 -1.5505975 2 1
-2.8454137 -5.8912697 -1.3084947 5 2
-5.0093112 -9.195365 -0.12190542 0 18
-2.5414464 -5.9930902 -1.0127565 2 3
-3.9002748 -9.1973991 -1.0761112 1 5
-47.360909 -86.938271 -9.2416153 45 6
-5.0546651 -9.2786198 -0.61534345 1 10
-3.9201477 -9.2442627 -0.46773085 0 12
-4.4682913 -9.2513475 -0.53843236 2 11
-3.3944535 -9.2358055 -0.40088534 0 13
-1.4927757 -3.0633576 -1.5890448 1 0
-3.4248142 -9.2188978 -0.17166187 1 17
-2.1757407 -5.0812821 -1.5473626 4 1
-2.8693972 -5.8883529 -1.3100636 5 2
-5.0567846 -9.2058687 -0.12227795 0 18
-2.5654624 -5.9914484 -1.0139862 5 3
-35.115692 -82.010109 -9.6096048 44 5
-5.0735855 -9.236455 -0.98372012 0 6
-4.5144949 -9.2642946 -0.84130871 1 7
-5.0716429 -9.2329178 -0.61348295 1 10
-3.966548 -9.2635803 -0.46940598 0 12
-1.5061233 -3.0648978 -1.5924257 1 0
-3.4581759 -9.2149801 -0.17180149 1 17
-2.1971622 -5.0846472 -1.5505975 3 1
-2.8923671 -5.8858461 -1.3116325 4 2
-5.0911574 -9.1960468 -0.12237107 0 18
-2.5837486 -5.9792805 -1.0133713 7 3
-33.381699 -67.930367 -9.6342659 57 4
-5.1003275 -9.2126102 -0.9829765 0 6
-4.0060763 -9.2708158 -0.70621455 1 8
-1.5173465 -3.0593569 -1.5924257 1 0
-3.4976029 -9.2171993 -0.17208073 1 17
-2.2127018 -5.069499 -1.5484409 3 1
-2.924377 -5.8962889 -1.3163394 3 2
-5.136529 -9.1982784 -0.12265046 0 18
-2.6119704 -5.9842596 -1.015831 5 3
-33.611057 -67.768448 -9.6287098 57 4
-4.0297832 -9.2325964 -1.0851074 1 5
-47.901703 -85.780334 -9.1713495 46 6
-4.019278 -9.2085276 -0.70258719 1 8
-4.598546 -9.2718401 -0.84488875 1 7
-3.5532875 -9.3639441 -0.64187789 1 9
-4.0503025 -9.2796078 -0.47163948 0 12
-4.5986457 -9.2720413 -0.5424099 1 11
-1.525862 -3.0510662 -1.5907352 1 0
-3.5295808 -9.2092848 -0.17215054 1 17
-2.2310534 -5.065659 -1.5495192 3 1
-2.9474227 -5.8935752 -1.3179083 3 2
-5.17485 -9.1951361 -0.12283671 0 18
-2.6349871 -5.9827995 -1.0170608 3 3
-4.6571875 -9.3123665 -1.3253113 1 4
-4.0475535 -9.1900654 -1.0816803 1 5
-5.209445 -9.2566071 -0.99152738 0 6
-5.2095337 -9.2567644 -0.61859924 1 10
-4.6257954 -9.2495966 -0.54199123 1 11
-1.5332373 -3.0392478 -1.5873543 1 0
-3.5689275 -9.2155561 -0.1724996 1 17
-2.2424634 -5.0437613 -1.5452061 3 1
-2.9768107 -5.9007597 -1.3218306 4 2
-5.2207332 -9.2013693 -0.12316267 0 18
-2.6558554 -5.9735651 -1.0170608 3 3
-35.894096 -80.733208 -9.5170727 44 5
-51.128025 -101.34813 -9.2667637 29 7
-3.5765789 -9.2353125 -0.63471472 0 9
-5.2516675 -9.2558889 -0.619762 1 10
-4.1360989 -9.3029375 -0.47424522 0 12
-4.1297159 -9.2885809 -0.2365396 0 16
-1.5454812 -3.0371082 -1.5890448 1 0
-3.6069038 -9.2179394 -0.17277883 1 17
-2.264787 -5.0464454 -1.5484409 2 1
-2.9973903 -5.8903322 -1.3218306 5 2
-5.2607636 -9.1969757 -0.12334893 0 18
-2.6750724 -5.9606519 -1.0164459 5 3
-48.442348 -84.687912 -9.1074038 47 6
-4.1498318 -9.2467413 -0.70872581 1 8
-4.1490154 -9.2449217 -0.2357952 1 16
-1.5560733 -3.0316949 -1.5890448 1 0
-3.6449399 -9.22017 -0.17305806 1 17
-2.2823887 -5.0385094 -1.5484409 2 1
-3.0215154 -5.8868132 -1.3233995 5 2
-5.3128166 -9.2132053 -0.12381457 0 18
-2.6991246 -5.9584789 -1.0176758 5 3
-34.304878 -66.836136 -9.5625458 56 4
-4.1878757 -9.2449865 -1.0932467 1 5
-48.624271 -84.32164 -9.0862122 47 6
-4.1689119 -9.2031221 -0.70649356 1 8
-4.7314086 -9.218195 -0.84586513 1 7
-4.199296 -9.2701969 -0.4740591 0 12
-4.751586 -9.2575064 -0.54534072 1 11
-1.5683131 -3.0294642 -1.5907352 1 0
-3.6785853 -9.2111044 -0.17312786 1 17
-2.2967591 -5.0235047 -1.5462843 1 1
-3.0474555 -5.8866801 -1.325753 4 2
-5.3469543 -9.1980619 -0.12386113 0 18
-2.7231944 -5.9562101 -1.0189055 6 3
-4.7885799 -9.249959 -1.3258165 1 4
-4.201932 -9.190527 -1.0885345 1 5
-5.386219 -9.2656069 -1.00045 0 6
-5.3764024 -9.2487192 -0.62301779 1 10
-4.7875447 -9.2479591 -0.54575938 1 11
-1.5755228 -3.017544 -1.5873543 1 0
-3.7122123 -9.2019167 -0.17319769 1 17
-2.3191223 -5.0259495 -1.5495192 2 1
-3.0698011 -5.8794832 -1.3265375 4 2
-5.3891401 -9.1965961 -0.12409396 0 18
-2.7472808 -5.953845 -1.0201353 7 3
-4.7969651 -9.1874599 -1.3192505 2 4
-36.754543 -79.653618 -9.4493876 44 5
-3.7051764 -9.1844759 -0.63471472 0 9
-5.4187479 -9.2471228 -0.62418056 1 10
-4.3107867 -9.3422394 -0.47927058 0 12
-1.5894239 -3.0184419 -1.5907352 1 0
-3.7503455 -9.2037182 -0.17347692 1 17
-4.932971 -9.368103 -0.30812696 1 15
-2.3268948 -4.9968729 -1.5430495 1 1
-3.0994415 -5.886085 -1.3304598 5 2
-5.4354472 -9.2018356 -0.12441991 1 18
-2.7713828 -5.951386 -1.0213652 7 3
-34.653465 -65.809677 -9.4670868 55 4
-49.21291 -83.314049 -9.0326767 47 6
-4.3071666 -9.2493935 -0.71346921 1 8
-4.3163805 -9.2691803 -0.47629258 1 12
-1.5999514 -3.0128748 -1.5907352 1 0
-3.791585 -9.21276 -0.17389578 1 17
-2.3492386 -4.9991775 -1.5462843 1 1
-3.1236501 -5.8821578 -1.3320287 3 2
-5.4736757 -9.1931152 -0.1245596 1 18
-2.7971845 -5.9524059 -1.0232099 7 3
-34.890434 -65.702316 -9.4691067 55 4
-4.3402295 -9.2360048 -1.0992442 1 5
-49.389351 -82.950104 -9.011858 47 6
-4.3275499 -9.2090216 -0.71151608 1 8
-4.9082699 -9.2427826 -0.85432708 1 7
-5.5158596 -9.2639637 -0.62790143 1 10
-4.330019 -9.2142763 -0.47424522 0 12
-4.9122281 -9.2502365 -0.54889959 2 11
-1.6104578 -3.007272 -1.5907352 1 0
-3.8329284 -9.2216291 -0.17431465 2 17
-2.3666737 -4.9909477 -1.5462843 1 1
-3.1497173 -5.8815923 -1.3343822 3 2
-5.5180798 -9.1945314 -0.12483899 1 18
-2.817944 -5.9426069 -1.0232099 6 3
-4.9397402 -9.2241735 -1.3318772 1 4
-4.3639207 -9.2028313 -1.0971023 1 5
-5.5458021 -9.2407236 -1.0060266 0 6
-4.9367371 -9.218565 -0.85367614 1 7
-5.5419965 -9.2343826 -0.62720376 3 10
-4.9463711 -9.2365561 -0.54910892 1 11
-1.6243906 -3.0080116 -1.5941161 1 0
-3.8697381 -9.2192554 -0.17452405 2 17
-2.3807561 -4.9757071 -1.5441277 1 1
-3.1739564 -5.8774643 -1.3359511 5 2
-5.5687723 -9.2060127 -0.12525806 1 18
-2.8437884 -5.9434299 -1.0250546 6 3
-4.9662528 -9.1964006 -1.3303621 1 4
-37.540382 -78.458244 -9.3688507 44 5
-5.5656562 -9.2008619 -1.003796 0 6
-53.176365 -98.470856 -9.1359291 29 7
-3.8809433 -9.2459507 -0.64264542 1 9
-4.4942656 -9.3928757 -0.48504046 0 12
-1.6291573 -2.9930561 -1.5890448 1 0
-3.90341 -9.2137375 -0.17466368 2 17
-2.3989174 -4.9712539 -1.5452061 1 1
-3.199055 -5.8772411 -1.3383045 4 2
-5.6117601 -9.2079887 -0.12553744 1 18
-2.8686354 -5.9446454 -1.0268993 6 3
-35.21418 -64.694809 -9.3756685 54 4
-49.932056 -81.930412 -8.9564629 48 6
-4.4741716 -9.2717838 -0.71988684 1 8
-4.4767661 -9.2771597 -0.47982895 1 12
-5.053051 -9.2833662 -0.55392385 1 11
-5.6544905 -9.2781019 -0.37942734 1 14
-1.6390737 -2.9876373 -1.5890448 1 0
-3.9433763 -9.2228069 -0.17508255 2 17
-2.4086473 -4.9494166 -1.5408927 1 1
-3.2241871 -5.8769178 -1.3406579 5 2
-5.6548209 -9.2097807 -0.12581684 1 18
-2.8935215 -5.9457622 -1.0287441 5 3
-35.43425 -64.588112 -9.377183 54 4
-4.4864402 -9.218977 -1.1043848 1 5
-5.6661515 -9.2282333 -1.0108597 0 6
-4.4787021 -9.2030764 -0.7157014 1 8
-5.679069 -9.2492723 -0.63208747 1 10
-4.5005116 -9.2478914 -0.47908446 0 12
-5.0780439 -9.256053 -0.55329579 2 11
-5.6747675 -9.2422667 -0.37872934 1 14
-1.6500131 -2.9816096 -1.5890448 1 0
-3.9834964 -9.2229776 -0.17536178 2 17
-2.4216774 -4.9301834 -1.537658 1 1
-3.2514033 -5.8753562 -1.3430114 3 2
-5.7011704 -9.2093964 -0.12609622 1 18
-2.9187796 -5.9422121 -1.0299739 6 3
-5.1010356 -9.2176819 -1.3409686 2 4
-4.5044193 -9.1703444 -1.1005293 1 5
-5.6894546 -9.1904716 -1.0090009 1 6
-5.1116314 -9.2368288 -0.86181259 1 7
-5.7276444 -9.252162 -0.63371539 1 10
-1.6604102 -2.9758322 -1.5890448 1 0
-4.0252562 -9.2310133 -0.17578064 1 17
-3.2814467 -5.8810978 -1.3469337 3 2
-5.7417493 -9.2030153 -0.12628248 1 18
-2.9430127 -5.9390707 -1.0312037 7 3
-5.1447778 -9.2206106 -1.343999 1 4
-38.247738 -77.18486 -9.2788897 44 5
-50.498447 -80.940132 -8.905529 49 6
-4.0335822 -9.2501078 -0.64673871 1 9
-4.6056018 -9.2942152 -0.48317921 0 12
-1.6702693 -2.9703097 -1.5890448 1 0
-4.0622878 -9.2322569 -0.17605987 1 17
-2.4689522 -4.9411511 -1.5462843 2 1
-3.3086209 -5.8838592 -1.3500715 3 2
-5.7828784 -9.2008562 -0.1265153 1 18
-2.9662247 -5.9363503 -1.0324336 7 3
-35.844143 -63.743137 -9.3084936 53 4
-50.544044 -80.418167 -8.8664932 49 6
-4.6104989 -9.2270613 -0.72128195 1 8
-5.2017403 -9.2504721 -0.86636901 1 7
-5.8202362 -9.260294 -0.63697118 1 10
-5.2021022 -9.2511158 -0.55622661 1 11
-1.6793563 -2.9610143 -1.5873543 1 0
-4.105844 -9.239234 -0.17647873 1 17
-2.487046 -4.9320688 -1.5462843 1 1
-3.3437097 -5.8955755 -1.3555628 3 2
-5.8251262 -9.1931133 -0.12670156 1 18
-2.9968607 -5.9430842 -1.0355082 7 3
-5.2442608 -9.2465963 -1.3530904 1 4
-4.6467581 -9.2150011 -1.1116674 1 5
-5.8472009 -9.227951 -1.0197823 0 6
-4.6388974 -9.1994123 -0.72044486 1 8
-5.8520017 -9.235527 -0.6367386 1 10
-5.2438569 -9.2458849 -0.55706394 1 11
-4.1339035 -9.3023758 -0.41472581 0 13
-1.6904489 -2.9588714 -1.5890448 1 0
-4.1381216 -9.2335892 -0.17661837 2 17
-2.5007834 -4.9207978 -1.5452061 1 1
-3.3622148 -5.8850408 -1.3555628 3 2
-5.8776436 -9.2118559 -0.12721376 1 18
-3.0244703 -5.9512577 -1.0385827 7 3
-5.2496634 -9.1887302 -1.3470294 2 4
-4.668478 -9.1861753 -1.1099539 1 5
-5.8783054 -9.2128935 -1.0201542 0 6
-4.1549354 -9.2711067 -0.41391167 0 13
-1.7036082 -2.9554996 -1.5907352 1 0
-4.1801438 -9.2322054 -0.1768976 1 17
-2.5214179 -4.9145856 -1.5462843 1 1
-3.3887048 -5.8788848 -1.3571318 3 2
-5.9194651 -9.1993122 -0.12735346 1 18
-3.0491037 -5.9431167 -1.0391976 7 3
-36.314663 -63.000389 -9.2559662 52 4
-39.027596 -76.070076 -9.2094898 44 5
-51.112873 -79.433403 -8.8174181 49 6
-4.1837463 -9.2401619 -0.65006447 1 9
-4.7622805 -9.2823305 -0.48597106 0 12
-1.7139144 -2.9495349 -1.5907352 1 0
-4.2123446 -9.217557 -0.1768976 1 17
-2.540328 -4.9091759 -1.5473626 1 1
-3.4170876 -5.8805847 -1.3602697 2 2
-5.9602442 -9.1920156 -0.12753971 1 18
-3.0734634 -5.9394584 -1.0404273 7 3
-36.496479 -62.80806 -9.2463703 52 4
-5.997684 -9.2497559 -1.0290768 1 6
-4.7771564 -9.2318401 -0.72686243 2 8
-5.3660431 -9.2346106 -0.87190175 1 7
-5.9853263 -9.2306976 -0.64069206 3 10
-4.7928166 -9.2621031 -0.48578495 1 12
-5.3805294 -9.2595406 -0.56125087 1 11
-1.7250035 -2.9472642 -1.5924257 1 0
-4.2513251 -9.2260723 -0.17731646 1 17
-2.5468333 -4.8840933 -1.5419711 1 1
-3.4434705 -5.8833609 -1.3634075 2 2
-6.0109587 -9.2067366 -0.12800536 2 18
-3.0994177 -5.9437914 -1.042887 7 3
-5.4097381 -9.2428379 -1.3631918 1 4
-4.8085504 -9.2214165 -1.1202352 2 5
-6.0245361 -9.2275324 -1.028705 2 6
-4.8098254 -9.2238617 -0.72742051 1 8
-5.3970428 -9.2211475 -0.87222719 1 7
-6.0492244 -9.2653465 -0.64441293 1 10
-5.4196815 -9.2598267 -0.56229758 1 11
-1.735281 -2.9412251 -1.5924257 1 0
-4.2919359 -9.2293072 -0.1776655 1 17
-2.5674524 -4.8819923 -1.5441277 1 1
-3.4699659 -5.8814397 -1.3657609 2 2
-6.0540514 -9.2024059 -0.12823819 2 18
-3.1256661 -5.9434309 -1.0447317 7 3
-5.4157572 -9.1794701 -1.3566258 1 4
-4.8407102 -9.2045755 -1.1202352 1 5
-51.596947 -78.429474 -8.7635107 50 6
-54.992916 -93.210571 -8.8348808 29 7
-4.2989507 -9.2443914 -0.65339029 1 9
-4.8897309 -9.2977877 -0.24444908 0 16
-1.7465616 -2.9345403 -1.5924257 1 0
-4.3324432 -9.2236185 -0.17787492 1 17
-2.580761 -4.8618903 -1.5408927 1 1
-3.4945295 -5.8714433 -1.3665454 2 2
-6.1003976 -9.1957569 -0.128471 2 18
-3.1558766 -5.9453492 -1.0471914 7 3
-36.930988 -62.050758 -9.1913166 51 4
-39.789421 -74.959213 -9.1413765 44 5
-4.9521451 -9.3293362 -0.73858154 1 8
-4.3293233 -9.2169771 -0.65262282 1 9
-6.1412635 -9.2573586 -0.64697105 1 10
-4.9270129 -9.2819901 -0.48950744 0 12
-5.5282731 -9.2885017 -0.56648445 1 11
-4.9085217 -9.2471542 -0.2436116 1 16
-1.7520447 -2.9228203 -1.5890448 1 0
-4.375093 -9.2388811 -0.17843342 1 17
-2.5996561 -4.8605523 -1.5430495 1 1
-3.5169916 -5.8671646 -1.3681144 3 2
-6.1403646 -9.1931763 -0.12870382 2 18
-3.1801314 -5.9458618 -1.0490361 7 3
-37.089027 -61.873169 -9.1822252 51 4
-4.9273605 -9.2126389 -1.1253759 1 5
-6.1473804 -9.20368 -1.0331663 2 6
-5.5343041 -9.2325134 -0.87873638 2 7
-6.1725345 -9.2413406 -0.64720362 1 10
-4.9391894 -9.2347555 -0.48783231 0 12
-5.5409975 -9.24368 -0.56480968 2 11
-1.7646209 -2.9194815 -1.5907352 1 0
-4.4192758 -9.2444324 -0.17885226 1 17
-2.6192825 -4.8543811 -1.5441277 1 1
-3.5465879 -5.8676615 -1.3712522 2 2
-6.1941223 -9.20047 -0.12912291 2 18
-3.2056563 -5.9411221 -1.0502659 6 3
-5.5644927 -9.2061892 -1.3692527 2 4
-4.9762015 -9.222518 -1.128803 2 5
-6.1988668 -9.2075167 -1.0361406 1 6
-4.9833217 -9.235713 -0.73383808 1 8
-5.5660439 -9.2087555 -0.87841094 1 7
-5.5893044 -9.2472382 -0.56627512 1 11
-1.774292 -2.913614 -1.5907352 1 0
-4.4568529 -9.2441387 -0.17913151 1 17
-2.6280036 -4.8321338 -1.5398146 1 1
-3.5782654 -5.8759694 -1.375959 3 2
-6.2380633 -9.1997433 -0.12940228 2 18
-3.2328928 -5.9443488 -1.0527256 7 3
-5.6156273 -9.2215776 -1.3743035 1 4
-40.245956 -74.000603 -9.0736914 44 5
-52.139347 -76.893829 -8.6724262 51 6
-6.3063712 -9.3004818 -0.65441287 1 10
-5.0989885 -9.375556 -0.49713856 0 12
-1.7773714 -2.8947339 -1.5839733 1 0
-4.4924545 -9.2313356 -0.17920132 1 17
-5.6716394 -9.2371721 -0.31545776 1 15
-2.6494024 -4.8292236 -1.5419711 1 1
-3.6059349 -5.8728423 -1.3783125 2 2
-6.2875385 -9.1999321 -0.12972823 2 18
-3.2622626 -5.9463205 -1.0551852 7 3
-37.486107 -61.052128 -9.119091 50 4
-6.2989492 -9.2166281 -1.042089 1 6
-5.0668683 -9.2356834 -0.73662835 1 8
-5.6698298 -9.2342253 -0.88459462 1 7
-4.4926734 -9.2317858 -0.65799522 1 9
-6.3066196 -9.2278519 -0.6509245 1 10
-5.0891147 -9.2762337 -0.49285769 1 12
-5.6913452 -9.2692671 -0.57004327 1 11
-1.7931885 -2.8977602 -1.5890448 1 0
-4.5387521 -9.244318 -0.17975979 1 17
-5.6954331 -9.2037172 -0.31499228 1 15
-2.66065 -4.809834 -1.5387362 1 1
-3.6367338 -5.8768959 -1.3822348 2 2
-6.3354931 -9.2009897 -0.13005419 2 18
-3.2887392 -5.9452724 -1.05703 7 3
-5.7065277 -9.2216463 -1.3803642 1 4
-5.1129303 -9.2429848 -1.1377991 1 5
-6.3378592 -9.2044258 -1.0432043 1 6
-5.0971451 -9.2144489 -0.73634934 1 8
-5.7062254 -9.2211571 -0.8852455 1 7
-5.1137276 -9.2444258 -0.49211314 0 12
-5.72577 -9.2527409 -0.57025266 1 11
-1.8085412 -2.901027 -1.5941161 1 0
-4.5764804 -9.2435541 -0.18003903 1 17
-2.6784608 -4.8043489 -1.5398146 1 1
-3.6603518 -5.8714614 -1.3838037 2 2
-6.3796449 -9.1996489 -0.13033357 2 18
-3.3122852 -5.9412384 -1.0582597 7 3
-5.7391758 -9.2060413 -1.3808694 1 4
-5.1358061 -9.2120838 -1.1360856 1 5
-52.519573 -75.734879 -8.6032753 52 6
-56.374332 -90.428391 -8.6991653 29 7
-4.6103139 -9.3118896 -0.66592598 1 9
-6.421752 -9.2603683 -0.39352673 1 14
-1.8123674 -2.8858035 -1.5890448 1 0
-4.6285453 -9.271265 -0.18087673 1 17
-2.696265 -4.7987981 -1.5408927 1 1
-3.6902328 -5.8758984 -1.3877261 2 2
-6.4261489 -9.2013979 -0.13065954 2 18
-3.3358412 -5.9371128 -1.0594896 7 3
-37.943935 -60.417519 -9.0812111 50 4
-41.040348 -73.043396 -9.0248547 44 5
-6.4512148 -9.2372885 -1.0517552 1 6
-6.4545836 -9.2421122 -0.65650588 1 10
-5.2316866 -9.3113279 -0.49751079 0 12
-5.8252492 -9.2754507 -0.5740208 1 11
-6.4524255 -9.2390223 -0.39352673 1 14
-1.8243687 -2.8825228 -1.5907352 1 0
-4.6716738 -9.2764835 -0.1812956 1 17
-2.7148983 -4.7927094 -1.5419711 1 1
-3.7170143 -5.8729239 -1.3900795 2 2
-6.4743404 -9.201808 -0.13098548 2 18
-3.36239 -5.9357495 -1.0613343 6 3
-38.139751 -60.261227 -9.0776758 50 4
-6.4765453 -9.2049417 -1.0506399 2 6
-5.233428 -9.2387609 -0.74248785 1 8
-5.8355231 -9.220191 -0.89077836 2 7
-6.5097842 -9.252183 -0.65883142 1 10
-5.2405248 -9.2512894 -0.49527726 1 12
-5.8511834 -9.244935 -0.57339281 1 11
-1.8329713 -2.8727608 -1.5890448 1 0
-4.7128897 -9.2735605 -0.18157484 1 17
-2.7228918 -4.7660031 -1.5365796 1 1
-3.7469535 -5.8724875 -1.3932174 2 2
-6.5219045 -9.1975937 -0.13126487 2 18
-3.3900049 -5.9336815 -1.063179 7 3
-5.86728 -9.195611 -1.3884454 3 4
-5.2675033 -9.2199535 -1.1437966 1 5
-52.984959 -74.722672 -8.5508556 52 6
-5.2771511 -9.2368402 -0.74388301 1 8
-5.9078765 -9.2592373 -0.89663655 1 7
-4.6988358 -9.2459068 -0.42254159 0 13
-1.8410267 -2.863296 -1.5873543 1 0
-4.748879 -9.2641716 -0.18171446 1 17
-3.7780349 -5.8758693 -1.3971398 2 2
-6.5725675 -9.2008085 -0.13163738 2 18
-3.4205587 -5.9389377 -1.0662535 7 3
-5.9122171 -9.1951017 -1.3914759 1 4
-5.3075924 -9.2152958 -1.1455101 1 5
-53.138966 -74.388199 -8.5337534 52 6
-4.7599082 -9.2856884 -0.66874009 1 9
-6.6176023 -9.2638521 -0.66301745 1 10
-4.7420192 -9.2507896 -0.42351857 0 13
-1.8524824 -2.8602178 -1.5890448 1 0
-4.7942629 -9.2767963 -0.18227293 1 17
-2.759136 -4.7540216 -1.5387362 13 1
-3.8017635 -5.8698921 -1.3987087 2 2
-6.6170568 -9.1984444 -0.13191676 2 18
-3.4501543 -5.944654 -1.0693282 7 3
-38.58102 -59.568787 -9.0337343 49 4
-41.716812 -71.878525 -8.9520292 44 5
-6.6190953 -9.2012777 -1.0580754 1 6
-5.9924355 -9.2522717 -0.89989114 1 7
-4.7723475 -9.2343903 -0.6661818 1 9
-6.6366262 -9.2256479 -0.66185468 1 10
-5.3912663 -9.2892113 -0.50030267 0 12
-5.9845862 -9.2401524 -0.57695162 1 11
-4.783679 -9.2563171 -0.42449555 0 13
-1.8669169 -2.8594801 -1.5924257 1 0
-4.8467245 -9.2946243 -0.18297103 1 17
-2.7823794 -4.7538509 -1.5419711 15 1
-3.8253965 -5.8592033 -1.3994931 3 2
-6.6554222 -9.1806059 -0.13200989 1 18
-3.4739161 -5.93538 -1.0699431 7 3
-6.0261588 -9.2300205 -1.4030925 1 4
-5.4541631 -9.3187428 -1.163074 1 5
-6.6597886 -9.1866293 -1.0591908 1 6
-5.3997898 -9.2258434 -0.74751037 1 8
-6.0263066 -9.2302465 -0.89989114 1 7
-5.4030752 -9.2314568 -0.49825525 0 12
-6.0184131 -9.2181568 -0.57695162 1 11
-4.8268132 -9.2564411 -0.42530972 0 13
-1.878381 -2.8563023 -1.5941161 1 0
-4.8775206 -9.2785015 -0.18297103 1 17
-2.7942152 -4.7379622 -1.5398146 13 1
-3.8598921 -5.8694258 -1.4049845 2 2
-6.7212048 -9.2069426 -0.13270836 1 18
-3.501611 -5.9374456 -1.0724027 7 3
-6.0414724 -9.186779 -1.3995571 1 4
-5.4365497 -9.2183895 -1.1527928 2 5
-53.66497 -73.512169 -8.4962034 53 6
-5.4364357 -9.2181969 -0.74834746 1 8
-6.7644439 -9.2661734 -0.66813368 1 10
-4.8667812 -9.2580719 -0.42612386 0 13
-1.8828285 -2.8403335 -1.5890448 1 0
-2.8135307 -4.730999 -1.5408927 15 1
-3.8878801 -5.865046 -1.4073378 2 2
-6.7643857 -9.1951342 -0.13289461 2 18
-3.52739 -5.931365 -1.0736325 7 3
-38.982826 -58.807388 -8.9807014 48 4
-42.237797 -71.02356 -8.9010506 44 5
-6.7780423 -9.2136984 -1.0677415 1 6
-6.1236405 -9.237793 -0.90477306 1 7
-4.9003158 -9.2394819 -0.67027509 1 9
-6.7770643 -9.212369 -0.66604066 1 10
-6.1444192 -9.2691393 -0.58281326 1 11
-4.9006815 -9.2401714 -0.42612386 0 13
-1.8887045 -2.8277144 -1.5856638 1 0
-4.9456778 -9.2468872 -0.18304084 1 17
-2.8300281 -4.721149 -1.5408927 14 1
-3.9148653 -5.8612242 -1.4096912 2 2
-6.8226371 -9.2068157 -0.13340683 2 18
-3.5602658 -5.9393568 -1.077322 7 3
-6.1797872 -9.2522001 -1.4162245 1 4
-42.485458 -70.875687 -8.9010506 44 5
-6.8030491 -9.1803827 -1.0666262 1 6
-5.5556006 -9.2680426 -0.75560212 1 8
-6.153635 -9.2130461 -0.9044475 2 7
-4.932538 -9.2223206 -0.67027509 1 9
-5.5405369 -9.2429123 -0.50197774 0 12
-6.1767378 -9.2476349 -0.58281326 1 11
-4.9442158 -9.244154 -0.42710084 0 13
-6.7570605 -9.1183233 -0.3963187 1 14
-1.9041419 -2.8304596 -1.5907352 1 0
-2.843677 -4.7084417 -1.5398146 13 1
-3.9408484 -5.8579731 -1.4120446 2 2
-6.8698745 -9.2065792 -0.13373278 2 18
-3.5901582 -5.9444337 -1.0803965 7 3
-6.1927156 -9.2053175 -1.4121839 3 4
-5.565681 -9.2154217 -1.1596469 1 5
-53.850677 -72.167328 -8.4054909 54 6
-5.563612 -9.2119961 -0.75253284 1 8
-6.9351387 -9.2940416 -0.67534292 1 10
-5.5628943 -9.2108078 -0.50123328 0 12
-4.9824295 -9.2417793 -0.42775214 0 13
-1.91401 -2.823796 -1.5907352 1 0
-2.8620968 -4.701777 -1.5408927 10 1
-3.972275 -5.8604159 -1.415967 2 2
-6.9067731 -9.1889381 -0.1338259 1 18
-3.6108849 -5.9318662 -1.0803965 7 3
-6.3138618 -9.3150291 -1.4323869 3 4
-5.5978127 -9.1959381 -1.1596469 1 5
-6.9132366 -9.1975374 -1.0740618 1 6
-6.938745 -9.2314749 -0.67255223 1 10
-5.0127487 -9.2208214 -0.42758933 0 13
-6.9270525 -9.2159185 -0.40260059 1 14
-1.9259006 -2.820091 -1.5924257 1 0
-2.8784933 -4.6917577 -1.5408927 13 1
-4.0037699 -5.862709 -1.4198893 2 2
-6.9653678 -9.1998491 -0.13433811 1 18
-3.6419058 -5.9360704 -1.0834711 7 3
-6.364244 -9.3191452 -1.4364274 3 4
-42.849083 -69.841225 -8.8260822 44 5
-6.9597278 -9.192399 -1.0762924 1 6
-6.2998915 -9.2249136 -0.91193306 1 7
-5.065618 -9.2410488 -0.67539167 1 9
-5.7064643 -9.3011665 -0.50830603 0 12
-6.3099332 -9.2396183 -0.58637214 1 11
-5.0506706 -9.2137804 -0.42807782 0 13
-6.9929662 -9.2363005 -0.40455499 1 14
-5.6839204 -9.2644215 -0.25291687 1 16
-1.9290779 -2.8047285 -1.5873543 1 0
-5.1117125 -9.2522192 -0.18450685 1 17
-2.8940349 -4.6821866 -1.5408927 12 1
-4.0298557 -5.8590956 -1.4222428 2 2
-7.0079594 -9.192605 -0.13457093 1 18
-3.6719594 -5.9407711 -1.0865456 7 3
-6.3478889 -9.2293348 -1.4258208 3 4
-5.7334628 -9.2760258 -1.1746405 1 5
-54.462963 -71.441132 -8.3857861 54 6
-5.69384 -9.2119207 -0.7572763 1 8
-6.3349638 -9.2105427 -0.91258401 1 7
-5.088511 -9.2102242 -0.67436838 1 9
-7.0595245 -9.2602453 -0.67813361 1 10
-5.7078638 -9.2346096 -0.50570029 0 12
-6.3812823 -9.2778864 -0.59014034 1 11
-5.1101856 -9.2494555 -0.43052024 0 13
-7.042942 -9.2384939 -0.40567175 1 14
-5.7061992 -9.2319164 -0.25254467 0 16
-1.9450508 -2.8069167 -1.5924257 1 0
-2.9062879 -4.6655169 -1.5387362 13 1
-4.0614533 -5.8611121 -1.426165 2 2
-7.0741091 -9.2124996 -0.13522282 1 18
-3.6989436 -5.9379816 -1.0883904 6 3
-6.4207463 -9.2658253 -1.4349121 4 4
-5.7426767 -9.2188234 -1.1699283 2 5
-7.0706468 -9.2079906 -1.083728 1 6
-5.7322903 -9.2021494 -0.75811338 1 8
-7.0845098 -9.2260437 -0.67743593 1 10
-5.1443868 -9.2350531 -0.43068308 0 13
-7.0751481 -9.2138529 -0.40567175 1 14
-1.9574015 -2.8027411 -1.5941161 1 0
-6.433022 -9.2112398 -0.32697761 1 15
-2.9254172 -4.6580958 -1.5398146 13 1
-4.0918922 -5.8590503 -1.4293029 2 2
-7.1127224 -9.1928368 -0.13531595 1 18
-3.726989 -5.9344258 -1.0902351 7 3
-6.4773855 -9.2747622 -1.4399629 4 4
-43.3158 -68.971062 -8.7729626 44 5
-7.1214085 -9.2040625 -1.0863304 1 6
-6.4577794 -9.2466888 -0.92072046 1 7
-5.2090368 -9.271019 -0.68153155 1 9
-5.8949275 -9.3863993 -0.51630938 1 12
-6.4589458 -9.2483587 -0.591187 1 11
-5.193862 -9.2440109 -0.43198571 0 13
-7.1284413 -9.2131529 -0.40678853 1 14
-1.9645995 -2.7932694 -1.5924257 1 0
-6.4704332 -9.1996679 -0.32732671 1 15
-2.9408481 -4.6483693 -1.5398146 14 1
-4.1225815 -5.8614898 -1.4332253 2 2
-7.1628327 -9.1944418 -0.13568847 1 18
-3.7508743 -5.9287143 -1.0914649 6 3
-6.4966927 -9.2370043 -1.4374375 3 4
-54.804241 -70.34848 -8.3244429 54 6
-5.8390613 -9.2293482 -0.76369393 1 8
-6.4769387 -9.2089176 -0.91909313 1 7
-5.2299185 -9.2363262 -0.68025243 1 9
-7.2444563 -9.2992163 -0.68650562 1 10
-6.4964733 -9.2366915 -0.59181505 1 11
-5.2363043 -9.2476034 -0.43296269 0 13
-7.1884351 -9.2273064 -0.40846372 1 14
-1.9853064 -2.8008378 -1.600878 1 0
-2.9620082 -4.6440539 -1.5419711 16 1
-4.1508422 -5.8559403 -1.4355787 2 2
-7.2187114 -9.1964417 -0.13610755 2 18
-3.7832062 -5.9315886 -1.0945394 6 3
-6.519031 -9.1969433 -1.4349121 3 4
-5.8939633 -9.2409887 -1.180638 1 5
-7.2420511 -9.2261763 -1.0948812 1 6
-5.8707032 -9.2045202 -0.76341486 1 8
-59.204479 -83.524712 -8.3577585 29 7
-7.2341113 -9.2160616 -0.68231964 1 10
-5.9495692 -9.3281717 -0.51537871 1 12
-5.2701635 -9.2283497 -0.43296269 0 13
-7.2345495 -9.2166195 -0.40916172 1 14
-1.9924772 -2.7912881 -1.5991876 1 0
-2.9773927 -4.6342063 -1.5419711 16 1
-4.181632 -5.8581052 -1.439501 2 2
-7.2640486 -9.1912813 -0.13638693 2 18
-3.8114011 -5.9323111 -1.096999 6 3
-6.5771585 -9.2140303 -1.440973 4 4
-5.9073782 -9.1946259 -1.1772108 1 5
-7.252851 -9.1771135 -1.0919069 1 6
-6.6151915 -9.2673111 -0.92950785 1 7
-6.6095352 -9.259387 -0.59621125 1 11
-5.314692 -9.2350702 -0.43410248 1 13
-7.282424 -9.2145329 -0.41013891 1 14
-1.9937423 -2.7725432 -1.5924257 1 0
-2.9956441 -4.6270185 -1.5430495 17 1
-4.206635 -5.8498416 -1.44107 2 2
-7.3234878 -9.2002916 -0.13689914 1 18
-3.8406777 -5.9322419 -1.0994587 6 3
-6.6139135 -9.1974583 -1.4419831 4 4
-43.88224 -67.779724 -8.697566 44 5
-55.272514 -69.437309 -8.2846632 55 6
-6.0546608 -9.3519201 -0.77904028 1 8
-6.633534 -9.2247419 -0.92755508 2 7
-5.3744287 -9.2639189 -0.68639237 1 9
-7.3712826 -9.260335 -0.68929631 1 10
-5.997726 -9.2639799 -0.51407588 1 12
-6.6418152 -9.2362585 -0.59621125 1 11
-5.3569241 -9.2337465 -0.43491665 1 13
-7.3394403 -9.2203331 -0.41153488 1 14
-1.9991543 -2.7596958 -1.5890448 1 0
-3.0096714 -4.613308 -1.5419711 16 1
-4.2362323 -5.8478293 -1.4442078 2 2
-7.3780737 -9.2027607 -0.13731822 2 18
-3.8678391 -5.9287314 -1.1013035 5 3
-6.6389937 -9.1646767 -1.440468 4 4
-6.0518231 -9.2764034 -1.1930612 1 5
-7.3964591 -9.2256927 -1.1038039 1 6
-6.0044165 -9.2037363 -0.76843733 2 8
-5.3946395 -9.2244291 -0.68485737 1 9
-7.3860755 -9.2127409 -0.68766844 1 10
-6.0103755 -9.2128706 -0.51240075 1 12
-5.397191 -9.2287922 -0.43556795 1 13
-7.3890824 -9.2164917 -0.41251206 1 14
-2.0151863 -2.7614858 -1.5941161 1 0
-3.0278728 -4.6059928 -1.5430495 16 1
-4.2704926 -5.8520169 -1.4489146 2 2
-7.4302554 -9.2018442 -0.13769074 2 18
-3.8971956 -5.9284043 -1.1037631 5 3
-6.6779618 -9.151062 -1.4419831 4 4
-6.0492139 -9.2020493 -1.1862069 2 5
-7.3960915 -9.1595345 -1.0989708 1 6
-6.0825377 -9.2527409 -0.77429688 1 8
-6.7650008 -9.2703352 -0.6014449 1 11
-5.4415522 -9.2305555 -0.43654492 1 13
-7.4413009 -9.2155237 -0.41362882 1 14
-2.0291078 -2.7602763 -1.5974971 1 0
-3.0439322 -4.5953956 -1.5430495 17 1
-4.2955399 -5.8433943 -1.4504836 2 2
-7.4799957 -9.1975737 -0.1380167 1 18
-3.9287791 -5.9312406 -1.1068376 6 3
-6.7122145 -9.1308928 -1.4424883 4 4
-44.271145 -66.835724 -8.6354504 44 5
-55.677479 -68.462296 -8.2374477 55 6
-6.7746344 -9.2158051 -0.93373877 2 7
-7.51824 -9.2445993 -0.69394743 1 10
-6.156189 -9.2939396 -0.51928735 1 12
-6.7854891 -9.2305717 -0.60039812 1 11
-5.4961982 -9.2492971 -0.43833604 1 13
-7.4759464 -9.1925936 -0.41376844 1 14
-2.0317798 -2.7447908 -1.5924257 1 0
-3.0634303 -4.5916839 -1.5452061 16 1
-4.3242288 -5.8417277 -1.4536214 2 2
-7.5383277 -9.2067595 -0.1385289 1 18
-3.9572012 -5.9313302 -1.1092973 6 3
-6.7519007 -9.1213408 -1.4445086 3 4
-44.499165 -66.698471 -8.636735 44 5
-7.5415287 -9.2106686 -1.1112393 1 6
-6.1586661 -9.23104 -0.775971 1 8
-6.8146467 -9.2061062 -0.93504059 1 7
-5.5344534 -9.2437372 -0.69048566 1 9
-7.5437946 -9.2134361 -0.69348228 1 10
-6.1670175 -9.2435579 -0.51761222 1 12
-5.5309458 -9.2378788 -0.43866172 1 13
-7.5469093 -9.2172403 -0.41600204 1 14
-2.0430372 -2.7409446 -1.5941161 1 0
-3.0764918 -4.5783029 -1.5441277 20 1
-4.3435769 -5.8273559 -1.4536214 1 2
-7.5840831 -9.2002287 -0.13880828 1 18
-3.9900751 -5.9378586 -1.1129867 7 3
-6.8034534 -9.1275339 -1.4490542 3 4
-6.1930723 -9.2162647 -1.1960599 1 5
-7.5568314 -9.1671696 -1.1090087 1 6
-6.1981459 -9.223814 -0.77708709 1 8
-5.556829 -9.2116613 -0.68946236 1 9
-5.5677428 -9.2297535 -0.43915018 1 13
-7.590147 -9.2075853 -0.41670001 1 14
-2.0525923 -2.7337964 -1.5941161 0 0
-3.0838165 -4.5547776 -1.5398146 16 1
-4.3662472 -5.8152952 -1.4544059 1 2
-5.27842 -6.3578868 -0.096201912 0 18
-4.0196419 -5.936986 -1.1154464 7 3
-6.8567142 -9.1322861 -1.4535998 1 4
-6.2207465 -9.1880035 -1.1952032 1 5
-55.914822 -67.349724 -8.1712713 56 6
-5.2682004 -6.3455772 0.096015655 0 22
-6.9274201 -9.2264576 -0.94187516 1 7
-7.6803069 -9.2509737 -0.70022643 2 10
-6.9265494 -9.2252979 -0.60458505 1 11
-5.6206899 -9.2444115 -0.44077846 1 13
-5.2730083 -6.3513689 -0.28826985 0 14
-2.0577493 -2.7208321 -1.5907352 1 0
-5.67765 -9.2650833 -0.18967277 1 17
-3.1083794 -4.5567136 -1.5441277 18 1
-4.3936176 -5.8094034 -1.4567593 1 2
-5.2672276 -6.2995338 -0.095596589 1 18
-4.044796 -5.9294491 -1.1166762 6 3
-6.9029117 -9.127285 -1.4566302 1 4
-44.827286 -65.71434 -8.5686216 44 5
-7.7075062 -9.2180748 -1.1216491 1 6
-5.2749243 -6.3087392 0.095736265 1 22
-6.3253508 -9.2726164 -0.78489989 1 8
-6.9692039 -9.2149391 -0.9431771 1 7
-5.6835742 -9.2747507 -0.69713724 1 9
-5.3022194 -6.3413835 -0.48139113 0 10
-6.3114114 -9.252183 -0.521707 1 12
-6.9659376 -9.2106209 -0.60521305 1 11
-5.6654544 -9.245182 -0.44175544 1 13
-5.3028393 -6.3421249 -0.28868863 0 14
-2.0738239 -2.7222843 -1.5958067 1 0
-5.7015476 -9.2315969 -0.18939351 1 17
-3.1242652 -4.545836 -1.5441277 16 1
-4.4186215 -5.8002725 -1.4583282 1 2
-5.2891836 -6.2811098 -0.095596589 1 18
-4.0699449 -5.9218087 -1.117906 6 3
-6.9371324 -9.1062918 -1.4571354 1 4
-6.3478093 -9.2361231 -1.207198 1 5
-5.3102565 -6.3061347 -0.76957697 1 6
-5.2814546 -6.2719316 0.095456891 1 22
-6.3237753 -9.2011538 -0.78071445 1 8
-5.6907415 -9.2140999 -0.69406724 1 9
-5.3063164 -6.301456 -0.47976327 1 10
-6.3165083 -9.1905804 -0.51947349 1 12
-5.7060905 -9.2389526 -0.4424068 0 13
-5.278595 -6.2685356 -0.28617588 0 14
-2.0811076 -2.712152 -1.5941161 1 0
-3.1401155 -4.5349021 -1.5441277 16 1
-4.4412308 -5.7879243 -1.4591128 1 2
-5.2929692 -6.2412539 -0.095270626 1 18
-4.0995932 -5.9205637 -1.1203657 6 3
-6.9809575 -9.0977602 -1.4596608 1 4
-6.3551092 -9.1779423 -1.2024858 1 5
-5.3193583 -6.2723708 -0.76771802 1 6
-5.2955565 -6.2443047 0.0953172 2 22
-66.325356 -95.785957 -8.1469984 29 8
-7.0819063 -9.2293186 -0.94968623 1 7
-7.0859995 -9.2346535 -0.61002797 1 11
-5.7530928 -9.2427282 -0.44354659 0 13
-2.0910337 -2.7045066 -1.5941161 0 0
-3.1523056 -4.5170455 -1.5419711 18 1
-4.4624138 -5.7716084 -1.4591128 1 2
-4.1325736 -5.9217048 -1.1234403 7 3
-7.0215349 -9.0815315 -1.4611759 1 4
-45.192051 -64.757217 -8.5060768 43 5
-5.3190269 -6.2255816 -0.76437205 1 6
-7.0937366 -9.1749153 -0.94675708 1 7
-5.3201461 -6.226891 -0.47697258 1 10
-6.4758663 -9.2794876 -0.52710456 1 12
-7.1344562 -9.227582 -0.61128402 1 11
-5.7933021 -9.2317381 -0.44403508 0 13
-5.3181233 -6.224524 -0.28589669 1 14
-6.4628263 -9.2608023 -0.26278043 1 16
-2.0977638 -2.6946969 -1.5924257 0 0
-7.2528648 -9.3167171 -0.34361738 1 15
-3.1694825 -4.5097184 -1.5430495 18 1
-4.4887567 -5.7660632 -1.4614661 1 2
-5.3416276 -6.210216 -0.095363759 1 18
-4.1658244 -5.9273696 -1.1271297 7 3
-7.0662365 -9.0769825 -1.4642065 1 4
-6.5447998 -9.3123102 -1.2260472 1 5
-5.3422403 -6.2109284 -0.76474386 2 6
-6.458787 -9.1899252 -0.78545785 1 8
-5.8381124 -9.2349815 -0.70020723 1 9
-5.3433695 -6.2122412 -0.4772051 2 10
-6.4790335 -9.2187338 -0.52487111 1 12
-5.8409691 -9.2395 -0.44533768 0 13
-5.3361287 -6.2038236 -0.28575709 1 14
-6.4935012 -9.2393188 -0.26278043 0 16
-2.1093943 -2.6902108 -1.5941161 1 0
-7.2088628 -9.1938047 -0.34001017 1 15
-3.1874311 -4.5017715 -1.5441277 19 1
-4.5064368 -5.7472734 -1.4606817 1 2
-5.3632727 -6.1915326 -0.095363759 1 18
-4.1910572 -5.9192438 -1.1283594 7 3
-7.1150169 -9.0741196 -1.4677418 1 4
-6.5152164 -9.2017717 -1.2144806 2 5
-5.3612795 -6.1892314 -0.76437205 2 6
-5.3685102 -6.1975789 0.095456891 1 22
-6.5184965 -9.2064047 -0.7888062 1 8
-7.2273631 -9.2173996 -0.95619535 1 7
-5.878891 -9.228013 -0.70123053 1 9
-5.3650217 -6.1935515 -0.4772051 1 10
-7.2316084 -9.2228146 -0.61421484 1 11
-5.8839221 -9.2359095 -0.44615185 0 13
-5.3682208 -6.1972451 -0.28631547 1 14
-2.118772 -2.682831 -1.5941161 1 0
-3.1986523 -4.4843459 -1.5419711 16 1
-4.5337644 -5.7407417 -1.4630351 1 2
-5.4006286 -6.1908579 -0.095643148 1 18
-4.2277608 -5.927103 -1.1326638 7 3
-7.1441898 -9.046114 -1.4672369 1 4
-45.581661 -63.903141 -8.4550991 43 5
-5.3828516 -6.1704793 -0.76437205 2 6
-5.4032578 -6.1938715 0.095689707 1 22
-7.2496099 -9.1795998 -0.95489359 1 7
-5.3944836 -6.1838136 -0.47790277 1 10
-6.6453271 -9.3164062 -0.53306055 1 12
-7.2885156 -9.2288618 -0.61630833 1 11
-5.9333992 -9.2422199 -0.44745448 1 13
-5.3977046 -6.1875057 -0.28673428 1 14
-2.1231449 -2.6701152 -1.5907352 1 0
-3.2179999 -4.4799705 -1.5441277 16 1
-4.5552177 -5.7287455 -1.4638195 1 2
-5.4422431 -6.1969562 -0.096015655 0 18
-4.2612276 -5.9323101 -1.1363533 7 3
-7.1667404 -9.0130558 -1.4657216 1 4
-45.737637 -63.674107 -8.4448175 43 5
-5.4137969 -6.1645651 -0.76585919 1 6
-5.4448833 -6.1999621 0.096062228 0 22
-6.6159306 -9.210433 -0.79299164 1 8
-5.9827542 -9.2514706 -0.70609134 1 9
-5.4228659 -6.1748915 -0.47860044 1 10
-6.6295643 -9.229414 -0.52933806 1 12
-5.9726968 -9.235918 -0.44810578 1 13
-5.4287453 -6.1815867 -0.28729266 0 14
-4.5825424 -5.7219944 -1.4661729 1 2
-8.1507168 -9.21595 -0.1432319 1 18
-4.2934947 -5.9334102 -1.1394278 7 3
-7.2105598 -9.0034695 -1.4682469 1 4
-6.6399336 -9.1760788 -1.2200496 1 5
-5.4431982 -6.1545801 -0.76697457 1 6
-6.6597366 -9.2034454 -0.79438674 1 8
-7.3817058 -9.2171707 -0.96400636 1 7
-5.9975772 -9.2037735 -0.70404464 1 9
-5.4681964 -6.1828456 -0.48069346 0 10
-7.3861237 -9.2226877 -0.61923909 1 11
-6.0354481 -9.2618904 -0.45038539 1 13
-5.5032568 -6.2224884 -0.29008463 0 14
-5.1435957 -6.4225535 1.5002412 0 30
-2.1394577 -2.652406 -1.5890448 4 0
-3.2491975 -4.4573956 -1.5441277 1 1
-4.6049509 -5.7090163 -1.4669574 1 2
-8.1721954 -9.1754942 -0.14304563 1 18
-4.3211651 -5.9279685 -1.1412725 7 3
-7.2444353 -8.9813337 -1.468752 1 4
-6.6883221 -9.1753416 -1.2230483 1 5
-5.4911375 -6.1652832 -0.77069229 1 6
-7.4138346 -9.1913471 -0.96400636 1 7
-5.5322404 -6.2114325 -0.48441437 0 10
-6.8303485 -9.3701801 -0.5401333 1 12
-7.4558892 -9.2434845 -0.62237924 1 11
-6.0523853 -9.2173805 -0.44924557 1 13
-8.2182875 -9.2272453 -0.43149737 1 14
-2.1464169 -2.6421084 -1.5873543 5 0
-3.2761352 -4.4615512 -1.5495192 2 1
-4.6322694 -5.7020416 -1.4693109 2 2
-8.2282076 -9.1737108 -0.14346471 1 18
-4.3511872 -5.9255934 -1.1437323 7 3
-7.2907515 -8.9744711 -1.4717824 1 4
-46.178284 -62.887138 -8.4041195 43 5
-57.410526 -64.007568 -8.0262785 57 6
-6.7781439 -9.2307043 -0.80080432 1 8
-6.1563964 -9.3048325 -0.71504533 1 9
-8.3028345 -9.2569122 -0.72417969 2 10
-6.7873359 -9.2432222 -0.5341773 1 12
-6.1109853 -9.2361975 -0.45119953 1 13
-8.2584524 -9.2074308 -0.43191618 1 14
-5.1411629 -6.3284578 1.4866091 1 30
-2.1602187 -2.6402111 -1.5907352 9 0
-3.2893991 -4.4469905 -1.5484409 1 1
-4.6571145 -5.6919074 -1.4708798 2 2
-8.2950363 -9.1835184 -0.14407004 1 18
-4.381248 -5.9230781 -1.1461918 7 3
-7.2918844 -8.9121132 -1.4657216 1 4
-6.8255315 -9.2275438 -1.2363285 1 5
-8.2943935 -9.182807 -1.1551089 1 6
-6.8055797 -9.2005711 -0.80024624 1 8
-7.5434608 -9.2195892 -0.97246826 1 7
-6.1423426 -9.2135344 -0.70967293 1 9
-6.8314424 -9.2355347 -0.53510797 1 12
-7.5379467 -9.2128496 -0.62384468 1 11
-5.20822 -6.3654666 0.67141974 0 28
-6.1609268 -9.2414112 -0.45250216 1 13
-8.2959042 -9.1844797 -0.43219537 1 14
-5.1632237 -6.3104725 1.4866091 1 30
-2.1601992 -2.6214638 -1.5839733 10 0
-3.3025999 -4.4323931 -1.5473626 1 1
-4.6769533 -5.6756172 -1.4708798 1 2
-8.3593359 -9.1900148 -0.14462882 1 18
-4.4160652 -5.9267654 -1.1498814 7 3
-7.3507042 -8.9202909 -1.4712774 1 4
-6.8363128 -9.1749611 -1.2324729 1 5
-8.3290749 -9.1567469 -1.1554807 1 6
-7.5477071 -9.159359 -0.96888822 1 7
-5.2648106 -6.388999 0.14450593 0 23
-5.2434564 -6.3630848 0.33591652 0 26
-5.2025175 -6.3134046 0.66783965 1 28
-6.2176604 -9.2563457 -0.45429331 1 13
-8.3924675 -9.2264395 -0.43554571 1 14
-5.177711 -6.2833014 1.4844567 2 30
-2.1693366 -2.6139071 -1.5839733 9 0
-3.3134274 -4.4146762 -1.5452061 1 1
-4.701746 -5.6652927 -1.4724487 1 2
-8.4129772 -9.1843739 -0.14500134 1 18
-4.4438443 -5.9207978 -1.1517261 7 3
-7.3640585 -8.8732033 -1.4677418 1 4
-5.2852411 -6.3683662 -0.048099399 0 19
-46.478588 -61.926186 -8.340291 42 5
-57.797878 -63.097435 -7.9876137 58 6
-6.9462934 -9.2549591 -0.80917507 1 8
-8.4397755 -9.2136288 -0.72766805 2 10
-5.2477679 -6.3232131 0.3347767 1 26
-6.9269309 -9.2291622 -0.53752756 1 12
-7.6684046 -9.2399206 -0.6292876 1 11
-5.2168856 -6.2860017 0.66686326 1 28
-6.2745733 -9.2709932 -0.4560844 1 13
-8.4381256 -9.2118273 -0.43624371 1 14
-5.2021255 -6.2682176 1.4851742 1 30
-2.1807728 -2.6091003 -1.5856638 10 0
-5.2822051 -6.3196883 -0.23970601 0 15
-3.33114 -4.4061551 -1.5462843 1 1
-4.724009 -5.6518559 -1.4732332 1 2
-8.4910889 -9.2049294 -0.14579293 1 18
-4.4716353 -5.9147077 -1.1535708 7 3
-7.3797193 -8.8291769 -1.4647114 1 4
-6.9817452 -9.2348728 -1.2470381 1 5
-8.4603081 -9.1715603 -1.1647751 1 6
-6.942461 -9.1829109 -0.80498976 1 8
-7.7086244 -9.222682 -0.98125559 1 7
-5.2605529 -6.2937832 0.14317955 1 23
-6.29246 -9.2278614 -0.71581286 1 9
-8.4664707 -9.1782417 -0.72720289 2 10
-5.2493038 -6.2803245 0.33347407 1 26
-6.9591045 -9.2049255 -0.53752756 1 12
-5.3130636 -6.3566074 -0.43417913 0 11
-5.2336826 -6.2616353 0.66621238 1 28
-6.3023944 -9.2424297 -0.45575875 1 13
-5.2290215 -6.2560587 1.4866091 1 30
-2.1875322 -2.5986986 -1.5839733 12 0
-5.2759089 -6.2675633 -0.23842601 0 15
-3.3511677 -4.40063 -1.5484409 1 1
-4.7462339 -5.6383319 -1.4740176 2 2
-8.5395012 -9.1928158 -0.14607231 1 18
-4.5042272 -5.9147854 -1.1566453 7 3
-7.397717 -8.7881851 -1.4621861 1 4
-5.2986608 -6.2945919 -0.04782043 1 19
-6.980206 -9.1661491 -1.2410407 1 5
-57.95507 -62.38892 -7.9489489 58 6
-5.2747631 -6.2662029 0.14297011 2 23
-6.3359351 -9.222291 -0.71709204 1 9
-5.266046 -6.255847 0.33314839 2 26
-5.3094959 -6.3074632 -0.43208569 0 11
-5.2478056 -6.2341781 0.665236 2 28
-6.3934608 -9.3060226 -0.45999229 1 13
-8.5620852 -9.2171268 -0.43931487 1 14
-5.2660327 -6.2558308 1.490914 1 30
-2.1965904 -2.5910468 -1.5839733 11 0
-3.3688531 -4.3919616 -1.5495192 1 1
-4.7760334 -5.633698 -1.4771556 1 2
-8.582469 -9.1746349 -0.14625858 1 18
-4.5392804 -5.9178433 -1.1603348 7 3
