# .PCD v0.7 - Point Cloud Data file format
VERSION 0.7
FIELDS x y z intensity ring
SIZE 4 4 4 4 2
TYPE F F F F U
COUNT 1 1 1 1 1
WIDTH 1340
HEIGHT 1
VIEWPOINT 0 0 0 1 0 0 0
POINTS 1340
DATA ascii
10.613509 15.836337 0 2 20
9.9328346 12.079537 -0.18206654 24 18
3.9124017 5.8376651 -1.0933096 2 3
5.0545645 6.7985415 -1.0783306 2 4
10.5941 17.610662 0.11944646 3 21
10.512706 14.139907 -0.10240593 1 19
5.0968895 7.6050305 -0.98614967 2 5
6.8373518 8.315053 -1.0049113 2 6
6.9332924 10.345114 -0.87083977 2 8
6.8624539 9.2302074 -0.93894613 2 7
6.6896629 11.120284 -0.8317039 1 9
9.5362692 11.597266 -0.87441093 2 10
14.73507 21.986088 1.5413818 4 27
9.0048151 13.436017 -0.75343198 1 12
9.6357174 12.960331 -0.84637719 2 11
8.7930918 14.616832 -0.69495475 2 13
9.8639822 11.995805 -0.54233819 216 14
3.5750303 5.3342757 1.7206291 1 31
10.548317 17.39678 -0.35512158 6 17
10.459445 13.966178 -0.50780439 1 15
2.5716741 3.8083615 -1.2864137 5 1
3.6044011 4.8128471 -1.2025913 3 2
10.64634 15.76604 0 2 20
10.138216 12.241942 -0.18504667 12 18
3.93718 5.830523 -1.0945394 2 3
5.0782666 6.7808547 -1.0783306 2 4
10.682473 17.618036 0.11974867 3 21
5.1278577 7.5937839 -0.98700649 2 5
6.8764982 8.3034029 -1.0063984 2 6
9.9928017 12.066354 0.18239251 17 22
6.9782958 10.334075 -0.87195593 2 8
6.9018035 9.2157679 -0.93992251 2 7
11.884631 19.600693 0.66710413 2 25
6.7325811 11.10369 -0.83221561 1 9
9.5843372 11.573132 -0.8751086 2 10
14.851955 21.994083 1.5455679 4 27
9.0628433 13.421057 -0.75436252 1 12
9.7096357 12.964981 -0.84888929 2 11
56.770195 75.803513 7.7312527 49 28
8.8606405 14.613386 -0.69625735 2 13
9.9159975 11.973613 -0.54289657 208 14
3.5871429 5.3121576 1.7175232 1 31
10.453238 15.480076 -0.43464851 1 16
10.605946 17.36171 -0.35512158 9 17
10.505697 13.931419 -0.50780439 1 15
2.5907869 3.8093688 -1.2896487 5 1
3.6227014 4.8040004 -1.2033758 3 2
10.685064 15.710806 0 2 20
3.9520464 5.8108993 -1.0933096 2 3
5.1078911 6.7734838 -1.0798459 2 4
5.1619563 7.5898933 -0.98872 2 5
6.9167461 8.2958517 -1.0082573 2 6
10.060931 12.066944 0.18290471 17 22
7.0215001 10.324077 -0.87307203 2 8
6.9467258 9.2119303 -0.94187516 2 7
11.939137 19.544115 0.66652232 2 25
6.779768 11.098336 -0.83349472 1 9
9.643117 11.565824 -0.87696904 2 10
14.936032 21.961226 1.5467306 4 27
9.1320143 13.427277 -0.75640994 1 12
9.7694082 12.95504 -0.85035473 2 11
8.9257183 14.611211 -0.69756007 2 13
3.6069109 5.3034286 1.7185585 2 31
10.42805 15.332905 -0.43148473 1 16
10.658102 17.310957 -0.35484233 6 17
10.433342 13.735463 -0.50198627 1 15
2.6040692 3.8003013 -1.2896487 5 1
3.6489401 4.8038187 -1.2065136 3 2
10.599399 12.622922 -0.19189163 1 18
3.9857123 5.8166299 -1.096999 2 3
5.1291056 6.7524519 -1.0793408 2 4
5.1929164 7.5783877 -0.98957682 2 5
6.9533467 8.2808056 -1.0093727 2 6
7.0710311 10.319252 -0.8747462 2 8
6.9933109 9.2066727 -0.94382793 2 7
10.426494 13.726447 0.30087951 1 23
6.8352122 11.101796 -0.83554143 3 9
9.716815 11.571845 -0.87999231 2 10
15.055492 21.971539 1.5511492 4 27
9.2014179 13.428276 -0.75827122 1 12
9.8508167 12.968571 -0.85349482 2 11
8.9892426 14.600386 -0.69853705 2 13
3.6122985 5.2716813 1.7123468 2 31
10.440825 15.23703 -0.42980981 1 16
10.71846 17.273649 -0.35484233 6 17
10.481221 13.698961 -0.50198627 1 15
2.621695 3.7975285 -1.2918051 5 1
3.6680684 4.7941675 -1.2072982 3 2
10.679552 12.628605 -0.19254352 1 18
4.005991 5.8026824 -1.096999 2 3
5.1671104 6.7534161 -1.0823712 2 4
10.829577 17.452724 0.11937672 3 21
5.2238555 7.566761 -0.99043357 2 5
6.9976387 8.2747307 -1.0116034 2 6
7.1138082 10.304359 -0.87558329 2 8
7.0472064 9.2107029 -0.94675708 2 7
6.8802347 11.088044 -0.83630884 1 9
9.775197 11.559202 -0.88162017 2 10
9.2754736 13.435534 -0.76050466 1 12
9.9251509 12.972178 -0.85600698 2 11
22.464333 29.360895 3.0179713 9 28
9.0633287 14.606275 -0.70032811 2 13
10.536961 12.45999 -0.569839 2 14
3.6416528 5.2749386 1.7175232 2 31
10.52348 15.243274 -0.43101948 1 16
10.785059 17.2463 -0.35505179 6 17
10.52898 13.66229 -0.50198627 1 15
2.6305373 3.7820289 -1.2896487 5 1
3.6871769 4.78444 -1.2080826 3 2
4.0352507 5.8016419 -1.0994587 2 3
5.1930771 6.7384796 -1.0828763 2 4
5.2615933 7.5648036 -0.99257553 2 5
7.0342302 8.2593489 -1.0127187 2 6
7.1588502 10.292566 -0.87669939 2 8
7.0890522 9.1986761 -0.9480589 2 7
10.478126 13.5963 0.29962292 1 23
6.9358339 11.091036 -0.83835548 1 9
9.8310251 11.543247 -0.88301551 2 10
9.3382912 13.426036 -0.76180762 1 12
9.9874449 12.959599 -0.85747242 2 11
22.639704 29.377029 3.027735 9 28
9.1269779 14.594877 -0.70130509 2 13
10.557067 12.395741 -0.56858265 2 14
3.6468084 5.2431626 1.7113116 2 31
10.866512 17.242384 -0.35574985 6 17
10.331434 13.309613 -0.49035004 1 15
2.6503534 3.7822874 -1.2928834 5 1
3.7038541 4.7715411 -1.2080826 3 2
4.0622816 5.7972326 -1.1013035 2 3
5.2214317 6.7265816 -1.0838865 2 4
10.921301 17.329319 0.11905125 6 21
5.2925305 7.5529065 -0.99343228 2 5
7.0759802 8.2498608 -1.0145775 2 6
10.293532 12.001194 0.18406881 113 22
7.2061815 10.283854 -0.87809449 2 8
7.1357841 9.1927729 -0.95001167 2 7
10.520615 13.553327 0.2994833 1 23
6.9872737 11.087021 -0.83989048 1 9
9.8868551 11.52705 -0.88441086 2 10
9.4149055 13.435899 -0.76422721 1 12
10.054662 12.953057 -0.85935646 2 11
22.683432 29.222244 3.0199239 9 28
9.2119608 14.617033 -0.70391041 2 13
10.623691 12.386125 -0.569839 2 14
3.6628699 5.2272377 1.7102764 4 31
10.943792 17.231356 -0.35630831 6 17
10.500971 13.430961 -0.49616817 1 15
2.6635408 3.7730124 -1.2928834 5 1
3.7253206 4.7647629 -1.2096516 3 2
4.0847731 5.7862453 -1.1019183 2 3
5.2473264 6.7114396 -1.0843916 2 4
11.003174 17.324854 0.11928372 3 21
5.3211584 7.5376344 -0.99386072 2 5
7.1151495 8.2371645 -1.0160646 2 6
7.2627487 10.287975 -0.8806057 2 8
7.1702876 9.1709471 -0.95033711 2 7
9.671196 12.369661 0.27407259 1 23
7.0387764 11.082781 -0.84142548 1 9
9.9531374 11.522685 -0.88673639 2 10
9.4894028 13.442121 -0.76646066 1 12
10.114581 12.936759 -0.86061251 2 11
22.674807 29.001549 3.0052783 9 28
9.2800732 14.611776 -0.70521301 2 13
10.358514 11.991986 -0.55336642 2 14
3.6810954 5.2144194 1.7102764 3 31
10.486503 14.854552 -0.42311001 1 16
11.031905 17.236837 -0.35721585 6 17
10.48595 13.315689 -0.4932591 1 15
2.6811609 3.7699695 -1.2950401 5 1
3.7516379 4.7640548 -1.2127894 3 2
4.1118202 5.7816133 -1.1037631 3 3
5.2805424 6.7055497 -1.0864118 2 4
11.074368 17.303183 0.11939996 3 21
10.485262 13.314816 -0.098500319 1 19
5.3566594 7.5319767 -0.99557424 2 5
7.1647739 8.2363148 -1.0190389 2 6
7.3101826 10.278817 -0.88200086 2 8
7.2219911 9.1709175 -0.95294082 2 7
7.0817246 11.064865 -0.84193712 1 9
10.006406 11.502933 -0.88789916 2 10
9.5640602 13.447987 -0.76869416 1 12
10.191808 12.942169 -0.863334 2 11
22.743845 28.881498 3.0010476 9 28
9.3482599 14.60622 -0.70651561 2 13
10.531499 12.106558 -0.56034636 2 14
3.6947973 5.1952395 1.7082058 4 31
10.491942 14.752677 -0.42124897 1 16
11.109336 17.225119 -0.35777435 6 17
10.532358 13.279013 -0.4932591 1 15
2.6987884 3.7668514 -1.2971967 5 1
3.7706788 4.7540059 -1.2135738 3 2
10.52143 12.010078 -0.18588482 1 18
4.1388783 5.7768664 -1.1056079 3 3
5.3137765 6.6995163 -1.0884322 2 4
11.149863 17.287958 0.11956269 3 21
10.491898 13.228001 -0.098128356 1 19
5.3829131 7.5132356 -0.99557424 2 5
7.2013483 8.2202482 -1.0201542 2 6
7.3553061 10.266216 -0.88311696 2 8
7.2613859 9.1550283 -0.95391721 4 7
11.916816 18.477125 0.63987535 2 25
7.1376066 11.06692 -0.84398377 1 9
10.06754 11.49197 -0.88975966 2 10
9.6155882 13.42102 -0.76906639 1 12
10.045778 12.665542 -0.84721458 2 11
22.82716 28.780083 2.9987693 9 28
9.4251728 14.613811 -0.70846957 2 13
10.679054 12.190005 -0.56593025 2 14
3.7084057 5.1760311 1.7061353 2 31
11.191194 17.219765 -0.35847244 3 17
10.45387 13.085969 -0.48744097 1 15
2.7074132 3.7511606 -1.2950401 5 1
3.7896996 4.7438784 -1.2143583 3 2
10.655907 12.078255 -0.18751459 1 18
4.1636462 5.7687926 -1.1068376 3 3
5.3445601 6.6902251 -1.0899473 2 4
5.4230733 7.5137477 -0.99814457 2 5
7.2326341 8.1980448 -1.0205259 3 6
7.4051118 10.259891 -0.88479114 2 8
7.3082299 9.1483126 -0.95586985 4 7
7.1805468 11.048629 -0.84449542 1 9
10.147223 11.501672 -0.89324796 2 10
9.6927814 13.429491 -0.77148598 1 12
10.045053 12.57422 -0.84344637 2 11
22.830442 28.578741 2.9860764 9 28
9.5153341 14.64114 -0.71140057 2 13
9.9995441 11.334281 -0.52781999 2 14
3.7332354 5.1724524 1.709241 2 31
10.393944 15.877554 -0.33124667 2 17
2.7243681 3.7483931 -1.2971967 5 1
3.8078697 4.7343397 -1.2151428 3 2
10.45804 14.388968 0 2 20
10.695905 12.042849 -0.18751459 1 18
4.1897264 5.7645445 -1.1086824 2 3
5.376667 6.6848316 -1.0919677 2 4
5.4503002 7.4989386 -0.99857295 3 5
7.278296 8.1948576 -1.0231284 3 6
7.4437885 10.241732 -0.88534915 2 8
7.3485246 9.1364508 -0.95717174 4 7
9.7731495 12.150997 0.27218774 12 23
7.2280817 11.041454 -0.84577459 1 9
10.198572 11.482885 -0.89441079 2 10
9.7725048 13.445756 -0.77427793 1 12
10.036631 12.478583 -0.83925951 4 11
22.962578 28.549467 2.9909582 9 28
9.5791607 14.63291 -0.71254033 2 13
3.752641 5.1631694 1.7102764 1 31
9.9739094 12.312371 -0.46114317 13 15
2.7374332 3.7388623 -1.2971967 5 1
3.8293071 4.727118 -1.2167118 3 2
10.522371 14.371746 0 2 20
10.711203 11.975633 -0.18704894 1 18
4.2168231 5.7594543 -1.1105272 2 3
5.4074569 6.6752772 -1.093483 2 4
9.8596277 12.171294 -0.091037825 16 19
5.4787874 7.4830799 -0.99900132 3 5
7.3254371 8.1901855 -1.0257307 2 6
7.4912729 10.231789 -0.88674432 2 8
7.3904033 9.1231413 -0.95847356 2 7
9.8582926 12.169646 0.2733745 12 23
7.2731657 11.026158 -0.84654212 1 9
10.262544 11.47401 -0.89650381 2 10
9.8667164 12.180045 0.63861591 1 26
9.8453341 13.447031 -0.77632523 1 12
10.05246 12.409337 -0.83695668 2 11
23.260321 28.713884 3.0166693 9 28
9.6433744 14.619408 -0.71351731 2 13
10.84665 12.127069 -0.56816381 2 14
3.7683544 5.1469231 1.709241 1 31
9.8681183 12.099513 -0.45439416 15 15
2.7566748 3.7390642 -1.3004316 5 1
3.842484 4.7113523 -1.2159272 3 2
4.2405915 5.7518005 -1.1117569 3 3
5.4395962 6.6696062 -1.0955032 2 4
10.414651 15.675317 0.10938023 2 21
9.8974104 12.135428 -0.091014579 15 19
5.5130138 7.4776731 -1.0007149 3 5
7.3632193 8.1776867 -1.027218 2 6
7.539371 10.226159 -0.8884185 2 8
7.4432964 9.1263866 -0.96140271 2 7
9.8960695 12.133784 0.2733047 16 23
7.3229456 11.021925 -0.848077 1 9
10.332603 11.475522 -0.89929444 2 10
9.908843 13.440034 -0.77781433 1 12
10.396517 12.747393 -0.86207795 2 11
21.967175 29.795565 4.5452394 15 29
49.787437 61.045452 6.4307227 62 28
9.7227688 14.633951 -0.71579695 2 13
10.886808 12.091031 -0.56816381 2 14
3.7831099 5.1312876 1.7082058 0 31
10.423878 15.565139 -0.32698828 2 17
9.8768587 12.020017 -0.45276508 26 15
2.7703595 3.728936 -1.3004316 5 1
3.8696854 4.7093601 -1.2190652 3 2
4.2639999 5.7393928 -1.1123718 3 3
5.4715605 6.658823 -1.0970184 2 4
9.9951477 12.163973 -0.091502771 11 19
5.5474973 7.4669952 -1.0020001 3 5
7.4011669 8.1594944 -1.0283332 2 6
7.5863171 10.21127 -0.88953459 2 8
7.4893489 9.1144466 -0.96302998 2 7
9.9353952 12.091255 0.27316508 18 23
7.3877258 11.031497 -0.85089117 1 9
10.388005 11.452366 -0.9004572 2 10
30.332191 40.82748 2.9620671 17 27
9.9747152 13.426081 -0.77911717 1 12
9.8877859 12.033316 -0.81623167 2 11
22.168566 29.839146 4.5642514 15 29
9.8141432 14.654671 -0.71856499 2 13
10.914933 12.033283 -0.56732619 2 14
3.7857614 5.0956783 1.7009588 1 31
10.449069 15.485556 -0.32608074 2 17
9.9187593 11.985464 -0.45276508 19 15
2.7787442 3.7130742 -1.298275 5 1
3.8911035 4.7018666 -1.2206341 3 2
4.2934823 5.7371302 -1.1148314 2 3
5.5048919 6.6519094 -1.0990387 2 4
10.060501 12.15674 -0.091712005 9 19
5.5830612 7.4603195 -1.0037136 3 5
7.429606 8.1336079 -1.0283332 3 6
7.6362624 10.203894 -0.89120871 2 8
7.5389132 9.109746 -0.96530819 2 7
10.000493 12.084228 0.27379334 16 23
7.4351211 11.018875 -0.85191453 1 9
30.441034 40.676582 2.9588113 17 27
9.996273 12.079129 0.63877869 11 26
10.040674 13.416769 -0.78060615 1 12
9.8991718 11.961796 -0.81371951 2 11
9.8719482 14.63026 -0.71905351 2 13
10.956874 11.995107 -0.56732619 2 14
10.482827 15.419219 -0.32545248 2 17
2.8009644 3.7156549 -1.3025882 5 1
3.9100051 4.691267 -1.2214185 3 2
4.3182425 5.7284198 -1.1160612 2 3
5.5407825 6.6478915 -1.1015639 2 4
5.6162534 7.4503121 -1.0049988 3 5
7.471436 8.1222782 -1.0301921 2 6
7.6934552 10.205851 -0.89371991 2 8
7.5783277 9.0925608 -0.96628451 2 7
10.081027 12.095326 0.2748405 14 23
7.4847641 11.00936 -0.8531937 1 9
9.9919052 10.862307 -0.85952735 5 10
29.832884 39.575188 2.8862536 14 27
10.015351 12.016529 0.63731325 6 26
10.121125 13.426307 -0.78321189 1 12
9.8718195 11.844317 -0.80806726 2 11
50.306927 60.358803 6.4144502 62 28
9.9476776 14.632067 -0.72084457 2 13
11.039277 12.000916 -0.56942016 2 14
10.43714 15.237355 -0.32238084 2 17
10.503459 12.513101 -0.47545567 1 15
2.8185751 3.7119913 -1.3047447 5 1
3.9339209 4.6866035 -1.2237719 3 2
4.3382111 5.7133126 -1.1160612 2 3
5.5665045 6.6315517 -1.1020691 2 4
5.6542487 7.4465003 -1.0071408 3 5
7.5132732 8.1107597 -1.032051 2 6
22.902651 24.723963 0.39235109 10 22
7.7410965 10.194825 -0.89511508 2 8
7.6279597 9.0874281 -0.96856272 2 7
10.174608 12.121331 0.27623668 7 23
7.5411925 11.009514 -0.85524029 1 9
10.010761 10.806858 -0.85789943 5 10
29.717276 39.13689 2.8618355 14 27
10.059803 11.984559 0.63747609 2 26
10.196922 13.429085 -0.78544539 1 12
9.8874187 11.779193 -0.80597377 2 11
22.153305 29.175333 4.4979539 15 29
10.043861 14.663202 -0.72410113 2 13
11.216928 12.108945 -0.5764001 2 14
10.483068 15.196077 -0.32224125 2 17
10.516505 12.44461 -0.47417572 1 15
2.8285291 3.6995647 -1.3036666 5 1
3.9545033 4.6795249 -1.2253408 3 2
11.21129 12.022643 -0.19137941 1 18
4.3619332 5.7051749 -1.1172911 2 3
5.5910239 6.616087 -1.1025741 2 4
5.6861563 7.4371877 -1.0084258 3 5
7.5564241 8.1032772 -1.0342816 3 6
23.025423 24.691759 0.39304954 10 22
7.7990952 10.200799 -0.89790535 2 8
7.6812105 9.0894899 -0.97149187 2 7
10.596018 15.359809 0.54306209 1 25
10.219909 12.093635 0.27637631 18 23
7.5912585 11.004161 -0.85677528 1 9
10.10101 10.832013 -0.86255056 7 10
29.793528 38.968338 2.856719 14 27
10.260811 13.42059 -0.78693438 1 12
9.9264231 11.746342 -0.80597377 2 11
22.216167 29.057556 4.4911294 15 29
10.108315 14.652844 -0.72524095 2 13
11.341537 12.162316 -0.58072764 2 14
10.533532 12.372496 -0.47289571 1 15
2.8444195 3.6922245 -1.3047447 5 1
3.9767122 4.6709743 -1.2269099 3 2
4.3924623 5.7016754 -1.1197507 2 3
5.6255231 6.6076374 -1.1045945 2 4
10.135904 11.905449 -0.090875089 1 19
5.7182302 7.4226003 -1.0092827 3 5
7.6024323 8.0929461 -1.0365124 3 6
10.469625 13.59019 0.39919552 1 24
7.8486047 10.187952 -0.89930046 2 8
7.7170553 9.0643139 -0.97181731 2 7
10.264162 12.056099 0.27637631 12 23
7.6497669 11.002486 -0.85882193 1 9
10.192588 10.85022 -0.86696917 7 10
29.677824 38.523567 2.8320682 14 27
30.180935 35.449978 1.8967966 10 26
10.344067 13.42721 -0.78954011 1 12
11.007778 12.929537 -0.88992071 2 11
21.934845 28.472723 4.4131331 14 29
34.088402 40.039616 4.2927899 21 28
10.182483 14.645234 -0.72670645 2 13
11.416142 12.152718 -0.58226317 2 14
10.574507 12.337494 -0.47289571 1 15
2.8590097 3.6858151 -1.3058231 5 1
3.9998386 4.6666942 -1.2292632 3 2
11.316936 11.96733 -0.19175193 3 18
4.4113469 5.687077 -1.1197507 2 3
5.6525707 6.5949707 -1.1056046 2 4
5.7501268 7.4130225 -1.0105679 3 5
7.6347027 8.0734758 -1.0372559 2 6
10.492579 13.526957 0.39835802 1 24
22.823494 24.135181 0.38671681 19 22
7.9019136 10.187091 -0.90153265 2 8
7.7678304 9.0628872 -0.97442102 3 7
7.6953712 10.990135 -0.85984522 1 9
10.283389 10.874385 -0.87162024 5 10
30.334747 35.392174 1.8990762 10 26
10.422825 13.437031 -0.79214585 1 12
11.09219 12.941486 -0.89327019 2 11
21.968317 28.321398 4.4009461 14 29
34.182083 39.880939 4.2879081 21 28
10.242457 14.627754 -0.72752064 2 13
11.379475 12.033463 -0.57835448 2 14
10.489004 12.147341 -0.46707764 1 15
2.8772447 3.6813803 -1.3079797 4 1
4.0194807 4.6549702 -1.2300477 3 2
11.385555 11.951832 -0.19217102 3 18
4.4394646 5.6802115 -1.1215955 2 3
5.6844859 6.5832167 -1.1071198 1 4
5.791955 7.410697 -1.0131382 3 5
7.680728 8.0627403 -1.0394865 2 6
22.84008 23.976065 0.38550612 19 22
7.9514871 10.173778 -0.90292776 2 8
7.808814 9.0434065 -0.97539741 3 7
7.7540174 10.987947 -0.86189187 1 9
10.383776 10.900228 -0.87673652 5 10
29.864918 38.211601 2.8243937 29 27
23.103533 26.756256 1.4402237 6 26
10.489233 13.420775 -0.79344869 1 12
11.160437 12.924928 -0.89494491 2 11
22.003525 28.153095 4.3872967 14 29
34.322823 39.749344 4.2872572 21 28
10.330573 14.639094 -0.72996306 2 13
11.343546 11.907733 -0.57430613 2 14
9.9501381 11.450365 -0.44147795 1 15
2.8911765 3.6753511 -1.3090581 5 1
4.0418019 4.6512027 -1.2324011 3 2
11.453489 11.947767 -0.19268321 5 18
4.4572859 5.6662369 -1.1215955 2 3
5.7025347 6.5623317 -1.1066148 2 4
10.659948 12.267197 -0.094455227 1 19
5.8201227 7.3987164 -1.0139949 3 5
7.7225533 8.0558214 -1.0417172 2 6
22.865463 23.852226 0.38466799 9 22
7.9932752 10.161293 -0.90404391 2 8
7.8476439 9.0308685 -0.97669923 3 7
7.7954307 10.973296 -0.86265939 1 9
10.931954 11.403726 -0.91999191 2 10
29.994677 38.130142 2.8253241 14 27
23.17174 26.665447 1.4392468 6 26
10.565926 13.431726 -0.79605454 1 12
11.232424 12.925987 -0.89745706 2 11
22.491961 28.592463 4.4667554 15 29
34.295849 39.466789 4.2683806 20 28
10.385765 14.6196 -0.7306143 2 13
11.450055 11.944184 -0.5777961 2 14
2.9052684 3.664222 -1.3090581 5 1
4.0648012 4.6415496 -1.23397 4 2
11.535411 11.941093 -0.19328855 1 18
4.4863782 5.6583705 -1.1234403 3 3
5.7303071 6.5433712 -1.1071198 2 4
5.8583746 7.3887782 -1.0157084 3 5
7.7644992 8.0375652 -1.0432043 2 6
9.7366228 12.280154 0.36467299 181 24
22.956886 23.764246 0.38466799 9 22
8.0545464 10.158664 -0.90655512 2 8
7.9006505 9.0216608 -0.97897738 3 7
7.8561044 10.969244 -0.86470598 1 9
11.02283 11.410486 -0.92394543 2 10
22.921358 28.909184 2.1485858 9 27
33.932755 38.747417 2.0983791 14 26
10.031569 12.652149 -0.75212914 1 12
11.297768 12.900789 -0.89871311 2 11
22.55719 28.449884 4.4579811 15 29
10.495353 14.654346 -0.73435944 2 13
11.609712 12.018007 -0.58351964 2 14
10.624646 12.055538 -0.46765941 1 15
2.9215703 3.6610987 -1.3112146 5 1
4.084549 4.6346426 -1.235539 3 2
11.617475 11.950686 -0.19403359 3 18
4.5115271 5.6535168 -1.1252849 2 3
5.7613287 6.5372453 -1.1091402 2 4
10.777068 12.228488 -0.094734199 7 19
5.881557 7.370338 -1.0157084 3 5
7.8008146 8.0245571 -1.0446914 2 6
9.7576914 12.227628 0.36402163 138 24
23.037003 23.697748 0.3847611 9 22
8.0988646 10.148907 -0.90795028 2 8
7.9500399 9.0207253 -0.98158103 3 7
7.9068666 10.967176 -0.8664968 1 9
11.069755 11.387257 -0.92487562 2 10
34.3582 38.985447 2.1171045 14 26
10.043849 12.586219 -0.75008172 3 12
11.36465 12.895203 -0.90080655 2 11
22.876757 28.667482 4.5033164 15 29
34.241058 38.852528 4.2276983 18 28
10.553024 14.637516 -0.73517358 2 13
11.722644 12.058871 -0.58728874 2 14
10.071972 12.621461 -0.37574625 1 16
10.69586 12.051269 -0.46893942 1 15
2.9295068 3.6448729 -1.3090581 5 1
4.1059098 4.6262221 -1.2371079 3 2
11.701092 11.952929 -0.19473206 3 18
4.5361881 5.6438951 -1.1265148 2 3
5.7946486 6.5289631 -1.1111604 2 4
10.846239 12.220705 -0.094966672 9 19
5.9147239 7.3590608 -1.0169936 3 5
7.8343515 8.0029678 -1.045435 2 6
23.153164 23.65148 0.38531989 9 22
8.1542416 10.145453 -0.91018248 2 8
8.0000067 9.0137901 -0.9838593 3 7
12.07128 13.600986 0.31742439 1 23
7.9568315 10.955657 -0.86777598 1 9
11.128993 11.368518 -0.92650354 2 10
33.069424 37.260075 2.0296652 11 26
10.050178 12.504365 -0.7472899 3 12
11.438762 12.888314 -0.90310931 2 11
34.220337 38.556835 4.2084966 18 28
10.643982 14.65556 -0.73794162 2 13
11.784243 12.03787 -0.58826596 2 14
10.755381 12.025017 -0.46952125 1 15
2.945904 3.6365912 -1.3101363 5 1
4.123642 4.610424 -1.2371079 4 2
11.797458 11.95917 -0.19557022 3 18
4.5652881 5.6356506 -1.1283594 2 3
5.8302555 6.5184975 -1.1131806 2 4
5.9529495 7.3486586 -1.0187072 3 5
7.8818026 7.9898415 -1.0476656 3 6
9.8747501 12.189952 0.36504519 17 24
23.342112 23.662071 0.38694963 9 22
8.2056942 10.129575 -0.91157764 2 8
8.0505018 9.0008373 -0.98581201 3 7
12.104749 13.533673 0.31693572 1 23
8.0153446 10.947572 -0.8695668 1 9
11.206211 11.359819 -0.92929423 2 10
33.177605 37.094112 2.0275486 11 26
10.105659 12.474999 -0.74784821 1 12
11.504141 12.862166 -0.90436542 2 11
10.733229 14.659731 -0.7402212 2 13
11.690002 11.850243 -0.58128601 2 14
9.8974047 12.217918 -0.36588266 15 16
10.8573 12.062492 -0.47231391 1 15
2.9621816 3.6332896 -1.3122928 5 1
4.1433535 4.6032782 -1.2386769 4 2
4.5829697 5.6212811 -1.1283594 2 3
5.8560138 6.5060487 -1.1141908 2 4
10.939316 12.153612 -0.095036425 9 19
5.9835448 7.3391685 -1.0199924 3 5
7.9265051 7.9848266 -1.0502681 3 6
9.8877268 12.127877 0.36411467 17 24
23.514957 23.687977 0.38857937 10 22
8.2576456 10.128488 -0.91380978 2 8
8.0920744 8.9903193 -0.98743933 3 7
8.0615368 10.938405 -0.87084591 1 9
11.267163 11.350064 -0.93138719 2 10
29.779989 36.526905 2.7446272 14 27
33.347446 37.04911 2.0308049 11 26
9.9200878 12.167571 -0.73128313 1 12
11.571214 12.855653 -0.90645891 2 11
23.544481 28.878687 4.5749755 15 29
34.219288 38.017731 4.1756253 16 28
10.812426 14.670986 -0.7425009 2 13
11.960929 12.048935 -0.59287268 2 14
9.870039 12.106182 -0.36346331 17 16
10.895479 12.011827 -0.47196484 1 15
2.9810026 3.6278408 -1.3144495 5 1
4.1662693 4.5931439 -1.2402458 3 2
9.9572296 12.117817 0 154 20
4.6220865 5.6250181 -1.1326638 2 3
5.8916168 6.4952698 -1.1162111 2 4
10.983216 12.108553 -0.095013179 7 19
6.0116825 7.3161387 -1.0199924 3 5
7.9711914 7.9684091 -1.0521269 2 6
9.9291477 12.083641 0.36392859 22 24
23.699095 23.690821 0.39011601 10 22
8.3142109 10.118285 -0.91576296 2 8
8.1452856 8.9798489 -0.98971754 3 7
22.756123 25.087708 0.59121776 4 23
8.1177645 10.926594 -0.87238091 1 9
11.338905 11.334947 -0.93371278 2 10
29.821159 36.291958 2.7355573 13 27
33.524372 36.95927 2.0329218 11 26
11.660748 12.855505 -0.90959901 2 11
23.506491 28.60709 4.5462141 15 29
34.287342 37.800411 4.1661868 16 28
10.928268 14.709561 -0.7465716 2 13
11.913812 11.909653 -0.58826596 2 14
9.9062977 12.055834 -0.36309111 16 16
11.026328 12.071143 -0.47580478 1 15
2.9936469 3.6174135 -1.3144495 5 1
4.1875672 4.5843658 -1.2418147 3 2
10.012216 12.098395 0 154 20
23.100382 22.931675 -0.37894055 5 18
4.6416917 5.6088505 -1.1326638 3 3
5.9222808 6.4834552 -1.1177263 2 4
11.022716 12.067189 -0.094989918 7 19
6.0447884 7.3043017 -1.0212775 3 5
8.0130882 7.9545665 -1.0539858 3 6
9.9789124 12.058153 0.36420774 22 24
22.978321 22.810505 0.37693828 9 22
8.3672857 10.110722 -0.91771621 2 8
8.1954021 8.9719687 -0.99199569 3 7
22.800392 24.960876 0.59010077 4 23
8.1678133 10.914174 -0.87366009 1 9
11.412408 11.329062 -0.93650347 2 10
32.308128 35.36953 1.9516702 10 26
23.284731 28.136417 4.4843049 15 29
34.241615 37.486229 4.1447067 15 28
11.003492 14.703327 -0.74819988 2 13
15.285999 15.174363 -0.75215399 3 14
9.9534168 12.027345 -0.36327723 5 16
10.955966 11.918695 -0.47115031 1 15
3.0025327 3.6050303 -1.3133712 5 1
4.2072587 4.576961 -1.2433836 3 2
10.068097 12.088393 0 88 20
23.155228 22.842125 -0.37866116 5 18
4.6719384 5.6094241 -1.1357384 2 3
5.9560485 6.4794221 -1.1202518 2 4
6.0753441 7.2944417 -1.0225627 3 5
8.0493822 7.9405398 -1.055473 2 6
10.037222 12.051323 0.36495215 20 24
22.998621 22.687637 0.37610015 9 22
8.4117794 10.099713 -0.91911131 2 8
8.2424364 8.9667206 -0.9942739 3 7
8.2212772 10.913964 -0.87570667 1 9
11.476373 11.321191 -0.938829 2 10
9.9999552 12.006577 0.90999198 13 27
23.306803 25.354832 1.4030987 6 26
11.802523 12.839642 -0.91399521 2 11
23.299334 27.974651 4.4701676 15 29
34.240509 37.249313 4.1303864 15 28
11.068871 14.694221 -0.74950254 2 13
15.35352 15.145912 -0.75313115 3 14
10.252195 12.309433 -0.37276855 1 16
10.972406 11.849124 -0.46998665 1 15
3.0182004 3.5969524 -1.3144495 5 1
4.2240047 4.5615115 -1.2433836 4 2
23.304516 22.821474 -0.37973216 5 18
4.7000871 5.601347 -1.1375831 2 3
5.9905396 6.4691958 -1.122272 2 4
11.110036 11.99775 -0.095036425 1 19
6.1173744 7.2904053 -1.025133 3 5
8.1040392 7.9360633 -1.0588188 2 6
10.104455 12.042025 0.36578962 22 24
22.995882 22.519239 0.3747032 9 22
8.4564323 10.077987 -0.9199484 2 8
8.2860785 8.9481535 -0.99557579 3 7
22.90727 24.737608 0.58849514 42 23
8.280529 10.909198 -0.87775338 1 9
11.560583 11.320962 -0.94231731 2 10
10.061859 11.991261 0.9116199 4 27
23.356123 25.222326 1.4004935 6 26
11.876641 12.825609 -0.9160887 2 11
34.173641 36.904182 4.1059771 14 28
11.156479 14.698123 -0.75178212 2 13
15.460336 15.139884 -0.7556439 3 14
10.510587 12.526033 -0.38049194 1 16
11.081875 11.883854 -0.47289571 1 15
3.0307391 3.5863945 -1.3144495 5 1
4.2479277 4.5553436 -1.2457371 3 2
23.346764 22.703732 -0.37912682 5 18
4.7196126 5.5849056 -1.1375831 2 3
6.0212045 6.4569502 -1.1237873 2 4
6.1479225 7.2750821 -1.0259899 3 5
8.1573915 7.9327145 -1.0621649 2 6
10.185149 12.052493 0.36718541 20 24
22.994068 22.360748 0.37339938 9 22
8.5070162 10.066691 -0.92162257 2 8
8.3335791 8.9366674 -0.99752849 3 7
22.998941 24.663342 0.58863473 47 23
8.32341 10.886566 -0.87826496 1 9
11.634386 11.313944 -0.945108 2 10
29.847036 35.319187 2.6929998 13 27
32.460751 34.809887 1.9391322 10 26
9.9163895 11.734459 -0.71564871 1 12
11.943135 12.807442 -0.91776341 2 11
11.227141 14.684487 -0.75308472 2 13
15.513094 15.085822 -0.7556439 3 14
10.531022 12.461779 -0.37965447 1 16
11.181418 11.91118 -0.47545567 1 15
3.0550928 3.5909956 -1.319841 5 1
4.2683764 4.5469542 -1.247306 3 2
10.121552 11.897002 0 11 20
23.439171 22.642879 -0.37940621 5 18
4.7483478 5.5812693 -1.1400428 3 3
6.0480103 6.4427371 -1.1247973 2 4
11.235241 11.968515 -0.09540838 3 19
6.179739 7.2637453 -1.027275 3 5
8.1951046 7.9166942 -1.0636519 2 6
10.250965 12.049117 0.36811593 17 24
22.999039 22.217699 0.37228185 8 22
8.5610304 10.062745 -0.92385471 2 8
8.3795338 8.9264288 -0.99948126 3 7
22.730217 24.213718 0.57969916 9 23
8.3765039 10.881053 -0.88005579 1 9
11.709169 11.311378 -0.9481312 2 10
30.046772 35.317364 2.7004414 27 27
10.628415 12.492776 -0.76404101 1 12
12.018338 12.802723 -0.92027557 2 11
11.302584 14.682021 -0.7548759 2 13
15.577402 15.048195 -0.75634187 3 14
10.59042 12.448116 -0.38030583 1 16
3.0707431 3.5826962 -1.3209193 5 1
4.2931018 4.5398264 -1.2496594 3 2
10.146874 11.838557 0 19 20
23.553776 22.587252 -0.37991843 5 18
4.7764926 5.5728273 -1.1418875 3 3
6.0743151 6.4234061 -1.1253024 2 4
11.309272 11.959216 -0.095664106 3 19
6.2166791 7.2531214 -1.0289886 3 5
8.2384453 7.900382 -1.0655109 2 6
10.321092 12.04182 0.36904645 5 24
22.999504 22.055723 0.37097806 8 22
8.6160383 10.052501 -0.92580789 2 8
8.4313755 8.9159269 -1.0017594 3 7
22.76387 24.072111 0.57830292 13 23
8.431016 10.869197 -0.88159078 3 9
11.776497 11.293251 -0.95022416 2 10
34.15464 39.848888 3.0564849 22 27
32.930904 34.823444 1.9526471 31 26
12.084404 12.778895 -0.92174101 2 11
34.235001 36.202488 4.0675731 12 28
11.397974 14.694176 -0.757644 2 13
15.635348 14.993754 -0.75648147 3 14
3.0769508 3.5671988 -1.3187627 5 1
4.3100457 4.5291586 -1.2504439 3 2
10.207527 11.833884 0 4 20
23.560913 22.452444 -0.37889397 5 18
4.7965565 5.5607877 -1.1425024 2 3
6.1054049 6.4157901 -1.1273228 2 4
11.377117 11.955504 -0.095919833 1 19
6.2472258 7.2425914 -1.0302737 3 5
8.2747545 7.8854527 -1.066998 2 6
22.9876 21.906103 0.36967427 8 22
8.6658173 10.046535 -0.92776108 2 8
8.4868259 8.9182768 -1.0050141 3 7
22.781481 23.93964 0.57683694 13 23
8.4724894 10.852098 -0.88235825 1 9
11.849496 11.292013 -0.95324743 2 10
34.305733 39.771637 3.0588105 22 27
33.131058 34.815365 1.9580204 21 26
11.548346 13.388333 -0.82360089 1 12
12.113473 12.729295 -0.92090356 2 11
24.256334 28.121077 4.5598636 15 29
34.354053 36.10054 4.068224 12 28
11.476051 14.699249 -0.7597608 2 13
15.705523 14.966626 -0.75759828 3 14
9.9723043 11.561183 -0.35527468 1 16
11.383014 11.874251 -0.47871384 140 15
3.0975835 3.5646203 -1.3219976 5 1
4.3266158 4.5133324 -1.2504439 3 2
23.044481 21.799717 -0.36930174 5 18
4.8272748 5.5551047 -1.1449621 2 3
6.1398611 6.4048285 -1.129343 2 4
9.7561522 12.402319 0.091712005 2 21
11.456842 11.951265 -0.096222058 1 19
6.284162 7.2316537 -1.0319873 3 5
8.3238506 7.8742318 -1.0696003 2 6
22.995087 21.752989 0.36851016 8 22
8.7156668 10.029767 -0.92915624 2 8
8.5360069 8.9043808 -1.0069668 3 7
22.844156 23.830002 0.57620865 9 23
8.5368843 10.852347 -0.8849166 1 9
11.916908 11.273208 -0.9553405 2 10
29.967075 34.485348 2.6606743 13 27
33.30545 34.742756 1.9607885 10 26
11.620923 13.373061 -0.82527596 1 12
12.165572 12.69058 -0.92132223 2 11
34.323357 35.804592 4.0490222 12 28
11.559498 14.694787 -0.76171476 2 13
15.768981 14.917207 -0.75801706 3 14
11.488266 11.900603 -0.48139015 140 15
3.1100082 3.5537851 -1.3219976 5 1
4.3477936 4.5038452 -1.2520128 4 2
10.697619 12.224096 0 1 20
23.753042 22.313395 -0.37940621 5 18
4.8466372 5.5382195 -1.1449621 2 3
6.1649384 6.3862104 -1.129848 2 4
6.3250833 7.2276292 -1.0345576 3 5
8.3658028 7.8587604 -1.0714593 2 6
23.108782 21.708183 0.3691155 8 22
8.761138 10.011292 -0.93027234 2 8
8.5836535 8.8917389 -1.0089196 3 7
9.7283659 12.278545 0.45590687 24 25
22.938316 23.76162 0.5764879 9 23
8.5821533 10.831866 -0.88568407 3 9
11.988205 11.261612 -0.9578985 2 10
33.618065 34.824688 1.9720237 10 26
11.707007 13.377517 -0.8280679 1 12
12.259738 12.699765 -0.92509043 2 11
34.337383 35.569824 4.0360036 12 28
15.858838 14.89765 -0.75983185 3 14
11.005479 12.575886 -0.38886666 1 16
11.533238 11.868179 -0.4816229 116 15
3.126868 3.5492337 -1.3241543 5 1
4.3709044 4.4978414 -1.2543663 3 2
10.724874 12.17355 0 3 20
22.739077 21.219383 -0.36208427 5 18
4.8780394 5.5369468 -1.1480366 2 3
6.1943765 6.37427 -1.1313633 2 4
11.657792 11.99635 -0.097221702 3 19
6.3569021 7.2155685 -1.0358428 3 5
8.4209347 7.8581486 -1.0751771 2 6
12.070148 13.700539 0.42487797 1 24
23.265442 21.710571 0.37046584 8 22
8.8233023 10.015121 -0.93334162 2 8
8.6297607 8.8803806 -1.0108722 3 7
9.7665329 12.243093 0.45579052 16 25
23.02813 23.696898 0.57676709 9 23
8.6379385 10.828313 -0.88773078 1 9
12.054678 11.249043 -0.96022415 2 10
30.111364 34.178696 2.6527674 26 27
33.864265 34.847729 1.9796767 10 26
11.782998 13.374602 -0.8303014 1 12
12.393648 12.753576 -0.93199879 2 11
34.218975 35.212742 4.0083399 12 28
15.861386 14.801342 -0.75759828 3 14
10.859433 12.326284 -0.38225994 1 16
9.8991899 12.316509 -0.27581784 2 17
11.621413 11.871538 -0.48348469 115 15
3.1424134 3.5406299 -1.3252325 5 1
4.3955932 4.4901986 -1.2567197 3 2
10.780044 12.146124 0 3 20
22.740412 21.065222 -0.36087361 10 18
4.9035487 5.5249414 -1.1492664 2 3
6.2288032 6.362864 -1.1333836 2 4
9.8103209 12.205938 0.091014579 155 21
11.746456 11.999272 -0.097593665 3 19
6.3912268 7.2011428 -1.0371279 3 5
8.4584465 7.8353491 -1.0762924 2 6
12.077813 13.608352 0.42338917 1 24
23.438763 21.712128 0.3719559 8 22
8.8811417 10.006587 -0.93557382 2 8
8.6845646 8.87148 -1.0134759 3 7
9.8138494 12.210329 0.45590687 10 25
23.18478 23.683781 0.57851237 4 23
8.6975775 10.82147 -0.88977736 1 9
12.130984 11.237346 -0.96301484 2 10
30.353071 34.199505 2.6629999 13 27
30.013296 30.659266 1.7479708 9 26
11.855812 13.358217 -0.83197653 1 12
12.473845 12.742317 -0.93451095 2 11
34.294827 35.032948 4.0021563 12 28
10.032703 12.482626 -0.65245634 100 13
15.947794 14.772987 -0.75913388 3 14
10.755889 12.118909 -0.37704897 1 16
3.1541367 3.5301902 -1.3252325 5 1
4.4159646 4.4811864 -1.2582886 3 2
10.82559 12.116276 0 3 20
22.739498 20.9247 -0.35975605 10 18
4.9297423 5.5174932 -1.1511111 2 3
6.2582231 6.3506546 -1.1348989 2 4
9.8406763 12.160904 0.090921588 116 21
11.87883 12.054276 -0.098360837 1 19
6.428319 7.1947384 -1.0392698 2 5
8.4961042 7.8180451 -1.0777795 2 6
12.128201 13.57419 0.42357525 1 24
23.604813 21.720955 0.37344599 9 22
8.9302263 9.994936 -0.93724799 2 8
8.7307234 8.8596725 -1.0154287 3 7
9.8391924 12.159071 0.45520869 15 25
23.36986 23.715023 0.58116519 4 23
8.7535 10.817395 -0.89182401 1 9
12.194625 11.221394 -0.9651078 2 10
34.395985 38.496861 3.0064852 20 27
11.929327 13.351606 -0.83402389 1 12
12.552478 12.737873 -0.93723238 2 11
34.184139 34.689026 3.9757938 12 28
15.979043 14.703784 -0.75829625 3 14
9.8867836 12.131035 -0.27316508 20 17
3.1767464 3.5306113 -1.3295457 5 1
4.4288173 4.4629588 -1.2575041 3 2
10.875846 12.087331 0 1 20
22.765162 20.802023 -0.35901102 10 18
4.9516172 5.5031891 -1.1517261 2 3
6.2887383 6.3372178 -1.1364141 3 4
9.9007578 12.148181 0.091084316 87 21
12.143421 12.237033 -0.1001974 1 19
6.4587164 7.1781673 -1.0401267 3 5
8.5468645 7.8098311 -1.0807537 2 6
23.745455 21.697781 0.37447041 9 22
8.9837456 9.9844656 -0.93920118 2 8
8.772831 8.8404598 -1.0167305 3 7
9.8689489 12.109152 0.45462689 18 25
23.545465 23.726974 0.58346885 4 23
8.8063402 10.805336 -0.89335895 1 9
12.28089 11.221856 -0.96882874 2 10
34.466057 38.305309 3.0009038 39 27
34.125984 34.389061 1.9738148 10 26
12.018624 13.357406 -0.83700186 2 12
12.627818 12.725164 -0.9395352 2 11
34.271328 34.535522 3.9718883 12 28
9.8144445 12.042275 -0.63291687 33 13
16.083393 14.696453 -0.76080906 3 14
9.9007206 12.057628 -0.27232736 24 17
3.1896648 3.518945 -1.3295457 5 1
4.4479179 4.449472 -1.2582886 3 2
10.925447 12.053319 0 1 20
22.790884 20.672766 -0.35821941 10 18
4.9770617 5.4908614 -1.1529559 2 3
6.3203378 6.322546 -1.1379292 3 4
9.9426756 12.108723 0.091061071 114 21
22.925669 22.933678 -0.18846875 5 19
6.4956641 7.166234 -1.0418402 3 5
8.5931292 7.7945085 -1.0829843 2 6
22.803753 25.157864 0.79010928 21 24
23.925539 21.701969 0.37605357 9 22
9.0363569 9.9692116 -0.94087535 2 8
8.8136272 8.8167067 -1.0177069 3 7
9.9132624 12.072902 0.45462689 18 25
22.92539 22.933401 0.5660165 4 23
8.8661489 10.79767 -0.89540565 1 9
12.339682 11.192867 -0.97022408 2 10
34.33091 34.342903 1.978374 10 26
12.713908 12.718349 -0.94246602 2 11
34.290562 34.302544 3.9595211 12 28
9.8509045 11.996959 -0.63242841 35 13
16.119381 14.621292 -0.75997144 3 14
9.9401979 12.019914 -0.27225754 16 17
12.149111 12.06881 -0.49837902 1 15
3.2071214 3.5134797 -1.3317022 5 1
4.4801173 4.4505053 -1.2629955 3 2
10.997114 12.047606 0 1 20
22.785631 20.523491 -0.35700876 10 18
5.0015259 5.4792938 -1.1541857 2 3
6.3479981 6.3060398 -1.1389394 3 4
9.9950762 12.086274 0.091154061 71 21
22.95166 22.799957 -0.18802704 5 19
6.5340433 7.1582036 -1.043982 3 5
8.6469164 7.7884569 -1.0863304 2 6
22.837505 25.019043 0.7882483 14 24
24.072468 21.682571 0.37717113 9 22
9.0926199 9.9611864 -0.94310749 2 8
8.8613186 8.8027477 -1.0196596 3 7
9.9757261 12.062876 0.45555776 19 25
22.940039 22.788412 0.56441081 9 23
8.9190464 10.785114 -0.89694065 1 9
12.417246 11.184471 -0.97324735 2 10
22.901833 22.75046 1.315171 5 26
10.150133 11.119719 -0.70131707 1 12
12.786561 12.702046 -0.9445594 2 11
34.339378 34.112404 3.9513845 12 28
9.8978128 11.968661 -0.63275403 20 13
16.167347 14.562264 -0.75983185 3 14
17.687586 17.44842 -0.72307432 3 15
3.2245815 3.5079348 -1.333859 5 1
4.5012116 4.4403472 -1.2645644 4 2
22.824348 20.414494 -0.35649654 10 18
5.0259733 5.4676204 -1.1554155 2 3
6.3812733 6.2949877 -1.1409597 3 4
10.067925 12.08819 0.091433033 83 21
22.945686 22.635422 -0.18732962 5 19
6.5670671 7.1441345 -1.0452672 3 5
8.691865 7.7741551 -1.0885611 2 6
22.843519 24.850847 0.78545666 7 24
33.473328 29.939125 0.52282435 16 22
9.1408405 9.9440737 -0.94450265 2 8
8.9061861 8.785759 -1.021287 3 7
10.043365 12.058701 0.4567214 16 25
22.922649 22.612698 0.56203729 8 23
8.987298 10.79072 -0.90001059 1 9
12.483003 11.165015 -0.97534031 2 10
34.423317 37.448193 2.9622996 17 27
22.909985 22.600203 1.3111001 5 26
12.265607 13.343422 -0.84426075 2 12
12.890545 12.716242 -0.9489556 2 11
34.353245 33.888729 3.9393427 12 28
16.26874 14.551043 -0.762205 3 14
10.499746 12.521992 -0.28524211 2 17
3.2335794 3.4943955 -1.3327806 5 1
4.5243144 4.4336333 -1.2669178 4 2
22.900883 20.346666 -0.35663626 10 18
5.0548134 5.4625282 -1.1578752 3 3
6.4134469 6.2849011 -1.14298 3 4
22.949194 22.48922 -0.18674842 5 19
6.6042261 7.1369143 -1.0474093 3 5
8.7265272 7.7532258 -1.0896764 2 6
23.445076 20.830162 0.36511096 8 22
9.1927347 9.9342089 -0.94645584 2 8
8.9580479 8.7785006 -1.0238906 3 7
10.098708 12.043714 0.45741957 14 25
22.923237 22.463783 0.56022227 4 23
9.0281601 10.766978 -0.90052223 3 9
12.540852 11.142125 -0.97696817 2 10
34.495766 37.278149 2.9578812 17 27
22.907724 22.448582 1.3067039 5 26
12.334208 13.32907 -0.84593582 2 12
12.958316 12.69859 -0.95083976 2 11
34.286034 33.598835 3.9188387 12 28
10.441282 12.452268 -0.66206324 2 13
10.527915 12.466929 -0.2848233 2 17
17.866116 17.386177 -0.72551793 9 15
3.2510102 3.4887223 -1.3349372 5 1
4.5425749 4.420548 -1.2677022 3 2
22.929781 20.229551 -0.35598436 9 18
5.0819354 5.4535236 -1.1597198 3 3
6.4438791 6.2707777 -1.1444951 3 4
22.958763 22.342022 -0.18619049 5 19
6.639945 7.1254539 -1.0491228 3 5
8.7774315 7.743794 -1.0926505 2 6
22.973976 24.65382 0.78415394 41 24
33.919281 29.924919 0.52659607 16 22
9.2382393 9.9137344 -0.94757193 2 8
9.0029249 8.7610798 -1.0255179 3 7
10.179385 12.054209 0.45916498 14 25
22.921259 22.305525 0.55826759 4 23
9.0940208 10.768944 -0.90333635 1 9
12.618599 11.132623 -0.97999144 2 10
34.495018 37.017273 2.9467182 17 27
22.897156 22.28207 1.3016561 5 26
12.315289 13.215776 -0.84146887 2 12
13.071271 12.720138 -0.95586395 2 11
10.520791 12.458493 -0.66434294 2 13
16.370405 14.442614 -0.76234466 7 14
10.5839 12.440445 -0.28510252 2 17
17.961349 17.351141 -0.72679794 6 15
3.269047 3.4824009 -1.3370938 5 1
4.5643878 4.4093199 -1.2692711 3 2
22.958635 20.105852 -0.35528588 9 18
5.0991831 5.4319806 -1.1591049 3 3
6.4753804 6.2553892 -1.1460104 3 4
10.17063 11.954681 0.091223806 14 21
22.959944 22.179914 -0.18553954 5 19
6.679625 7.1155696 -1.0512648 3 5
8.8177385 7.7220683 -1.0941377 2 6
23.045017 24.549047 0.78350258 27 24
30.27651 26.514425 0.46853033 15 22
9.2990894 9.9059935 -0.9500832 3 8
9.0521774 8.7446442 -1.0274706 3 7
10.254586 12.053365 0.46056134 6 25
22.928068 22.149122 0.55645251 4 23
9.1541214 10.759866 -0.90538305 1 9
12.692361 11.11524 -0.98254955 2 10
34.532059 36.785789 2.9383461 16 27
22.909679 22.131359 1.2977482 5 26
12.114781 12.905451 -0.82453156 1 12
13.181009 12.733205 -0.9604696 2 11
10.605227 12.465512 -0.66678536 2 13
16.432249 14.390418 -0.76276338 3 14
11.229657 11.96256 -0.38179466 2 16
9.9616814 11.630706 -0.26730105 2 17
18.059181 17.330233 -0.72842699 3 15
3.2805779 3.47154 -1.3370938 5 1
4.5818162 4.396874 -1.2700557 2 2
23.031221 20.034851 -0.35537902 9 18
5.1253138 5.4236579 -1.1609497 3 3
6.4989529 6.2366266 -1.1465156 3 4
10.181598 11.887468 0.09096808 8 21
22.955452 22.028868 -0.18491186 5 19
6.7059169 7.0962677 -1.0516931 3 5
8.8613281 7.7084665 -1.0963683 2 6
22.796715 24.123709 0.77233624 20 24
23.483881 20.428619 0.36236367 8 22
9.3565559 9.9012003 -0.95259446 3 8
9.1041403 8.7366571 -1.0300744 3 7
22.914829 21.989885 0.55435824 4 23
9.2105284 10.753701 -0.90742964 1 9
12.744218 11.08619 -0.98371226 2 10
34.489307 36.496925 2.9243929 16 27
22.90509 21.980539 1.2933519 5 26
12.102628 12.80712 -0.82080907 1 12
10.675109 12.463663 -0.66857648 2 13
16.561316 14.406683 -0.76653254 3 14
18.151402 17.297436 -0.729707 3 15
3.3059523 3.4740202 -1.3424853 5 1
4.6028142 4.3862662 -1.2716246 3 2
11.465546 12.048431 0 1 20
23.143389 19.990944 -0.35603091 9 18
5.160562 5.4229145 -1.1646391 3 3
6.5379171 6.230329 -1.1495459 3 4
22.962706 21.882383 -0.18435392 5 19
6.7470961 7.0901051 -1.0542635 3 5
8.9092789 7.695713 -1.0989708 2 6
22.811863 23.971573 0.77000999 19 24
30.758976 26.569183 0.47318679 15 22
9.4048128 9.8829355 -0.95398951 3 8
9.1490097 8.7185783 -1.0317016 3 7
22.913271 21.835276 0.55247337 8 23
9.2610445 10.7366 -0.90870881 1 9
12.831188 11.083405 -0.9874332 2 10
34.531155 36.286648 2.9171836 15 27
22.90934 21.83153 1.2892811 5 26
12.103185 12.718487 -0.81783104 1 12
13.55655 12.918758 -0.98140395 2 11
34.31889 32.704296 3.8700202 12 28
12.697275 14.720323 -0.79200095 2 13
16.687134 14.414117 -0.77002251 3 14
18.330736 17.346651 -0.73447782 3 15
3.315393 3.4596786 -1.3414071 5 1
4.6294923 4.3809581 -1.2747625 3 2
11.457715 11.956354 0 1 20
23.27071 19.959518 -0.35691562 10 18
5.1849284 5.4105763 -1.165869 3 3
6.5653882 6.2129259 -1.1505561 3 4
23.018608 21.782856 -0.18419118 5 19
6.7773046 7.0722532 -1.0551202 3 5
8.9360857 7.6645699 -1.0989708 2 6
22.834524 23.828281 0.76796281 13 24
23.401257 20.071489 0.35891789 8 22
9.4640989 9.8759766 -0.95650077 3 8
9.1938658 8.7002935 -1.0333289 3 7
12.024818 13.842737 0.53363681 1 25
22.986443 21.752417 0.55240357 8 23
9.3246412 10.734345 -0.9112671 1 9
12.903136 11.067148 -0.98999125 2 10
22.944761 21.712973 1.2870015 5 26
12.117095 12.64443 -0.81578368 1 12
34.412567 32.565128 3.8677421 12 28
12.745957 14.672897 -0.79183811 2 13
16.825336 14.431259 -0.7740708 3 14
11.382677 11.878051 -0.38281825 114 16
18.460993 17.354229 -0.73738688 3 15
3.3268483 3.4486642 -1.3414071 5 1
4.638279 4.3602076 -1.2731935 3 2
23.388533 19.926329 -0.3577072 10 18
5.2110753 5.4018846 -1.1677136 3 3
6.5917392 6.1965547 -1.1515663 3 4
23.169409 21.780369 -0.18481886 5 19
6.8117666 7.0611868 -1.0568337 3 5
8.9796457 7.6503887 -1.1012014 2 6
22.916201 23.755301 0.76805586 13 24
35.320278 30.09182 0.54019284 17 22
9.5189619 9.8675089 -0.95873296 3 8
9.2546206 8.6997919 -1.0369089 3 7
12.041708 13.769674 0.5323568 1 25
23.134218 21.747288 0.55421865 4 23
9.3733282 10.718386 -0.91254628 1 9
12.979284 11.057961 -0.99301451 2 10
33.881855 35.122475 2.8420682 14 27
23.074883 21.691509 1.290258 5 26
12.158961 12.604175 -0.81578368 1 12
13.623797 12.807031 -0.97993857 2 11
12.810333 14.648597 -0.79281509 2 13
16.943094 14.435008 -0.77728158 3 14
11.480309 11.900674 -0.38477236 114 16
10.609554 12.042656 -0.28014603 2 17
18.597553 17.35465 -0.74029595 3 15
3.3448341 3.4419734 -1.3435637 5 1
4.6599641 4.3485312 -1.2747625 3 2
23.485838 19.861139 -0.35807976 10 18
5.2335925 5.3855848 -1.1683286 3 3
6.6231074 6.1804752 -1.1530814 3 4
23.333887 21.774448 -0.18549305 5 19
6.8486867 7.0475836 -1.0585474 3 5
9.0258694 7.6328578 -1.1034321 2 6
23.005894 23.674023 0.7681489 13 24
35.555542 30.06806 0.54210198 17 22
9.566186 9.8440037 -0.95984906 3 8
9.3039312 8.6821356 -1.0388616 3 7
12.081519 13.713449 0.53189135 1 25
23.301487 21.744213 0.55631292 4 23
9.4336596 10.707925 -0.91459292 1 9
13.06851 11.051576 -0.99673545 2 10
23.24481 21.691324 1.2953058 5 26
12.23292 12.588183 -0.81764489 1 12
10.771464 12.226437 -0.66385436 2 13
17.078299 14.442511 -0.78105074 4 14
11.551718 11.887198 -0.38570285 109 16
10.72585 12.089313 -0.28210071 4 17
18.951294 17.561382 -0.75193214 3 15
3.3622174 3.4357817 -1.3457202 5 1
4.6837463 4.3402348 -1.2771158 3 2
23.594847 19.812466 -0.35868508 10 18
5.2578902 5.3729315 -1.1695584 3 3
6.6562853 6.1681046 -1.1551018 3 4
23.503641 21.779856 -0.18623698 5 19
6.8732476 7.023632 -1.0585474 3 5
9.0707598 7.6166682 -1.1056627 2 6
23.105181 23.610714 0.76870722 6 24
23.827639 20.00794 0.36222395 8 22
9.6256104 9.836216 -0.96236032 3 8
9.3605013 8.6739902 -1.0417908 3 7
22.714277 25.6017 0.99605989 5 25
23.456455 21.73613 0.55819774 4 23
9.4789286 10.683884 -0.91536033 1 9
13.171229 11.05981 -1.0016191 2 10
23.399542 21.68339 1.2997022 5 26
12.410931 12.682478 -0.82657886 1 12
34.263351 31.750435 3.8133905 12 28
17.183716 14.429074 -0.78356355 4 14
11.629503 11.883953 -0.38691252 100 16
19.086033 17.562813 -0.75484121 3 15
3.3768935 3.4267693 -1.3467985 5 1
4.7046404 4.3291721 -1.2786849 3 2
23.676146 19.740236 -0.35887134 5 18
5.2849355 5.3629923 -1.1714032 2 3
6.6806941 6.1475205 -1.1556069 3 4
23.656052 21.768108 -0.18684143 5 19
6.9060965 7.0080972 -1.0598326 3 5
9.1125851 7.5977135 -1.1075215 2 6
23.285692 23.629616 0.77196407 6 24
36.090221 30.090603 0.54703778 17 22
9.6906939 9.8338223 -0.9654296 3 8
9.4053898 8.6547632 -1.043418 3 7
23.632248 21.746202 0.56057131 4 23
9.5427589 10.6805 -0.91791868 1 9
13.255758 11.052128 -1.0051074 2 10
23.551552 21.671947 1.3039358 5 26
13.114199 13.307892 -0.87031811 2 12
17.255468 14.386929 -0.78454071 4 14
19.182646 17.528442 -0.75623751 3 15
3.3915486 3.4176934 -1.3478768 5 1
4.7226195 4.3153677 -1.2794693 3 2
22.457075 18.591312 -0.33940744 4 18
5.3175454 5.3585372 -1.1744777 2 3
6.7138305 6.1348681 -1.1576271 3 4
23.832291 21.77713 -0.18763183 5 19
6.9445252 6.9980593 -1.0619744 2 5
9.1513233 7.576014 -1.1090087 2 6
23.449728 23.630499 0.77466261 6 24
36.361423 30.102163 0.54955232 17 22
9.7390175 9.8140936 -0.96682471 3 8
9.4738054 8.6568375 -1.047649 3 7
22.731995 25.264166 0.9890781 16 25
23.787729 21.73641 0.56245613 4 23
9.5986757 10.667894 -0.9197095 1 9
13.383464 11.079633 -1.0118517 2 10
23.73033 21.68396 1.3096347 5 26
13.211239 13.313082 -0.87366837 2 12
34.410603 31.443226 3.805254 12 28
17.357935 14.369939 -0.78691381 4 14
19.231781 17.456676 -0.75588846 3 15
3.4028623 3.4064288 -1.3478768 5 1
4.7427115 4.3049569 -1.2810383 3 2
23.667189 23.691994 0 8 20
22.422827 18.437994 -0.33796394 4 18
5.3408704 5.346468 -1.1757075 2 3
6.7488265 6.1259065 -1.1601526 3 4
23.990263 21.775949 -0.18830602 5 19
6.9873667 6.9946899 -1.0649731 3 5
9.1979284 7.5633349 -1.1116111 2 6
23.638174 23.662949 0.77829164 6 24
9.7884254 9.7986851 -0.96849889 3 8
9.5172176 8.638773 -1.0492764 3 7
22.753908 25.120491 0.9864018 16 25
23.963322 21.751495 0.56489944 4 23
9.650075 10.653758 -0.92124444 2 9
13.5836 11.169615 -1.0241771 2 10
31.667498 31.700687 2.6095121 13 27
23.887918 21.683052 1.3143568 5 26
13.455805 13.469907 -0.88688326 2 12
19.301571 17.39143 -0.75612116 3 15
3.4180562 3.3966498 -1.3489552 5 1
4.7642856 4.292798 -1.2826072 3 2
22.979277 22.835361 0 7 20
22.487152 18.353165 -0.33791739 4 18
5.3632331 5.3296442 -1.1763225 2 3
6.7771287 6.1064439 -1.1611626 3 4
23.240837 20.940855 -0.18181993 4 19
7.0185971 6.9746413 -1.0658299 3 5
9.2471838 7.5472026 -1.1142136 2 6
22.96455 22.820728 0.7533536 6 24
9.8412542 9.7796202 -0.97017306 3 8
9.5577011 8.6118431 -1.0502527 3 7
22.794615 24.980816 0.98419094 5 25
33.390251 30.085852 0.78452063 8 23
9.7105818 10.641911 -0.92329115 2 9
13.680132 11.165207 -1.0283631 2 10
31.667334 31.469009 2.5999773 13 27
33.314209 30.017336 1.8269429 9 26
14.039582 12.650184 -0.9904058 2 11
23.161209 20.869106 2.5450809 5 28
17.535252 14.311609 -0.79040378 4 14
19.442617 17.395926 -0.75926292 3 15
3.44086 3.3955195 -1.3532684 5 1
4.7880116 4.2839856 -1.2849606 2 2
22.990524 22.687574 0 7 20
22.529331 18.256924 -0.33759144 4 18
5.3902459 5.3192177 -1.1781672 2 3
6.8013616 6.0853939 -1.1616677 3 4
23.313797 20.859594 -0.18181993 4 19
7.057056 6.9640646 -1.0679718 3 5
9.2827578 7.5223975 -1.1153289 2 6
22.958681 22.656153 0.75056195 6 24
9.889535 9.7592192 -0.97156817 3 8
9.5995903 8.5890579 -1.0515546 3 7
9.7584763 10.619703 -0.92431444 2 9
13.777969 11.165149 -1.0327816 2 10
31.728678 31.310585 2.5960236 13 27
33.475388 29.95149 1.8300366 9 26
23.100222 20.668499 2.5304353 5 28
19.589857 17.411037 -0.76275378 3 15
3.4521017 3.3840895 -1.3532684 5 1
4.8051243 4.270689 -1.285745 2 2
22.985655 22.532799 0 7 20
5.4106784 5.3040791 -1.1787821 2 3
6.8422666 6.0812569 -1.1652032 3 4
23.242329 20.657272 -0.18072727 4 19
7.0886316 6.9489741 -1.069257 2 5
9.3293715 7.5090513 -1.1179314 2 6
22.973722 22.521103 0.74860781 6 24
9.9474907 9.7515087 -0.97407943 3 8
9.6459017 8.5730658 -1.0535073 3 7
22.863682 24.716471 0.97988558 49 25
30.168484 26.813087 0.70451874 6 23
9.8153276 10.610726 -0.92636114 2 9
13.811812 11.116891 -1.032549 2 10
23.123573 22.667999 1.8857974 6 27
33.738834 29.986338 1.8389924 9 26
23.249096 20.663288 2.5392227 5 28
12.066342 13.044155 -0.72393835 2 13
19.746431 17.427223 -0.76647741 3 15
3.4666512 3.3747082 -1.3543466 5 1
4.8258805 4.2590833 -1.2873139 2 2
22.995367 22.385481 0 7 20
22.587458 18.050724 -0.3366136 17 18
5.4433174 5.2989488 -1.1818566 2 3
6.8723736 6.065217 -1.1667185 3 4
23.551199 20.785124 -0.18256384 5 19
7.12709 6.9380636 -1.071399 3 5
9.3679657 7.486392 -1.1194185 2 6
22.957624 22.348738 0.7455371 12 24
9.9986181 9.7334328 -0.97575355 3 8
9.6996737 8.5604525 -1.056111 3 7
22.960701 24.648226 0.98035097 44 25
23.572001 20.80348 0.54877347 4 23
9.8713446 10.59685 -0.92815191 2 9
13.872362 11.086072 -1.0341769 2 10
