# .PCD v0.7 - Point Cloud Data file format
VERSION 0.7
FIELDS x y z intensity ring
SIZE 4 4 4 4 2
TYPE F F F F U
COUNT 1 1 1 1 1
WIDTH 1347
HEIGHT 1
VIEWPOINT 0 0 0 1 0 0 0
POINTS 1347
DATA ascii
4.3833699 17.76557 3.3362608 8 30
3.1299269 16.012554 -0.37965447 2 16
5.9032788 39.689274 -0.70039999 12 17
3.9824955 15.901956 -0.47708479 4 15
1.1086415 5.5684371 -1.5894164 2 1
1.3854885 5.5322037 -1.1406183 2 2
9.0413904 45.412708 0 15 20
13.758289 45.397778 -0.55225301 10 18
1.092815 5.4889445 -0.87071222 2 3
3.1386988 12.532706 -1.6445173 2 4
6.8856387 46.293934 0.27202082 19 21
11.397483 45.50972 -0.27267176 11 19
2.6635802 13.378517 -1.4693716 4 5
4.2750802 14.106343 -1.3759441 6 6
18.205954 60.073589 0.73078072 34 22
3.0939794 15.540306 -1.1080118 5 8
3.746273 14.958728 -1.2588712 6 7
2.4464352 16.448017 0.48395017 1 25
14.087281 56.249985 1.0121697 19 23
2.1770136 14.636626 -0.94836253 10 9
4.9245577 16.249403 -0.9888286 2 10
3.9061165 15.596976 0.65506166 1 26
3.1083176 15.612325 -0.74151999 12 12
3.7856078 15.115789 -0.81665033 10 11
4.8290887 19.28237 1.6227331 2 28
11.743867 38.750854 -1.4139881 13 14
3.1995487 16.070557 4.3906064 1 31
9.659339 38.569378 7.2493715 18 30
3.1865871 16.005453 -0.37974751 4 16
6.0471954 39.70401 -0.70102829 12 17
4.0429001 15.907333 -0.47766656 4 15
1.130367 5.5758595 -1.5926514 1 1
1.4047898 5.5273337 -1.1406183 2 2
13.963599 45.502426 -0.55411559 10 18
1.1127526 5.4889708 -0.87132716 2 3
3.1912205 12.556286 -1.649063 2 4
7.0724792 46.435703 0.27299723 19 21
11.601584 45.647991 -0.27374116 11 19
2.7126315 13.380832 -1.4706568 4 5
4.3114386 14.049453 -1.3718545 9 6
3.679419 18.149788 0.43092641 6 24
18.483583 60.231453 0.73348141 35 22
4.2541566 20.984846 -1.4972529 9 8
3.7984626 14.94556 -1.2588712 14 7
2.4960048 16.387993 0.48243743 1 25
14.476619 56.960197 1.0258524 20 23
2.2539337 14.79863 -0.95936322 12 9
4.9894457 16.258837 -0.99045646 2 10
3.6868837 18.186609 1.0806882 6 27
3.9841602 15.676212 0.65896958 1 26
3.1254804 15.417328 -0.73277217 6 12
3.9820004 15.667715 -0.84721458 4 11
3.7263412 18.381247 2.3028433 7 29
4.149045 16.324974 1.3750597 2 28
5.3492479 35.121502 -1.4473883 11 13
11.902508 38.786057 -1.41678 13 14
3.5995317 17.755722 4.8544102 2 31
5.0433178 19.843609 3.7330246 5 30
6.1919222 39.722176 -0.70172632 12 17
10.517081 40.783962 -1.2257588 11 15
1.1498251 5.5718794 -1.5926514 1 1
1.4270149 5.5337896 -1.1429716 2 2
3.7494283 18.169165 0 6 20
14.180511 45.640564 -0.55639726 10 18
1.1319075 5.4850531 -0.87132716 3 3
3.2211628 12.491277 -1.6419921 2 4
7.2561026 46.549061 0.27381089 20 21
11.801818 45.766014 -0.27469432 11 19
2.7601304 13.375176 -1.4710852 4 5
4.3746386 14.079955 -1.3763158 12 6
3.7476056 18.160334 0.43148473 4 24
18.927525 60.919018 0.74265456 36 22
3.7322307 18.085829 -1.2913319 4 8
3.8725142 15.017138 -1.2660313 10 7
7.8572755 50.405682 1.4846646 14 25
14.869115 57.660618 1.0393956 21 23
2.3123438 14.834057 -0.96217728 14 9
5.0544672 16.268013 -0.99208432 2 10
3.7503495 18.17363 1.0806882 6 27
5.1755695 20.070227 0.84443194 2 26
3.162324 15.324146 -0.72886354 10 12
4.0336785 15.642114 -0.84658653 4 11
3.8602941 18.706404 2.3452539 3 29
4.0546918 15.7236 1.3255901 1 28
5.4927516 35.236881 -1.4529244 11 13
12.073419 38.858799 -1.4209679 13 14
3.6794538 17.83008 4.8782215 2 31
3.667129 14.220679 2.6776183 2 30
3.3022892 16.002398 -0.38021275 9 16
6.3387017 39.796211 -0.7034018 25 17
1.1746225 5.5981936 -1.6012776 2 1
1.447341 5.5366173 -1.1445407 2 2
3.8154054 18.184034 0 4 20
14.373752 45.726837 -0.55802697 10 18
1.1517124 5.4890051 -0.87255698 2 3
3.2645726 12.488205 -1.6430023 2 4
7.4248862 46.615589 0.27434561 20 21
12.007127 45.931725 -0.27592644 11 19
2.8052828 13.369841 -1.4715136 4 5
4.4201083 14.061573 -1.3759441 13 6
3.8217633 18.214336 0.43306664 2 24
19.140217 60.890263 0.7430737 36 22
3.7807095 18.018677 -1.2874255 4 8
3.9434633 15.085214 -1.2728659 12 7
2.5924029 16.275858 0.47964475 1 25
4.2321186 16.189428 0.29208347 1 23
2.3659148 14.853901 -0.9639681 6 9
5.1095796 16.254971 -0.9923169 2 10
3.8089511 18.153275 1.0802232 4 27
4.2019625 16.07407 0.67688072 1 26
3.2164021 15.329214 -0.729608 12 12
4.0552168 15.512712 -0.84030622 4 11
4.0959558 19.521124 2.4490864 4 29
4.1299982 15.79878 1.3330756 1 28
5.6183653 35.273727 -1.455204 11 13
12.221384 38.879566 -1.4232016 13 14
2.9316571 13.972134 3.8253458 1 31
3.6744537 14.056152 2.6489193 2 30
3.3372681 15.905257 -0.3781656 4 16
6.4942842 39.87648 -0.70521683 25 17
10.827218 40.835102 -1.2294824 11 15
1.1885265 5.5676904 -1.5937296 1 1
1.4716835 5.5504885 -1.148463 2 2
3.8913779 18.229284 0 2 20
14.619375 45.947002 -0.56133306 10 18
1.1733398 5.4965477 -0.87440175 3 3
3.3091588 12.48057 -1.6435072 2 4
7.5952654 46.636772 0.27462456 20 21
12.228884 46.121521 -0.27732131 11 19
2.8502717 13.352189 -1.4706568 4 5
4.4510489 13.989132 -1.3703674 8 6
11.231018 52.612061 1.2518362 24 24
20.212456 63.525406 0.77608782 41 22
3.8460786 18.017078 -1.2882625 4 8
3.9868972 15.036675 -1.2699368 6 7
2.6369858 16.19173 0.47743386 1 25
15.616903 58.899513 1.0636195 23 23
2.4357135 14.955872 -0.97113138 6 9
5.1783938 16.275093 -0.9946425 2 10
3.8731246 18.143776 1.0804557 4 27
4.2119484 15.885462 0.6695534 1 26
3.2507026 15.22802 -0.72532713 12 12
4.269043 16.100796 -0.87296379 2 11
4.2336903 19.832857 2.4900346 4 29
5.2375283 19.75346 1.6682973 2 28
5.7472334 35.289406 -1.4566694 23 13
12.388531 38.935715 -1.4268311 13 14
5.0920691 19.204857 3.6225336 5 30
3.8669496 18.114849 -0.43101948 3 16
6.6452699 39.92458 -0.70647347 25 17
4.3397088 16.139666 -0.48639375 1 15
1.2104075 5.5748 -1.5969645 1 1
1.4910507 5.5453172 -1.148463 2 2
9.9502831 45.828232 0 15 20
14.864278 46.158386 -0.56454599 11 18
1.1933594 5.4962807 -0.87501669 4 3
3.3496161 12.457445 -1.6419921 2 4
7.7678752 46.669159 0.2749733 20 21
12.43136 46.233055 -0.2782512 11 19
2.9002411 13.357703 -1.4723704 4 5
4.5047398 13.988671 -1.3718545 6 6
11.463825 52.799187 1.2572331 25 24
20.434093 63.45446 0.77608782 41 22
4.0652447 15.118916 -1.2780733 4 7
8.4467897 50.748058 1.4972316 15 25
16.016619 59.566868 1.0766739 24 23
2.5174012 15.124471 -0.98264372 6 9
5.2400727 16.27212 -0.99557263 2 10
17.718214 81.605156 4.8632131 60 27
4.3130407 16.040485 0.67671788 1 26
3.2919736 15.161914 -0.7227214 13 12
4.3521914 16.186089 -0.87840676 2 11
7.7861586 35.860878 4.5057535 15 29
4.4451647 16.531862 1.3975163 2 28
5.8756404 35.300671 -1.4579722 11 13
12.535404 38.926479 -1.4280875 13 14
2.9979773 13.807849 3.786005 1 31
3.842999 14.292369 2.6984251 2 30
8.680809 39.981388 -0.95202082 17 16
6.7973404 39.976048 -0.70779985 26 17
11.180415 41.009254 -1.2370459 11 15
1.2282006 5.5630188 -1.5948079 1 1
1.513495 5.5514312 -1.1508164 2 2
10.161945 46.027573 0 16 20
15.128187 46.421856 -0.56841087 11 18
1.211687 5.4882221 -0.87440175 3 3
3.3909965 12.438021 -1.6409819 2 4
7.9562244 46.791595 0.27585667 20 21
12.634766 46.343746 -0.27918112 11 19
2.9451394 13.339731 -1.4715136 4 5
4.5498438 13.961502 -1.3707392 8 6
11.694627 52.969711 1.2622581 26 24
20.6245 63.287663 0.77492362 41 22
3.3618588 15.227223 -1.0904332 17 8
4.1190476 15.108479 -1.2783988 6 7
3.0582757 17.98612 0.53096044 1 25
16.58634 60.837944 1.1006885 25 23
2.57353 15.135266 -0.9839229 4 9
5.307982 16.287899 -0.9976657 2 10
3.6605148 16.579958 0.9888286 1 27
4.4404955 16.287535 0.68779027 1 26
3.4318857 15.544403 -0.74151999 4 12
8.3728991 30.711414 -1.6682611 7 11
18.049711 81.754463 10.279923 59 29
4.3298235 15.881597 1.3438157 1 28
6.0175953 35.390266 -1.4625313 11 13
12.67741 38.901485 -1.4287854 13 14
6.2680783 28.390671 7.7904539 7 31
3.9156404 14.362391 2.7142096 2 30
8.8806753 40.224182 -0.95853448 17 16
6.9643512 40.06908 -0.70989412 26 17
11.343427 41.014248 -1.2384423 11 15
1.2511131 5.5697546 -1.5980428 1 1
1.5348761 5.5496268 -1.1516008 1 2
3.6434004 16.219835 0 1 20
15.368401 46.578808 -0.57101846 11 18
1.2326592 5.4876008 -0.87501669 3 3
3.4376163 12.429334 -1.641487 2 4
8.1509495 46.896118 0.27664712 20 21
12.852509 46.470612 -0.28022727 11 19
2.9983671 13.348248 -1.4736555 6 5
4.6147084 13.986336 -1.3748288 11 6
11.956164 53.226925 1.269423 27 24
20.887642 63.306614 0.77608782 41 22
3.4176433 15.2148 -1.0904332 8 8
3.3870893 19.487465 0.57564348 1 25
4.4648261 16.1434 0.29236272 1 23
3.7445579 21.544144 -1.4014378 10 9
5.376399 16.29488 -0.99929363 2 10
3.7090023 16.511883 0.98557281 1 27
4.4927011 16.244186 0.68665045 1 26
3.5151033 15.648677 -0.74710375 13 12
4.4838767 16.21228 -0.88154691 2 11
18.381411 81.831085 10.297961 59 29
3.9565327 14.305573 1.2116798 1 28
6.1732655 35.517605 -1.4687189 12 13
12.851212 38.949665 -1.4322753 14 14
3.5734491 15.908422 4.368866 1 31
9.0762386 40.405956 -0.96365237 17 16
7.1132307 40.136333 -0.71149969 13 17
4.5246582 16.151087 -0.48813915 1 15
1.2678617 5.558064 -1.5958861 1 1
1.5585603 5.5633912 -1.1555232 1 2
10.539944 46.205101 0 16 20
15.635425 46.865265 -0.57516265 11 18
1.2517281 5.4873366 -0.87563151 3 3
3.4777417 12.414045 -1.6409819 2 4
8.3427057 47.073635 0.27785599 20 21
13.070194 46.654984 -0.28159887 12 19
3.0408437 13.330479 -1.4727987 4 5
4.6698837 13.997402 -1.3774312 9 6
12.215306 53.549572 1.278077 28 24
22.077188 66.17366 0.81212854 46 22
4.824069 21.147797 -1.5167848 6 8
4.2383981 15.129262 -1.2826296 6 7
3.4523876 19.480062 0.57575989 1 25
17.810083 63.574356 1.1524173 28 23
3.8020437 21.452993 -1.3963211 15 9
5.4278741 16.269386 -0.99882841 2 10
4.6305122 20.299282 1.2125475 2 27
4.5282125 16.163774 0.68388242 1 26
3.5714171 15.656411 -0.74803436 6 12
8.5429068 30.494511 -1.659678 6 11
8.6124496 37.755337 4.7548547 17 29
4.4879055 16.019897 1.3581359 1 28
6.2770567 35.418228 -1.4654622 11 13
12.980294 38.906837 -1.4322753 14 14
3.9192064 13.989884 2.6489193 2 30
9.2190657 40.414623 -0.96458286 17 16
7.275259 40.192638 -0.71296573 26 17
11.701602 41.187901 -1.2461221 11 15
1.2882259 5.55338 -1.5958861 0 1
1.5832298 5.5727334 -1.1586611 1 2
10.738158 46.290848 0 16 20
15.909478 47.110798 -0.57888782 11 18
1.2745125 5.4942632 -0.87747627 3 3
3.5221367 12.397398 -1.6404768 2 4
8.5301552 47.125397 0.27834418 20 21
13.29796 46.806843 -0.28280774 12 19
3.0923812 13.330867 -1.4740839 4 5
4.7262554 13.995284 -1.3789183 8 6
12.49193 53.851139 1.2863586 29 24
22.34519 66.168091 0.81305987 46 22
3.5138609 15.147812 -1.0873638 5 8
4.2916455 15.105955 -1.2819787 14 7
9.2659111 51.190125 1.5139878 16 25
18.456141 64.962875 1.1788054 30 23
3.8642995 21.348572 -1.3904371 5 9
9.4545498 27.996605 -1.7209152 5 10
3.7041731 15.968225 0.95464277 1 27
4.5961671 16.177826 0.68518502 1 26
3.634198 15.666571 -0.74915111 9 12
4.6133256 16.23822 -0.88468713 2 11
4.4158511 15.54314 1.3190808 1 28
2.8738225 15.876618 -0.65734124 2 13
13.11898 38.847637 -1.4318566 13 14
4.1864481 18.047253 4.9641495 2 31
4.1145658 14.48266 2.7450612 2 30
9.3879242 40.470161 -0.96672314 17 16
7.4307532 40.249596 -0.7144317 13 17
1.3084853 5.5525985 -1.5969645 0 1
1.6005013 5.5596347 -1.1570921 1 2
10.927193 46.369884 0 16 20
16.130709 47.221519 -0.58093667 11 18
1.2954952 5.4974742 -0.8787061 3 3
3.5730717 12.41172 -1.6440123 2 4
8.7025805 47.138603 0.27859992 20 21
13.550886 47.071487 -0.2846908 12 19
3.1416297 13.331604 -1.4753691 4 5
4.7828012 14.001315 -1.3811489 4 6
12.77888 54.227577 1.2964083 31 24
22.578598 66.097267 0.81315303 46 22
4.908462 20.829212 -1.496416 9 8
4.3366261 15.064066 -1.2797005 4 7
9.473568 51.314747 1.5186423 16 25
21.925655 76.162781 1.3834174 43 23
2.8611503 15.497774 -1.0100175 4 9
7.3358407 21.475161 -1.3216163 4 10
3.8844533 16.483799 0.98627043 1 27
5.864408 20.371098 0.86364579 2 26
3.7401826 15.871582 -0.75957412 6 12
8.852622 30.751207 -1.6770536 7 11
4.2098966 17.864828 2.253608 7 29
2.8972955 15.693559 -0.65017676 4 13
13.266128 38.835659 -1.433113 14 14
4.2440982 18.009964 4.9579377 2 31
3.9919996 13.866943 2.6309824 2 30
9.5804911 40.655113 -0.97193402 8 16
3.0295146 16.094868 -0.28587043 4 17
12.053774 41.327831 -1.2528712 11 15
1.3296515 5.5554895 -1.5991211 0 1
1.62429 5.5690761 -1.16023 1 2
11.10853 46.413155 0 16 20
16.367273 47.372856 -0.58349764 11 18
1.3137559 5.4890757 -0.87809122 3 3
3.6152613 12.395364 -1.6435072 2 4
8.8877802 47.21801 0.27925086 21 21
13.787902 47.273499 -0.28620189 12 19
3.1899946 13.328291 -1.4762259 4 5
4.8264408 13.96948 -1.3796619 5 6
13.056506 54.552105 1.3052483 32 24
22.845741 66.123909 0.81445682 46 22
3.6176622 15.115152 -1.0868058 1 8
4.390296 15.052664 -1.280026 6 7
9.690341 51.481762 1.5245767 17 25
22.565378 77.368149 1.4067338 44 23
7.6637349 22.181644 -1.3667322 4 10
4.6976404 19.627468 1.1753385 2 27
5.9276428 20.323645 0.86250597 2 26
3.7964885 15.862316 -0.7597602 8 12
8.9576664 30.71245 -1.6766349 7 11
3.4580734 14.448366 1.8241404 2 29
4.4851789 15.377982 1.3076899 1 28
2.9594483 15.722628 -0.65180504 4 13
13.410738 38.815567 -1.4340901 14 14
4.2916465 17.931164 4.9403381 2 31
3.9588425 13.573373 2.5778892 4 30
3.8293624 15.999669 -0.38281825 1 16
4.7661524 16.152361 -0.49011734 1 15
1.3452828 5.543798 -1.5969645 0 1
1.6473296 5.5827556 -1.1641524 1 2
11.284484 46.502415 0 16 20
16.58984 47.532673 -0.58610529 12 18
1.3337916 5.4964437 -0.87993592 3 3
3.6508188 12.372526 -1.6419921 2 4
9.0533915 47.280201 0.27978554 21 21
14.02579 47.533024 -0.28803846 12 19
3.2356062 13.333663 -1.4779394 6 5
4.8808064 13.984327 -1.3826361 4 6
13.317426 54.879997 1.3140883 33 24
23.11928 66.240608 0.81678498 47 22
5.0041547 20.621704 -1.4838598 9 8
3.4461849 17.997269 0.53328764 1 25
22.896633 77.596069 1.4121789 43 23
2.9413512 15.360838 -1.0023427 14 9
9.7887831 28.046503 -1.7299848 6 10
4.0002847 16.484838 0.98789829 1 27
5.8975859 19.986759 0.8489911 2 26
3.8180392 15.73382 -0.75417644 8 12
4.7752008 16.183027 -0.88426834 2 11
4.3451409 17.905962 2.2623827 3 29
13.519453 38.735497 -1.4326942 14 14
3.9981275 13.549545 2.5757368 4 30
9.93573 40.944313 -0.98040175 17 16
3.1405401 16.081722 -0.28601003 2 17
12.443658 41.608734 -1.2639256 12 15
1.360984 5.5201306 -1.591573 0 1
2.3196104 7.7562442 -1.6191446 1 2
11.504652 46.662693 0 16 20
16.843868 47.697834 -0.58889914 12 18
1.3558218 5.4991927 -0.88116574 4 3
3.6972821 12.362863 -1.6424971 2 4
9.2504005 47.368404 0.28050622 21 21
14.297342 47.80703 -0.29001451 12 19
3.2873144 13.333297 -1.4792246 6 5
4.9545774 14.030187 -1.3889562 4 6
13.626667 55.269554 1.3246032 34 24
23.428522 66.344009 0.81911325 47 22
5.0902166 20.645842 -1.4869291 9 8
4.4721003 14.953676 -1.2741678 4 7
23.395191 78.228149 1.4252332 43 23
3.0213537 15.471407 -1.0102733 4 9
7.8012576 22.091309 -1.3644066 4 10
4.8559947 19.695839 1.181385 2 27
5.9994354 20.060734 0.85306185 2 26
3.780993 15.33565 -0.73575014 10 12
9.2157412 30.815321 -1.6856365 7 11
5.1548986 20.90819 2.6440775 5 29
6.1033034 20.408045 1.7389216 2 28
2.9829113 15.274556 -0.63405669 9 13
8.3900871 23.758732 -0.87988615 4 14
4.0331078 13.485787 2.5664096 2 30
3.9372311 15.96935 -0.38272521 2 16
12.632837 41.710468 -1.2683473 12 15
1.3877218 5.5452404 -1.6001995 0 1
2.3466654 7.7481017 -1.6191446 1 2
11.711131 46.796871 0 16 20
8.4708166 23.723324 -0.29326218 3 18
1.3750056 5.4944277 -0.88116574 4 3
3.7392557 12.346087 -1.6419921 2 4
14.542943 48.017159 -0.29159534 12 19
3.3357582 13.329459 -1.4800813 6 5
4.9927974 13.982802 -1.385982 4 6
13.976744 55.850101 1.3396777 37 24
8.4761963 23.738392 0.29344845 5 22
5.2736397 21.073099 -1.519017 6 8
4.5323505 14.964687 -1.276446 4 7
3.6123142 18.160379 0.53887302 4 25
4.7925053 15.823652 0.28859299 1 23
3.0581968 15.374636 -1.0046451 2 9
4.1288013 16.498404 0.99045646 1 27
5.5480828 18.318382 0.77978873 1 26
3.8228505 15.275847 -0.73351663 4 12
9.3405981 30.840317 -1.6887769 7 11
13.290812 43.882935 3.7430913 12 28
3.0330813 15.248371 -0.63340533 7 13
8.4648857 23.706717 -0.87904853 9 14
3.4921136 13.954245 3.8543334 1 31
3.2884533 16.235796 -0.28915146 15 17
4.9694953 16.203913 -0.4932591 1 15
1.4042267 5.5291619 -1.5969645 0 1
2.3725491 7.7361131 -1.61836 1 2
11.921685 46.941799 0 16 20
8.5508652 23.686085 -0.29316905 7 18
1.3951507 5.4934249 -0.88178062 4 3
3.7823317 12.332957 -1.6419921 2 4
3.684329 18.190319 0.10786913 7 21
14.797266 48.249084 -0.29331568 13 19
3.3871648 13.337008 -1.4822233 6 5
5.042932 13.969033 -1.3863539 2 6
14.270061 56.18856 1.348983 38 24
5.3471718 21.054562 -1.519017 9 8
4.5892386 14.96402 -1.2777478 4 7
3.6772759 18.155497 0.53910577 4 25
4.835988 15.768588 0.2878949 1 23
3.6728857 18.133821 -1.1857729 3 9
8.5532503 23.692692 -1.4669639 4 10
4.1735921 16.433577 0.9874332 1 27
4.8010755 15.65475 0.66711098 1 26
3.8495982 15.157846 -0.72849131 3 12
9.1553974 29.852783 -1.6364409 6 11
4.7055697 18.528246 2.3472037 11 29
4.6734023 15.238449 1.3011807 3 28
3.0807397 15.21027 -0.63226551 9 13
8.5584517 23.7071 -0.88016534 4 14
3.9183772 15.428664 4.2653384 1 31
4.1444592 13.513738 2.5771718 6 30
10.459659 41.185047 -0.9887765 18 16
3.3443043 16.220301 -0.28908166 4 17
13.043494 42.006912 -1.2800999 12 15
1.4264036 5.5354166 -1.6001995 0 1
2.4018669 7.7352743 -1.619929 1 2
12.135389 47.093567 0 16 20
17.655069 48.375504 -0.59951586 14 18
1.4153056 5.4923482 -0.88239557 4 3
3.8253622 12.319678 -1.6419921 2 4
3.7486162 18.181263 0.10789237 7 21
15.036779 48.426338 -0.29471055 13 19
3.4356871 13.332803 -1.48308 6 5
5.1039557 13.985017 -1.3896998 4 6
4.1990376 16.295122 0.39156517 1 24
5.3170853 20.633907 -1.4899982 9 8
4.6379027 14.936485 -1.2767714 4 7
3.7462857 18.16996 0.53992033 3 25
4.8827033 15.724873 0.28740624 1 23
10.267805 28.134146 -1.7441708 6 10
4.0186901 15.595251 0.9378987 1 27
9.5592451 30.785795 -1.6894048 7 11
4.7831006 18.561684 2.3535409 3 29
4.7490325 15.294382 1.3073645 1 28
3.1620667 15.336425 -0.63796455 11 13
14.050623 38.499199 -1.4311587 13 14
4.6373763 14.93479 2.8512475 2 30
10.627317 41.241219 -0.99100983 18 16
3.7927842 18.0919 -0.32266009 7 17
13.235459 42.131264 -1.2852198 12 15
1.4447534 5.5306554 -1.6001995 0 1
2.426331 7.7235246 -1.6191446 1 2
12.353173 47.289139 0 16 20
17.901192 48.549355 -0.60240281 14 18
1.4365095 5.4990969 -0.88424027 3 3
3.8626301 12.295568 -1.6404768 2 4
3.8162775 18.203966 0.1081016 2 21
15.268026 48.601353 -0.29608217 13 19
3.4829004 13.33288 -1.4843652 6 5
5.1544404 13.979222 -1.3908151 2 6
4.2419372 16.238546 0.39054158 1 24
5.3824606 20.60458 -1.4891613 12 8
4.6969709 14.951451 -1.2793751 4 7
3.4037209 16.236036 0.48278651 1 25
4.9312305 15.697148 0.28719682 1 23
3.7749479 18.006821 -1.1791213 6 9
8.1203012 22.022858 -1.3669647 4 10
4.08149 15.624338 0.94045687 1 27
5.8130937 18.504305 0.79020977 1 26
4.1011453 15.699581 -0.75585163 6 12
9.6648808 30.765356 -1.6900327 7 11
4.9088526 18.791563 2.3847394 4 29
4.8451333 15.423082 1.3197318 1 28
3.2407918 15.458851 -0.64350075 11 13
14.175457 38.444885 -1.4308795 13 14
4.5027905 17.237118 4.7736583 4 31
7.0138087 22.326433 4.2668266 7 30
10.783235 41.279263 -0.99277782 18 16
3.8680608 18.104586 -0.32314876 5 17
5.1526403 16.184378 -0.49430636 1 15
1.4639994 5.5176225 -1.5980428 0 1
2.4535844 7.7066774 -1.6175755 1 2
12.607461 47.515869 0 17 20
18.227255 48.855015 -0.60705924 15 18
1.460651 5.505003 -0.88608503 3 3
3.9134164 12.291991 -1.6419921 2 4
10.243518 47.945118 0.28494653 21 21
15.516383 48.736759 -0.29726779 13 19
3.53916 13.338631 -1.4865072 4 5
5.2205987 13.992915 -1.3941611 2 6
15.428422 58.147705 1.3998828 44 24
5.5065489 20.753462 -1.5014383 9 8
4.7470794 14.910515 -1.2774223 4 7
11.254353 52.676365 1.5676308 19 25
4.9404984 15.518043 0.28426477 1 23
3.2869163 15.384519 -1.0082268 4 9
8.1936216 21.96159 -1.3651043 4 10
3.9960208 15.06048 0.90743393 1 27
9.7768612 30.708996 -1.6889862 14 11
4.919867 18.542336 2.3554909 3 29
4.9260774 15.472746 1.3255901 1 28
3.2951045 15.422845 -0.64252377 11 13
14.370453 38.517521 -1.4356257 14 14
4.648201 17.518463 4.8564806 7 31
5.3410168 16.776064 3.209985 3 30
10.977522 41.372845 -0.99603462 18 16
8.9165039 41.101547 -0.73411804 13 17
13.640716 42.384193 -1.2958088 13 15
1.4813278 5.5129952 -1.5980428 0 1
2.4777853 7.6989307 -1.6175755 1 2
12.861522 47.866184 0 17 20
18.48358 49.070744 -0.61045843 15 18
1.4779398 5.5003862 -0.88608503 4 3
3.9520161 12.279635 -1.6419921 2 4
10.422088 48.041695 0.2857137 22 21
15.742953 48.916229 -0.29866266 14 19
3.5841465 13.338966 -1.4877923 6 5
5.2687478 13.987624 -1.3952764 4 6
15.770844 58.693684 1.4142128 44 24
5.5706906 20.732204 -1.5011593 6 8
4.80123 14.918298 -1.2793751 6 7
11.466418 52.855644 1.5740306 20 25
5.0014811 15.540515 0.28496289 1 23
3.3242338 15.3234 -1.0049009 9 9
6.1568189 16.345301 -1.0172004 2 10
4.0402107 15.036282 0.90673625 1 27
6.5371971 20.312263 0.86934477 2 26
4.1567264 15.469913 -0.74617314 1 12
9.8647289 30.651512 -1.6875209 7 11
3.8541126 14.343689 1.823653 2 29
4.9746652 15.457193 1.3255901 1 28
3.3647277 15.510061 -0.64659452 5 13
14.573128 38.689159 -1.4437225 14 14
4.7132449 17.541084 4.8668337 7 31
7.0031271 21.759993 4.1678152 7 30
11.135473 41.442421 -0.99854708 18 16
9.1136599 41.279476 -0.73788774 13 17
13.834389 42.451759 -1.2994161 13 15
1.499499 5.5000958 -1.5958861 0 1
2.5084195 7.6972556 -1.6191446 1 2
13.103169 48.061848 0 17 20
18.731659 49.182083 -0.61269355 16 18
1.50121 5.5063715 -0.8879298 4 3
3.9920828 12.249976 -1.6399717 2 4
10.65244 48.249237 0.28717831 22 21
15.996511 49.086376 -0.3000575 14 19
3.6392918 13.348762 -1.4903626 6 5
5.3228192 13.975662 -1.3960199 2 6
4.4219379 16.219473 0.39119294 1 24
4.4270544 16.238241 -1.1769313 2 8
4.9040561 15.048429 -1.292068 6 7
3.6160307 16.378475 0.48813915 1 25
5.0695634 15.556299 0.28559119 1 23
3.3657489 15.244847 -1.0005518 11 9
8.2875004 21.759768 -1.3560346 4 10
4.1247077 15.129246 0.91324782 1 27
6.6165614 20.303368 0.86999613 2 26
9.9633999 30.573366 -1.685218 7 11
4.8924661 17.945351 2.2838318 3 29
14.656582 44.974712 3.8615582 12 28
3.4206951 15.49372 -0.64643168 7 13
14.757529 38.747559 -1.4479103 14 14
4.7764931 17.519964 4.8657985 4 31
13.084173 40.14967 7.6992292 21 30
11.314651 41.50164 -1.0009664 18 16
9.3006048 41.438625 -0.74130839 14 17
5.3490782 16.221594 -0.49709907 1 15
1.5258708 5.5208178 -1.6034343 0 1
2.5364997 7.6921787 -1.619929 1 2
13.321997 48.200882 0 17 20
18.986536 49.332905 -0.61539423 16 18
1.5214736 5.5049081 -0.88854462 3 3
4.0360589 12.239736 -1.6404768 2 4
10.895244 48.543503 0.28915435 22 21
16.245411 49.265766 -0.30149886 14 19
3.6901014 13.351313 -1.4920763 4 5
5.3658462 13.942131 -1.3945329 4 6
5.5768499 20.177837 0.48713017 2 24
4.9578009 15.035007 -1.2923934 6 7
3.6976938 16.474989 0.49139729 1 25
5.1538911 15.629669 0.28726661 1 23
3.4792588 15.501757 -1.0182041 4 9
8.3920879 21.805243 -1.3606857 4 10
4.1913199 15.164793 0.91627109 1 27
8.9359322 32.331474 -1.5625151 14 12
10.070054 30.538404 -1.685218 14 11
3.4231143 15.251606 -0.63682479 7 13
14.919968 38.766697 -1.4505627 14 14
5.9482102 21.521471 5.9828615 4 31
7.1820736 21.780329 4.1814466 7 30
11.493531 41.585236 -1.0039442 18 16
9.4941072 41.620369 -0.74514794 14 17
14.236691 42.672741 -1.3091904 13 15
1.540975 5.5006208 -1.5991211 0 1
2.5620918 7.6795573 -1.6191446 1 2
13.560294 48.404446 0 18 20
19.216599 49.41544 -0.61725682 17 18
1.5438774 5.5109816 -0.89038938 3 3
4.0762444 12.218045 -1.6394666 2 4
11.111762 48.711864 0.29038647 22 21
16.500818 49.459187 -0.3030332 14 19
3.7409716 13.353667 -1.4937898 6 5
5.6321425 20.104338 0.48582742 2 24
5.7814054 20.637144 -1.498648 9 8
3.7649574 16.504862 0.4926773 2 25
5.1096878 15.315666 0.28182146 1 23
3.4862933 15.283251 -1.0046451 2 9
6.4028502 16.464914 -1.0288281 2 10
4.5544639 16.257486 0.98324716 1 27
4.6787081 14.023856 0.602305 1 26
9.0465727 32.292393 -1.562143 14 12
10.175321 30.499281 -1.6850086 7 11
5.0240459 17.933695 2.2867565 3 29
6.6517334 19.937757 1.7158141 2 28
3.5749917 15.672088 -0.65489882 18 13
6.4039965 16.467861 -0.61702311 2 14
6.0222502 21.496855 5.9818263 4 31
7.2705069 21.792456 4.1886215 7 30
11.680682 41.695034 -1.0075731 18 16
9.6627655 41.721127 -0.74752146 14 17
14.433084 42.788204 -1.314194 13 15
1.559209 5.4954805 -1.5991211 0 1
2.5888 7.6747351 -1.619929 1 2
4.4785962 15.784951 0 1 20
19.459322 49.552479 -0.6197713 17 18
1.5621457 5.5058312 -0.89038938 3 3
4.1129375 12.193181 -1.6379515 2 4
11.321985 48.885174 0.29164186 23 21
16.745296 49.642967 -0.30449781 15 19
3.7884943 13.352666 -1.495075 6 5
5.4839149 13.964596 -1.4004813 2 6
5.7042441 20.104786 0.48629269 2 24
5.874866 20.706148 -1.5050657 6 8
5.0090566 14.849808 -1.2793751 12 7
4.1697054 18.003624 0.53782582 3 25
5.1642876 15.310004 0.28203088 1 23
6.4545002 16.436157 -1.0283631 2 10
4.7877851 14.193829 0.61028361 1 26
9.1797934 32.354465 -1.56661 14 12
10.28918 30.503218 -1.687102 14 11
5.0748253 17.886379 2.2828567 3 29
5.2728243 15.631772 1.3467448 1 28
3.654 15.776954 -0.65978366 8 13
6.438118 16.39444 -0.61506873 2 14
6.0987835 21.495352 5.9870024 4 31
5.1555128 15.283992 2.9409318 2 30
11.858191 41.794563 -1.010923 18 16
9.8358316 41.803932 -0.74961579 14 17
5.5506988 16.26782 -0.50024086 1 15
1.5773194 5.4863024 -1.5980428 0 1
2.6155758 7.6656508 -1.619929 1 2
4.5447245 15.807662 0 1 20
19.733961 49.740776 -0.62298423 17 18
1.5846326 5.5117397 -0.89223415 3 3
4.1567588 12.182504 -1.6384566 2 4
11.552117 49.098434 0.29315296 23 21
17.051537 49.974129 -0.30689231 15 19
3.8405781 13.358469 -1.4972168 6 5
5.5385056 13.960176 -1.4019684 2 6
4.602056 16.007074 0.38756391 1 24
5.9845996 20.815901 -1.5145526 9 8
5.0827508 14.896374 -1.2849078 4 7
12.793738 54.375534 1.6256955 23 25
3.561908 15.138706 -0.99671435 19 9
11.171144 28.157621 -1.7641706 6 10
5.5289621 19.231081 1.1653386 2 27
4.8282704 14.15055 0.60914379 1 26
4.6491017 16.170712 -0.7837702 1 12
10.420108 30.538939 -1.6910795 14 11
5.1811137 18.021179 2.3023558 3 29
5.3672714 15.730238 1.3568341 1 28
3.6934927 15.697964 -0.65701562 14 13
15.446632 38.934277 -1.4627078 14 14
4.3962722 15.291308 4.2632675 1 31
10.689616 31.328804 6.0354037 13 30
12.037167 41.868206 -1.0137146 18 16
10.021534 41.903748 -0.7520591 14 17
5.5998425 16.217134 -0.49930996 1 15
1.5984935 5.4841828 -1.5991211 0 1
2.6398118 7.6448908 -1.6175755 1 2
14.295906 49.047031 0 20 20
20.014376 49.913139 -0.62605751 18 18
1.6081402 5.5172796 -0.89407885 6 3
4.2026744 12.170938 -1.6389616 2 4
11.783154 49.269733 0.29443157 23 21
17.327269 50.179741 -0.30854288 15 19
3.8939617 13.359578 -1.4989303 6 5
5.602972 13.973053 -1.4053144 4 6
5.8759389 20.159433 0.48861903 2 24
6.0909963 20.897263 -1.5220863 6 8
5.1451192 14.900257 -1.2868606 6 7
13.074777 54.670486 1.6359353 23 25
3.6201522 15.137198 -0.99748188 23 9
6.5764074 16.400669 -1.0290607 2 10
5.6228714 19.291199 1.1702223 2 27
5.0157666 14.525652 0.62607807 1 26
9.4502134 32.422215 -1.5731243 15 12
10.55804 30.576065 -1.6952665 7 11
5.174912 17.754318 2.2706697 3 29
5.432694 15.733072 1.3587868 1 28
3.7398448 15.637678 -0.65506166 14 13
15.621953 38.959034 -1.4657789 14 14
4.2122631 14.45162 4.0334363 1 31
10.785097 31.233624 6.0246415 13 30
12.2476 42.019611 -1.0184603 18 16
10.196266 42.017975 -0.75471187 14 17
15.047683 43.114143 -1.328972 13 15
1.6177602 5.4825468 -1.6001995 0 1
2.6677322 7.6435022 -1.6191446 1 2
14.521859 49.214199 0 20 20
20.269827 50.068943 -0.62885135 18 18
1.6264263 5.5119162 -0.89407885 5 3
4.2443166 12.160682 -1.6394666 2 4
11.987965 49.401421 0.29545447 23 21
17.587151 50.390144 -0.31019348 16 19
3.9416165 13.358034 -1.5002155 6 5
5.6687036 14.002388 -1.4101475 4 6
5.951808 20.170521 0.48936343 2 24
4.7757516 16.184896 -1.1800004 2 8
5.2155185 14.943339 -1.292068 4 7
13.348388 55.00761 1.6473387 24 25
3.6740909 15.140627 -0.99850518 14 9
6.8929877 17.02652 -1.0697581 3 10
5.6517758 19.153719 1.1630131 2 27
5.0454669 14.456112 0.62379843 1 26
9.5667181 32.421356 -1.5746132 22 12
10.663318 30.5522 -1.6958946 14 11
4.8101563 16.301493 2.0868907 2 29
5.4782648 15.696152 1.3571595 1 28
3.8510544 15.869879 -0.6653198 6 13
15.791554 39.007065 -1.469548 15 14
12.428741 42.120678 -1.0219033 18 16
10.36776 42.083088 -0.75652695 14 17
15.232697 43.159378 -1.3319974 14 15
1.6346833 5.4694843 -1.5980428 0 1
2.6904824 7.6230464 -1.6167911 1 2
14.748552 49.34716 0 21 20
1.6479216 5.5137787 -0.89530867 4 3
4.2827811 12.134567 -1.6379515 2 4
12.207233 49.549576 0.29659361 23 21
17.872114 50.637741 -0.31209978 16 19
3.9961958 13.370867 -1.5032142 6 5
5.7235799 13.99726 -1.4116346 4 6
6.0405059 20.21092 0.49085227 2 24
7.0605774 17.266945 0.21717605 3 22
6.1508284 20.58005 -1.5019964 3 8
5.2649989 14.917521 -1.291417 6 7
13.682845 55.539131 1.6646768 25 25
5.3402767 15.130809 0.28007621 1 23
3.7336078 15.15484 -1.000296 4 9
4.3898664 14.688047 0.89278287 1 27
5.5401793 15.697201 0.67818332 1 26
9.6878481 32.414558 -1.5759161 15 12
10.767248 30.507254 -1.6954757 7 11
4.5884953 15.352641 1.9674588 2 29
5.5370064 15.68821 1.3581359 1 28
8.8339281 35.857216 -1.5045413 12 13
4.9378638 16.521593 4.6204381 4 31
5.4810433 15.529649 3.002635 3 30
12.630671 42.260944 -1.0263698 19 16
10.53884 42.143642 -0.75827217 14 17
5.7961001 16.241457 -0.50186992 1 15
1.6582278 5.4784927 -1.602356 0 1
2.7223475 7.628386 -1.619929 2 2
14.97517 49.475323 0 21 20
6.9391198 16.802269 -0.2116349 4 18
1.6683021 5.511776 -0.89592355 5 3
4.3197751 12.104595 -1.6359311 2 4
12.431539 49.712334 0.29782572 23 21
4.045146 13.36445 -1.5040711 6 5
5.7754421 13.984559 -1.4123782 4 6
7.1116433 17.220015 0.21689667 3 22
4.9082785 16.216087 -1.184744 4 8
5.3009558 14.853996 -1.2875115 6 7
14.036664 56.131046 1.6838765 26 25
5.254591 21.01252 -1.3881345 5 9
6.9766293 16.893093 -1.0644093 6 10
5.6349664 18.616936 1.1327808 2 27
5.5532932 15.56108 0.6731357 1 26
9.8298693 32.476158 -1.5805693 15 12
8.4690819 23.731512 -1.3205409 8 11
4.7513204 15.697525 2.0137691 2 29
5.6078119 15.713848 1.3620415 1 28
8.9716358 35.876568 -1.506658 12 13
6.9475713 16.822733 -0.63558966 5 14
4.7761154 15.779444 4.4175239 2 31
12.831393 42.392662 -1.0306501 19 16
10.710492 42.203503 -0.7600174 14 17
8.5328465 23.649065 -0.7316851 3 15
1.6728277 5.4579387 -1.5980428 0 1
2.7476294 7.6151462 -1.6191446 1 2
15.220468 49.659855 0 22 20
6.9807973 16.737337 -0.21112271 6 18
1.6910079 5.5172553 -0.89776826 6 3
4.3646984 12.096906 -1.6369413 2 4
12.654203 49.862484 0.29898813 24 21
18.511641 51.305626 -0.31700504 17 19
4.0987687 13.373062 -1.5066414 4 5
5.8165603 13.945932 -1.4105192 4 6
4.9742122 16.229374 -1.1869762 4 8
5.397429 14.959153 -1.2982516 4 7
14.460707 56.980808 1.7108725 28 25
8.5785952 23.775862 0.44119683 2 23
5.2591782 20.723207 -1.3702265 9 9
7.0463185 16.894432 -1.0660372 6 10
6.2838402 20.502298 1.2488263 2 27
5.5723138 15.443851 0.6689021 1 26
9.943182 32.441643 -1.5805693 15 12
8.5491629 23.694288 -1.3201222 8 11
4.7351217 15.449292 1.9840331 2 29
8.5365715 23.659389 2.053314 3 28
9.1027241 35.868271 -1.507635 12 13
7.0170274 16.824203 -0.63656688 5 14
4.806263 15.681406 4.3947477 1 31
13.046101 42.56554 -1.0359541 19 16
10.88566 42.274315 -0.76197213 14 17
15.845486 43.440735 -1.3457282 14 15
1.6930097 5.4557452 -1.5991211 0 1
2.7715049 7.5981393 -1.6175755 1 2
15.455357 49.805084 0 23 20
7.0345173 16.701809 -0.21098299 4 18
1.7114267 5.5150943 -0.8983832 5 3
4.4082551 12.085326 -1.6374464 2 4
12.883026 50.031055 0.30026671 24 21
18.765995 51.447376 -0.31828368 17 19
4.152494 13.381464 -1.5092118 4 5
5.8466516 13.8815 -1.406058 6 6
7.2316885 17.169945 0.21689667 3 22
5.0402913 16.242403 -1.1892084 4 8
5.4496102 14.940223 -1.2982516 6 7
4.2085133 16.343704 0.49116459 1 25
5.3324742 20.708591 -1.3704823 14 9
7.1129947 16.888134 -1.0671999 3 10
4.5576358 14.687039 0.8955735 1 27
5.5659251 15.259102 0.66173762 1 26
10.053988 32.399105 -1.5801971 15 12
11.127184 30.505413 -1.7017562 7 11
4.8172584 15.523676 1.9957327 2 29
5.4851313 15.037603 1.3067136 1 28
9.2298565 35.844021 -1.5079607 12 13
7.0927763 16.840132 -0.63810241 5 14
9.6841497 31.207296 8.755331 9 31
7.0376859 19.293966 3.7445045 5 30
13.244371 42.680157 -1.0398624 19 16
11.069875 42.346336 -0.76399654 14 17
16.04059 43.479893 -1.3487536 14 15
1.7095306 5.4384794 -1.5958861 0 1
2.7993367 7.5879297 -1.6175755 1 2
15.707379 49.969421 0 23 20
7.1003885 16.686954 -0.21112271 2 18
1.7328155 5.5125551 -0.89899808 6 3
4.4484034 12.057918 -1.6359311 2 4
4.1760449 15.974906 0.095966324 2 21
19.091507 51.749763 -0.32058519 17 19
4.205092 13.377536 -1.510497 6 5
5.8881383 13.837989 -1.4038273 11 6
7.2538595 17.047634 0.21568601 3 22
5.1057749 16.242851 -1.1906035 4 8
30.80113 83.490067 1.553334 37 23
5.4022875 20.665733 -1.3689473 4 9
6.9825401 16.409994 -1.0385956 2 10
6.3106432 20.075863 1.2255707 2 27
5.6702347 15.369835 0.6674366 1 26
10.187057 32.407784 -1.5824306 15 12
11.248604 30.490656 -1.7032216 7 11
4.9848475 15.858149 2.0410681 2 29
5.6561232 15.331583 1.334052 1 28
9.3621893 35.813816 -1.5081234 12 13
16.601906 39.016914 -1.4807159 15 14
4.2475104 13.51248 3.7953227 1 31
6.3878527 17.315022 3.3649597 4 30
13.435499 42.741955 -1.0425609 19 16
11.255539 42.450481 -0.76657951 14 17
16.2635 43.6147 -1.3546879 14 15
1.7343425 5.4508319 -1.6012776 0 1
2.8258047 7.5781121 -1.6175755 1 2
15.948404 50.123936 0 24 20
22.28257 51.86409 -0.65716249 23 18
1.7544432 5.5140057 -0.90022796 7 3
4.4863043 12.031163 -1.6344159 2 4
4.2256274 15.937035 0.095826842 2 21
19.389412 51.997627 -0.32253799 18 19
4.2577896 13.381724 -1.5126388 6 5
5.9914274 13.945426 -1.4168395 2 6
5.1709075 16.251547 -1.1925566 4 8
5.5661311 14.926992 -1.3005298 6 7
15.593218 58.81012 1.7706827 30 25
5.6616058 21.352856 -1.4157642 5 9
9.5539818 22.237497 -1.4095225 4 10
5.775301 18.151083 1.1092926 2 27
7.0867348 19.004877 0.8263579 2 26
10.273459 32.288258 -1.5783358 7 12
11.343795 30.421265 -1.7015468 14 11
5.0112791 15.749854 2.0293684 2 29
5.7082095 15.308012 1.3337265 1 28
9.4973803 35.81955 -1.5097518 12 13
16.753769 38.995457 -1.4821118 15 14
4.2911348 13.486526 3.7922168 1 31
7.1288233 19.117748 3.7201104 5 30
13.640381 42.87009 -1.0468414 19 16
11.452451 42.592461 -0.76986057 14 17
16.443838 43.632504 -1.3570153 14 15
1.7545385 5.4484119 -1.602356 0 1
2.8550053 7.5755439 -1.6191446 1 2
16.206636 50.326866 0 25 20
22.56374 52.017166 -0.66009599 23 18
1.7748901 5.51161 -0.90084285 7 3
4.5296707 12.019145 -1.6349211 2 4
4.2978473 15.983993 0.096198797 2 21
19.703386 52.281471 -0.32472327 18 19
4.3093472 13.381923 -1.5143523 6 5
6.0432367 13.931736 -1.417583 2 6
5.2361631 16.259987 -1.1945099 4 8
5.3903713 20.047165 0.60415226 2 25
4.3606405 16.217524 -1.0762776 2 9
9.4472065 21.779055 -1.3825459 4 10
5.9096141 18.351271 1.1227808 2 27
5.7012801 15.127923 0.65864384 1 26
10.419164 32.354889 -1.583361 15 12
11.455544 30.396435 -1.7023841 7 11
4.7169538 14.647673 1.8894625 2 29
6.8245091 18.108328 1.5797727 2 28
4.1552939 15.453827 -0.65196788 2 13
16.907278 38.977081 -1.4836473 15 14
9.2937946 24.660395 4.8049331 9 30
13.846317 42.997311 -1.0511217 19 16
11.643998 42.768505 -0.77370006 15 17
16.656199 43.778675 -1.3631824 14 15
1.7680712 5.4318838 -1.5991211 0 1
2.8815818 7.5738673 -1.6207134 1 2
16.452578 50.545753 0 25 20
22.895397 52.330776 -0.6649853 24 18
1.7958682 5.517282 -0.90268755 5 3
4.5674109 12.004853 -1.6349211 2 4
4.3291321 15.900939 0.09578035 2 21
19.947205 52.428661 -0.32602516 18 19
4.3599868 13.39479 -1.517351 4 5
6.1077313 13.960114 -1.4224161 4 6
5.2921643 16.258633 -1.195626 4 8
5.4470282 20.006981 0.60345405 2 25
5.6227365 20.652359 -1.3717614 4 9
9.5652056 21.862679 -1.3897552 4 10
4.7782435 14.679762 0.89906186 1 27
5.7189364 15.031489 0.65522444 1 26
10.494797 32.242207 -1.5794524 7 12
11.570877 30.412563 -1.7053151 14 11
5.0873632 15.629441 2.0181565 2 29
6.895546 18.124056 1.5830274 2 28
9.7494364 35.809761 -1.5120313 12 13
17.040873 38.949406 -1.4846246 15 14
4.3828783 13.465117 3.7942874 1 31
14.032087 43.109501 -1.0549369 19 16
11.836837 42.88567 -0.77656227 15 17
16.890688 43.932995 -1.3698151 15 15
1.7870202 5.4256792 -1.5991211 0 1
2.9009626 7.5454583 -1.6167911 1 2
16.702734 50.712173 0 26 20
23.212038 52.554218 -0.66885012 25 18
1.817588 5.5184879 -0.90391737 6 3
4.6064377 11.981431 -1.6339109 2 4
14.028614 50.82663 0.30645061 25 21
20.299458 52.799271 -0.32876834 19 19
4.4129353 13.398377 -1.5194931 6 5
6.1660757 13.960569 -1.4246469 4 6
5.1816006 15.732167 0.38542372 1 24
7.2784061 16.478991 0.20972577 3 22
5.3413925 16.217321 -1.1939518 2 8
5.7198071 14.877326 -1.3011807 6 7
4.4604826 16.160633 0.48790646 1 25
9.6204834 21.781672 -1.386732 4 10
4.784482 14.526452 0.89068985 1 27
5.7441173 14.940557 0.65213066 1 26
10.572274 32.099113 -1.5742409 7 12
11.678391 30.375715 -1.7055243 7 11
13.444665 40.820152 5.2769432 21 29
5.9644513 15.51365 1.3568341 1 28
9.8690529 35.756252 -1.5112172 12 13
17.230017 39.010365 -1.4892313 15 14
4.4225993 13.427718 3.7880757 1 31
6.7542963 17.56805 3.431685 4 30
14.235016 43.219784 -1.0588452 19 16
12.032787 43.009705 -0.77956414 15 17
1.8071653 5.4230638 -1.6001995 0 1
2.9315429 7.5462551 -1.6191446 1 2
16.979542 50.953362 0 27 20
23.548441 52.816273 -0.67322719 26 18
1.8380884 5.5158601 -0.90453231 7 3
4.6453562 11.957881 -1.6329007 2 4
14.269518 51.004623 0.3078222 25 21
20.651644 53.160599 -0.3314651 19 19
4.465961 13.401758 -1.5216351 6 5
6.2001705 13.906225 -1.4213008 4 6
5.2288957 15.691224 0.3848654 1 24
5.4219341 16.270506 -1.1992533 2 8
5.7471585 14.794095 -1.295648 6 7
4.5028586 16.09491 0.48639375 1 25
5.7775245 20.651045 -1.3743197 4 9
10.075335 22.597744 -1.4409176 4 10
4.8099074 14.433896 0.88603872 1 27
10.784043 32.361488 -1.5889449 15 12
11.765542 30.286366 -1.7028029 7 11
5.2151732 15.650044 2.0254686 2 29
6.0257826 15.511317 1.3584614 1 28
10.02287 35.825508 -1.5156137 12 13
17.440958 39.117935 -1.4956529 15 14
14.452788 43.370907 -1.0637769 20 16
12.235133 43.123051 -0.7824263 15 17
6.4363995 16.390047 -0.51245886 3 15
1.8184156 5.3908529 -1.5926514 0 1
2.9591873 7.5354581 -1.6191446 1 2
17.319637 51.345592 0 28 20
23.866701 53.006763 -0.67676604 26 18
1.8620868 5.5203199 -0.90637708 6 3
4.6877108 11.937078 -1.6323956 2 4
14.530644 51.213638 0.30940306 25 21
20.976513 53.415894 -0.33353415 19 19
4.5239587 13.411674 -1.5246338 4 5
6.2576485 13.897927 -1.4227879 4 6
5.2851052 15.668159 0.38477236 1 24
7.3928647 16.419186 0.20963265 6 22
5.7882385 14.73953 -1.2927188 12 7
4.5432777 16.012903 0.48441556 1 25
6.0144477 21.19808 -1.4121827 10 9
10.161387 22.56794 -1.4413828 4 10
5.2227116 15.483188 0.95161951 1 27
10.886003 32.272514 -1.5865252 7 12
6.4478211 16.419132 -0.92446244 2 11
5.8587675 17.368832 2.2506831 3 29
6.9263592 17.637711 1.5469015 4 28
10.154137 35.788525 -1.5156137 12 13
13.870118 30.804846 -1.1797426 8 14
4.6568899 13.805759 3.9040265 1 31
6.3663383 16.211639 3.1755462 3 30
14.674315 43.5033 -1.0683365 20 16
12.428655 43.229996 -0.78514886 15 17
17.532909 44.192951 -1.3836622 15 15
1.8421938 5.399056 -1.5969645 0 1
2.9854677 7.525085 -1.6191446 1 2
17.633064 51.678547 0 29 20
24.208757 53.269073 -0.68118966 27 18
1.8851702 5.5250101 -0.90822178 6 3
4.7234898 11.905893 -1.6303754 2 4
14.763444 51.350983 0.3105422 25 21
21.31031 53.714161 -0.33585888 20 19
4.5745907 13.407096 -1.525919 4 5
6.3143525 13.894133 -1.4246469 4 6
5.3229671 15.60042 0.38356265 1 24
7.4468112 16.386002 0.2095395 6 22
7.0664544 20.710188 -1.530178 6 8
5.8425846 14.726652 -1.2933698 8 7
5.7667356 14.53547 0.27295563 1 23
4.6655607 16.227997 -1.0821617 2 9
12.658849 27.854595 -1.7818449 6 10
5.2509251 15.38928 0.94696838 3 27
18.169876 45.798473 2.0073576 11 26
10.930182 32.033901 -1.5766606 15 12
11.956922 30.138277 -1.699244 7 11
5.3244653 15.60481 2.0244937 2 29
10.275662 35.741344 -1.5151252 12 13
13.856803 30.49058 -1.169552 8 14
4.7561989 13.939348 3.9464731 1 31
6.3909526 16.108852 3.1597619 3 30
14.888037 43.633488 -1.072803 20 16
12.616668 43.34214 -0.78794128 15 17
17.694244 44.17168 -1.3848258 15 15
1.8638573 5.403841 -1.6001995 0 1
3.0147834 7.5260658 -1.6214979 1 2
17.915216 51.941204 0 30 20
13.965407 30.460949 -0.39011601 6 18
1.9047717 5.5224638 -0.90883666 6 3
4.767375 11.901213 -1.6318907 2 4
15.00186 51.536007 0.31196031 25 21
21.656406 54.062771 -0.33848587 20 19
4.6229191 13.40313 -1.527204 6 5
6.3753347 13.905698 -1.4279927 4 6
5.2990494 15.363419 0.3781656 1 24
7.5094485 16.379395 0.20977233 6 22
7.1233897 20.652691 -1.5276668 6 8
5.8869443 14.696091 -1.2923934 6 7
4.6512971 15.978639 -1.066556 2 9
12.741171 27.790678 -1.7804495 6 10
6.3097177 18.293629 1.1269668 2 27
11.03245 31.986143 -1.5761023 22 12
12.056807 30.098455 -1.699244 7 11
6.8046021 16.986919 1.4938518 2 28
10.400842 35.730095 -1.5161022 12 13
13.78458 30.066534 -1.1550337 8 14
15.099161 43.776672 -1.0775487 20 16
12.807487 43.432095 -0.79038459 15 17
17.899326 44.235657 -1.3887821 15 15
1.8827101 5.3973017 -1.6001995 0 1
3.036624 7.5045877 -1.6191446 1 2
18.237394 52.282463 0 31 20
1.9279437 5.5269766 -0.91068143 7 3
4.8074036 11.880819 -1.6313856 2 4
15.30952 51.916862 0.3145873 26 21
21.936523 54.213024 -0.33990398 20 19
4.6749191 13.401931 -1.5289177 4 5
6.4288564 13.894201 -1.429108 4 6
5.3500147 15.337276 0.37797952 1 24
14.019591 30.29948 0.3886725 10 22
7.1757288 20.571184 -1.5234814 10 8
5.9920454 14.808495 -1.3041098 6 7
4.7420502 16.080997 -1.0744867 2 9
12.839787 27.749659 -1.7806821 6 10
5.359508 15.364491 0.94766611 1 27
7.0353956 17.386988 0.76415718 1 26
11.130882 31.90971 -1.5742409 15 12
12.137832 29.996939 -1.6958946 7 11
5.4580278 15.646926 2.0347307 5 29
6.4885168 16.035454 1.4121619 2 28
10.545857 35.762569 -1.5190331 12 13
4.8153458 13.804502 3.9174852 1 31
7.7787089 19.223982 3.7810957 5 30
15.313791 43.901157 -1.0819222 20 16
13.008202 43.55191 -0.7933864 15 17
1.9028162 5.39433 -1.6012776 0 1
3.0627961 7.4939437 -1.6191446 1 2
18.522205 52.508957 0 32 20
14.030485 30.047421 -0.38606492 12 18
1.9498507 5.527669 -0.91191119 7 3
4.8488379 11.863969 -1.6313856 2 4
15.567311 52.119896 0.31614488 26 21
4.7322464 13.415537 -1.5323447 4 5
6.4722533 13.860854 -1.4279927 11 6
5.4021783 15.314738 0.37788647 1 24
7.2607522 20.583645 -1.5262717 6 8
6.0436897 14.787491 -1.3041098 10 7
7.0251837 17.188976 0.32412609 1 23
6.227304 20.849228 -1.3945303 5 9
12.941623 27.715532 -1.7813797 6 10
8.3687153 23.72463 1.4651034 3 27
8.3910942 23.788073 -1.1750039 3 12
5.4307179 15.395647 2.0045071 5 29
7.1432281 17.477802 1.5413686 2 28
10.691191 35.794476 -1.521964 12 13
13.987371 29.955088 -1.1544753 8 14
8.9905233 25.487406 7.2417574 6 31
16.078581 39.340519 7.7487345 21 30
15.51613 43.986977 -1.0853651 10 16
13.209951 43.670841 -0.79638827 15 17
6.9581308 16.856642 -0.53072774 5 15
1.9164598 5.3731432 -1.5969645 0 1
3.090435 7.4868321 -1.619929 1 2
8.4644613 23.731655 0 4 20
14.11313 29.951221 -0.3854596 18 18
1.9744468 5.5357203 -0.91437089 7 3
4.8856831 11.835966 -1.6298703 2 4
15.950675 52.731415 0.32018998 26 21
7.005219 16.970716 -0.10670675 3 19
4.7884026 13.425157 -1.5353434 4 5
6.5206008 13.838176 -1.4279927 4 6
8.4635143 23.728998 0.58623111 3 24
14.147225 30.023582 0.38639086 19 22
7.308434 20.490522 -1.5212492 6 8
6.0831065 14.736823 -1.3015062 19 7
13.026381 27.644899 -1.7797519 6 10
8.4166059 23.597483 1.459057 7 27
7.2053995 17.455669 0.76936769 1 26
6.9743981 16.896051 -0.95795745 5 11
5.6058021 15.716885 2.0488675 2 29
6.8680234 16.63835 1.4694425 2 28
10.818397 35.764587 -1.5222895 13 13
14.069703 29.859062 -1.1526605 8 14
5.2023458 14.585722 4.1493874 1 31
7.6589718 18.554485 3.6598423 5 30
13.420329 43.786552 -0.79939002 15 17
7.0183311 16.827333 -0.5306114 5 15
1.9452929 5.3914452 -1.6045126 0 1
3.1178565 7.4754539 -1.619929 1 2
14.215944 29.88484 -0.38527331 18 18
1.9987485 5.5395994 -0.91621566 7 3
4.935143 11.832628 -1.6318907 2 4
16.214178 52.902054 0.32158482 27 21
7.0073261 16.800947 -0.10580008 3 19
4.8389292 13.411256 -1.5357718 4 5
6.5883875 13.850147 -1.4317105 2 6
14.243434 29.942631 0.38601831 29 22
6.1831212 14.824813 -1.31127 8 7
7.2034369 17.271149 0.32663926 4 23
6.5061913 21.227774 -1.4229275 10 9
13.127624 27.596966 -1.7797519 6 10
8.5111752 23.589008 1.4604523 3 27
8.5448399 23.682314 -1.1727704 7 12
7.040894 16.881432 -0.95858544 7 11
6.0864763 16.868876 2.2019355 3 29
6.7785668 16.252468 1.4375477 2 28
10.975182 35.808762 -1.5258719 13 13
14.134406 29.71343 -1.149031 16 14
5.3724804 14.890012 4.2415266 1 31
10.300552 24.696875 4.8788328 9 30
8.5490761 23.694054 -0.58613807 3 16
13.614019 43.89843 -0.80225223 15 17
7.0725393 16.800283 -0.53049499 5 15
1.9526054 5.3560138 -1.5958861 0 1
3.1426275 7.4650741 -1.619929 1 2
19.517704 53.537235 0 35 20
14.299391 29.805084 -0.38485423 18 18
2.0211675 5.5440807 -0.9180603 6 3
4.968194 11.80157 -1.6298703 2 4
16.432161 52.985535 0.32242173 27 21
7.0148873 16.663334 -0.10507941 5 19
4.8969955 13.432502 -1.5400558 4 5
6.6411686 13.842588 -1.4331976 2 6
14.337453 29.884418 0.38587865 29 22
7.4649744 20.47649 -1.5240395 6 8
6.2399802 14.822602 -1.3128973 6 7
7.2746329 17.28034 0.32726753 3 23
6.5398903 21.087889 -1.4149967 10 9
7.898963 16.464285 -1.0634791 3 10
5.7102757 15.663336 0.9709217 1 27
7.3162317 17.379156 0.76822793 3 26
11.565736 31.724915 -1.5729381 15 12
7.1045833 16.8764 -0.95963216 5 11
16.281317 44.659794 5.8365669 27 29
11.132928 35.898144 -1.5312452 13 13
14.246689 29.695234 -1.1501478 8 14
6.9211979 18.984907 5.4144945 3 31
12.231372 29.054701 5.7476959 12 30
16.201914 44.441994 -1.1007187 10 16
13.812706 43.995636 -0.804905 15 17
7.1499147 16.819647 -0.53189135 3 15
1.9792826 5.3708506 -1.602356 0 1
3.1655996 7.4468393 -1.61836 1 2
19.801302 53.731506 0 36 20
14.412065 29.772984 -0.38508704 18 18
2.0418761 5.5407004 -0.91867524 6 3
5.0109143 11.787807 -1.6303754 2 4
16.700901 53.194988 0.32404909 27 21
7.0698853 16.631384 -0.10503291 7 19
4.9507327 13.433982 -1.5421976 4 5
6.7068043 13.855167 -1.4369154 4 6
5.5380516 15.027692 0.37267551 1 24
14.439947 29.830584 0.38583207 29 22
7.6605911 20.787275 -1.5491517 10 8
6.2885661 14.793388 -1.3122463 6 7
6.5931401 21.000185 -1.4106476 10 9
13.341265 27.560884 -1.7832402 6 10
6.67626 18.116259 1.1244087 2 27
7.4206352 17.456497 0.77278709 1 26
11.681941 31.699345 -1.5736827 15 12
12.582926 29.600405 -1.6856365 7 11
5.2374187 14.211914 1.8597264 2 29
11.267756 35.889568 -1.5325478 13 13
14.400779 29.749668 -1.1541961 8 14
10.073657 27.335211 7.8059826 7 31
12.332726 29.011826 5.7476959 12 30
16.437159 44.602791 -1.1061158 10 16
14.023889 44.155426 -0.80867469 16 17
18.967045 44.210812 -1.4000692 15 15
1.9863294 5.3353791 -1.5937296 0 1
3.1918216 7.4399056 -1.6191446 1 2
20.097986 53.984188 0 37 20
14.533519 29.771753 -0.38569236 18 18
2.0657532 5.5487151 -0.92113483 6 3
5.0499744 11.771126 -1.6303754 2 4
16.999489 53.524361 0.32639709 27 21
7.1202641 16.596821 -0.10496318 5 19
5.0049644 13.443582 -1.5451963 4 5
6.7631927 13.854326 -1.439146 4 6
5.5766897 14.979265 0.37193111 1 24
14.551066 29.807701 0.38615802 19 22
7.7628903 20.851507 -1.5558484 7 8
6.3092937 14.706509 -1.3063881 6 7
8.7055721 20.292059 0.38541895 2 23
6.8210292 21.476601 -1.4441614 11 9
13.444842 27.541613 -1.784868 6 10
11.785594 31.656689 -1.5734965 15 12
12.699908 29.60257 -1.6881487 14 11
6.2915511 16.899418 2.2141225 3 29
6.9128733 16.113409 1.4313639 2 28
11.433882 36.000565 -1.5388981 13 13
14.52916 29.762825 -1.1565694 8 14
9.8932858 26.573854 7.5978923 6 31
6.7085738 15.637201 3.1023641 3 30
16.647751 44.716682 -1.1103032 21 16
14.228106 44.262321 -0.81153691 16 17
19.098995 44.092976 -1.3984401 15 15
2.0090098 5.3392286 -1.5969645 0 1
3.2162118 7.4251208 -1.61836 1 2
20.458153 54.370441 0 38 20
14.651485 29.749554 -0.38606492 18 18
2.0892842 5.5525689 -0.92297959 6 3
5.0847216 11.738863 -1.6283551 2 4
17.266998 53.71603 0.32793146 27 21
7.18292 16.582878 -0.10503291 3 19
5.0602622 13.448364 -1.5477667 4 5
6.8379035 13.884229 -1.4447227 4 6
14.674459 29.796202 0.38667026 19 22
7.8173566 20.775732 -1.5522211 7 8
6.3669252 14.699028 -1.3076899 6 7
6.6404309 20.657764 0.63149732 2 25
8.7699881 20.246868 0.3851397 2 23
6.9106097 21.498266 -1.4472313 11 9
13.563829 27.541088 -1.7878913 6 10
6.8050365 18.085348 1.1253389 4 27
7.5361013 17.398252 0.77246147 1 26
11.948083 31.753725 -1.5803831 15 12
12.760289 29.459093 -1.6824965 7 11
5.3004723 14.086756 1.8480269 2 29
8.0101557 18.49268 1.6451898 2 28
