# .PCD v0.7 - Point Cloud Data file format
VERSION 0.7
FIELDS x y z intensity ring
SIZE 4 4 4 4 2
TYPE F F F F U
COUNT 1 1 1 1 1
WIDTH 1304
HEIGHT 1
VIEWPOINT 0 0 0 1 0 0 0
POINTS 1304
DATA ascii
9.7357521 -7.0604649 -1.295446 4 5
9.9311953 -8.8018408 -1.2387587 2 6
36.483719 -26.458361 1.0487024 11 24
14.057964 -10.194977 -1.2143207 2 8
11.690575 -9.3826771 -1.2237217 3 7
16.119001 -10.5279 -1.233869 3 9
10.898859 -9.6594639 -0.84813207 4 10
34.143154 -24.760958 2.4562576 12 27
37.437717 -30.046944 1.9557408 10 26
19.430309 -14.091056 -1.1180499 3 12
16.975069 -13.623932 -1.1407146 3 11
11.748348 -10.412351 -0.54820132 16 14
33.621998 -24.383011 -0.96644396 8 16
38.798969 -25.544359 -0.81083882 16 17
32.315201 -26.130999 -1.209468 10 15
4.2232876 -3.0864537 -1.4643334 5 1
5.4105921 -4.3751602 -1.3916484 2 2
36.428646 -26.622704 0 15 20
12.062542 -10.770014 -0.18825962 5 18
7.0076599 -5.1213226 -1.3503419 2 3
8.108551 -6.5568075 -1.3273315 4 4
9.6809111 -7.0749822 -1.2915905 3 5
9.8721304 -8.8143101 -1.2354127 2 6
36.447845 -26.636736 1.0504704 11 24
13.99151 -10.225245 -1.2118095 2 8
11.637506 -9.4104214 -1.221769 3 7
16.030294 -10.553981 -1.2300315 3 9
10.714446 -9.56637 -0.83650428 4 10
34.219826 -25.008457 2.4683504 12 27
37.380169 -30.226679 1.958509 10 26
19.284979 -14.093807 -1.1126522 3 12
16.853579 -13.628288 -1.1358997 3 11
11.739925 -10.481967 -0.54959732 19 14
33.503349 -24.484846 -0.96560645 8 16
38.469612 -25.520452 -0.80581248 15 17
32.264091 -26.276463 -1.2109808 10 15
4.2124882 -3.1011765 -1.4643334 5 1
5.3861632 -4.3865891 -1.389295 2 2
11.807756 -10.616834 -0.18486041 5 18
6.9801917 -5.1387224 -1.3484972 2 3
8.0763855 -6.5775547 -1.3258165 4 4
9.6465483 -7.1016579 -1.2903054 3 5
9.8116884 -8.8220873 -1.2316949 2 6
13.913959 -10.243267 -1.2081822 2 8
11.58913 -9.4383984 -1.2201416 3 7
15.940135 -10.574567 -1.2259382 3 9
34.077652 -25.087503 2.464397 12 27
37.262035 -30.346878 1.9578575 10 26
19.164877 -14.108922 -1.1085575 3 12
14.681164 -11.956606 -0.99228984 2 11
11.741911 -10.557629 -0.55141205 16 14
34.844299 -25.651899 -1.0068288 9 16
38.251755 -25.559002 -0.80302012 15 17
32.176781 -26.38331 -1.2109808 10 15
4.1990871 -3.1128352 -1.4632552 5 1
5.3624883 -4.3969655 -1.3869417 2 2
11.680557 -10.572723 -0.18341692 3 18
6.9567623 -5.1571341 -1.3472674 2 3
8.0483923 -6.5992689 -1.3248062 4 4
9.6133604 -7.1265025 -1.2890202 3 5
9.7617102 -8.8358669 -1.2290925 2 6
33.955921 -25.171944 0.98356563 10 24
13.860681 -10.275094 -1.206508 2 8
11.530023 -9.4540272 -1.2172127 3 7
15.86515 -10.600754 -1.2228682 3 9
10.364871 -9.3818216 -0.81417888 4 10
33.939739 -25.159946 2.4604437 12 27
36.787239 -30.163651 1.9381553 10 26
19.063416 -14.131946 -1.1053934 3 12
14.048362 -11.518937 -0.95209581 2 11
11.689053 -10.580413 -0.55057448 16 14
34.492405 -25.569645 -0.99910539 9 16
38.09927 -25.649933 -0.80169374 15 17
14.863007 -12.273915 -0.56098187 1 15
4.1881957 -3.1274736 -1.4632552 5 1
5.3501315 -4.4181547 -1.3877261 2 2
33.828938 -25.261263 0 13 20
11.640625 -10.610737 -0.18337035 5 18
6.9292178 -5.1742916 -1.3454227 2 3
8.0222473 -6.6247959 -1.3243012 4 4
9.5756798 -7.1504979 -1.2873067 3 5
9.7190332 -8.8591557 -1.2276053 2 6
33.922318 -25.330994 0.98514754 10 24
13.773574 -10.285214 -1.2020435 2 8
11.469284 -9.4713697 -1.2142835 3 7
15.788315 -10.629317 -1.2197983 3 9
10.225817 -9.3211021 -0.80580688 6 10
33.870907 -25.292601 2.461839 12 27
38.000698 -31.38109 2.0078461 11 26
18.921125 -14.129072 -1.0999957 3 12
11.705227 -10.669623 -0.55308723 16 14
37.989643 -25.769297 -0.8012749 15 17
4.1741748 -3.1397586 -1.4621768 5 1
5.3256297 -4.4292789 -1.3853726 2 2
11.585835 -10.635077 -0.18309097 3 18
6.9079547 -5.1960721 -1.3448077 2 3
7.9868712 -6.6426096 -1.3222809 3 4
9.5411263 -7.1767082 -1.2860215 3 5
9.6763134 -8.8822546 -1.2261182 2 6
13.702511 -10.306847 -1.1989744 2 8
11.414698 -9.4935026 -1.2120053 3 7
15.691651 -10.644028 -1.2151933 3 9
10.078488 -9.2514257 -0.79673719 4 10
33.804749 -25.427483 2.4634666 12 27
18.779087 -14.12538 -1.0945982 3 12
13.110751 -10.904096 -0.89368886 7 11
11.685581 -10.726637 -0.5539248 21 14
34.348206 -25.836266 -1.0001289 9 16
38.000587 -25.980595 -0.80350876 15 17
4.1595688 -3.1527097 -1.4610984 5 1
5.3063531 -4.4462495 -1.3845882 2 2
6.8825645 -5.2165809 -1.343578 2 3
7.9533453 -6.6641922 -1.3207656 3 4
9.4957409 -7.1972156 -1.2834511 3 5
9.6290731 -8.9041405 -1.2242594 2 6
13.632841 -10.332895 -1.196184 2 8
11.355377 -9.5147915 -1.2094016 3 7
39.855152 -27.248541 1.4050728 12 25
15.603106 -10.667677 -1.2113559 3 9
9.9272385 -9.1798582 -0.78743494 4 10
35.146591 -26.639059 2.5683496 12 27
36.917408 -30.933485 1.9622539 10 26
18.679424 -14.157909 -1.0918063 3 12
12.798201 -10.723747 -0.87505728 4 11
11.610967 -10.736826 -0.55224961 26 14
33.243023 -25.196264 -0.9706313 8 16
38.123035 -26.24044 -0.80783701 16 17
4.1435194 -3.1610892 -1.4589419 5 1
5.2863622 -4.4578414 -1.3830193 2 2
12.488228 -11.621033 -0.19859689 10 18
6.8504305 -5.2261906 -1.3405033 2 3
7.9172039 -6.6763563 -1.3182403 3 4
17.310404 -14.597379 -0.13160498 2 19
9.469923 -7.2245998 -1.2830228 3 5
9.5835609 -8.9180689 -1.2220287 2 6
13.671167 -12.721828 0.21740888 3 22
13.565415 -10.34905 -1.1931146 2 8
11.298002 -9.5272884 -1.2064725 3 7
15.539923 -10.696274 -1.2090534 3 9
9.8048058 -9.12395 -0.77999312 4 10
37.498333 -31.621296 1.998402 10 26
18.555435 -14.155934 -1.0871532 3 12
12.471292 -10.516692 -0.85496026 4 11
11.547916 -10.746017 -0.55085367 21 14
33.179604 -25.312704 -0.97109658 8 16
38.622772 -26.783587 -0.82040274 16 17
13.159435 -11.175816 -0.50245172 6 15
4.1294055 -3.1731868 -1.4578637 5 1
5.2618003 -4.4686494 -1.3806659 2 2
12.462176 -11.678226 -0.1988297 4 18
6.835279 -5.2524791 -1.3411182 2 3
7.8938503 -6.7039514 -1.3182403 3 4
9.425725 -7.2430725 -1.2804524 4 5
9.5407467 -8.9405737 -1.2205416 2 6
13.484912 -10.362301 -1.1892084 2 8
11.240366 -9.5460205 -1.2038689 3 7
40.071114 -27.787962 1.4191527 12 25
15.469686 -10.727704 -1.206495 3 9
9.6621723 -9.0543604 -0.77115607 4 10
34.978645 -26.878874 2.5690472 12 27
37.424282 -31.783039 2.000356 10 26
18.448879 -14.176796 -1.0838029 3 12
12.178752 -10.342957 -0.83737534 6 11
23.906136 -16.578096 -1.1852332 7 13
11.54242 -10.81633 -0.55238926 9 14
33.091038 -25.42837 -0.97109658 8 16
38.624123 -26.984667 -0.82242715 16 17
13.077806 -11.1853 -0.50082266 4 15
4.1213493 -3.1899393 -1.4589419 6 1
5.2431889 -4.4844403 -1.3798814 2 2
12.726777 -12.009895 -0.20371896 4 18
6.8044 -5.2666302 -1.3386586 2 3
7.8613553 -6.7237287 -1.3167251 2 4
17.211113 -14.720471 -0.13162823 7 19
9.387804 -7.2661939 -1.2787389 2 5
9.4978924 -8.9628887 -1.2190545 2 6
13.637289 -12.869119 0.21829361 6 22
13.432879 -10.397097 -1.1878132 2 8
11.179708 -9.5618782 -1.2009397 3 7
39.918152 -27.888739 1.4171745 12 25
15.386333 -10.749632 -1.2029135 3 9
9.5462837 -9.0085545 -0.76441193 4 10
35.863533 -27.758503 2.6411395 13 27
18.351883 -14.204424 -1.0810111 3 12
11.927044 -10.201067 -0.82251197 4 11
23.769491 -16.606508 -1.1813253 7 13
11.902908 -11.232433 -0.57151419 10 14
33.04002 -25.573095 -0.97221321 8 16
38.889446 -27.372543 -0.83010626 16 17
12.520647 -10.784674 -0.48092473 3 15
4.107152 -3.2019382 -1.4578637 6 1
5.2275028 -4.5027151 -1.3798814 2 2
12.128097 -11.525237 -0.19477861 3 18
6.7797413 -5.28549 -1.3374288 2 3
7.8107777 -6.7278218 -1.3121794 3 4
17.159622 -14.780459 -0.13162823 7 19
9.3498373 -7.2891388 -1.2770253 2 5
9.4376783 -8.9685526 -1.2153367 2 6
13.627076 -12.949706 0.21885239 10 22
13.358743 -10.414483 -1.1844649 2 8
11.125116 -9.5826311 -1.1986614 3 7
37.015232 -26.053368 1.3173357 10 25
34.517624 -29.731794 0.79520148 8 23
15.31281 -10.778003 -1.2000993 3 9
9.4192553 -8.951046 -0.75673753 4 10
36.497055 -28.453125 2.6950927 13 27
18.232862 -14.21435 -1.0769163 3 12
11.691609 -10.07058 -0.80869526 6 11
23.564308 -16.585863 -1.1739981 6 13
11.521685 -10.948968 -0.55504161 19 14
32.947403 -25.685812 -0.97212011 8 16
38.836075 -27.538198 -0.8310138 16 17
4.0868611 -3.2091184 -1.4546287 7 1
5.2087908 -4.5183654 -1.379097 2 2
12.154259 -11.631107 -0.1958496 3 18
6.758141 -5.3066826 -1.3368138 2 3
7.7722597 -6.7420459 -1.3096541 3 4
36.929287 -26.186119 0.26311699 18 21
17.089796 -14.824542 -0.13148874 7 19
9.3024416 -7.3045382 -1.2740266 4 5
9.3315029 -8.9298506 -1.2056706 2 6
13.538445 -12.955715 0.21815392 10 22
13.278373 -10.426552 -1.1805587 2 8
11.058473 -9.5926714 -1.1950815 3 7
34.356232 -29.802311 0.7938751 17 23
15.226251 -10.796754 -1.1962619 3 9
9.2869768 -8.8872404 -0.7485981 4 10
36.450909 -28.622278 2.6990461 13 27
34.408459 -29.847616 1.8557637 9 26
18.132854 -14.238426 -1.0739384 3 12
11.484391 -9.9621344 -0.7967627 4 11
23.330215 -16.543179 -1.1652052 6 13
11.50939 -11.013995 -0.55629796 16 14
32.873264 -25.813013 -0.97258538 8 16
36.535217 -26.108452 -0.78382248 15 17
12.25047 -10.705607 -0.47347754 7 15
4.072051 -3.2216861 -1.4535503 8 1
5.1833344 -4.5296826 -1.3767436 2 2
13.185631 -12.710997 -0.21321808 4 18
6.7262468 -5.3216071 -1.3343543 2 3
7.7445083 -6.7678757 -1.3091489 3 4
36.670341 -26.205013 0.26195461 18 21
13.427081 -11.733839 -0.10363805 5 19
9.2600117 -7.3262467 -1.2718847 2 5
9.2098227 -8.8783035 -1.1941454 3 6
13.433277 -12.949729 0.21722263 6 22
13.202516 -10.445439 -1.1772103 2 8
10.990217 -9.6042805 -1.1915015 3 7
36.596889 -26.152523 1.309074 20 25
34.219666 -29.904345 0.79324681 17 23
15.160593 -10.83392 -1.1942153 3 9
9.1882172 -8.8574753 -0.7432493 4 10
34.349991 -30.018236 1.8585318 9 26
18.046076 -14.27752 -1.071891 3 12
11.273347 -9.8517056 -0.7846207 4 11
23.038551 -16.463593 -1.1536444 6 13
11.477578 -11.064427 -0.5567168 21 14
32.834885 -25.977987 -0.97426033 8 16
36.415977 -26.206104 -0.78312439 15 17
11.878684 -10.450381 -0.46044499 2 15
4.0643578 -3.2375717 -1.4546287 8 1
5.1653399 -4.5442553 -1.375959 2 2
11.573318 -11.231004 -0.18774739 5 18
6.7085624 -5.343883 -1.3343543 2 3
7.7101059 -6.7830362 -1.3071287 3 4
36.554024 -26.305447 0.26174536 18 21
13.355062 -11.749238 -0.10338233 1 19
9.2294445 -7.3519583 -1.2710279 4 5
9.10602 -8.8366833 -1.1844792 3 6
13.255353 -12.863288 0.2150341 9 22
13.105382 -10.439439 -1.1716298 2 8
10.943342 -9.6275053 -1.1898742 5 7
36.234112 -26.075226 1.2991834 10 25
34.156345 -30.049358 0.79408455 8 23
15.088943 -10.858487 -1.1914011 3 9
9.0986156 -8.8294973 -0.73836565 4 10
32.395813 -28.500513 1.7579033 9 26
17.948626 -14.297453 -1.068913 3 12
11.072665 -9.7412786 -0.77289748 3 11
22.83136 -16.43018 -1.1459914 6 13
11.42648 -11.08851 -0.55601883 23 14
32.779835 -26.111645 -0.97519088 8 16
36.37796 -26.38166 -0.78438091 15 17
11.786443 -10.446114 -0.45835045 5 15
4.0404482 -3.2428024 -1.4503155 4 1
5.1427798 -4.5579538 -1.3743901 2 2
11.58928 -11.329265 -0.18867868 3 18
6.6796846 -5.3610134 -1.3325095 2 3
7.667376 -6.7954583 -1.3040982 3 4
36.473557 -26.450987 0.26186162 18 21
9.1807251 -7.3683105 -1.2680291 2 5
8.9909801 -8.7892599 -1.1736977 3 6
13.079413 -12.785965 0.21293871 6 22
13.023467 -10.452436 -1.1677234 2 8
10.88113 -9.6437511 -1.186945 3 7
36.08651 -26.170296 1.2973214 10 25
15.010268 -10.885596 -1.1883312 3 9
9.0519152 -8.8488283 -0.73720282 4 10
32.371895 -28.690632 1.7622998 9 26
17.843128 -14.320623 -1.0657489 3 12
10.899377 -9.6599226 -0.76326764 3 11
22.677164 -16.445705 -1.1412694 6 13
11.348601 -11.093987 -0.55420405 21 14
32.72134 -26.261648 -0.97630751 17 16
36.372421 -26.552408 -0.7860564 15 17
4.0302405 -3.2554801 -1.4503155 7 1
5.1284351 -4.5740881 -1.3743901 3 2
6.6566606 -5.3770051 -1.3312798 2 3
7.6311836 -6.8063073 -1.3015729 3 4
9.1451559 -7.3871207 -1.2663156 2 5
8.8866653 -8.742053 -1.1636598 3 6
13.016368 -12.804553 0.21256618 6 22
12.962626 -10.470733 -1.1652122 2 8
10.734745 -9.5743961 -1.1742522 3 7
36.934166 -26.962488 1.3308338 10 25
14.917959 -10.890332 -1.1837263 3 9
9.0126839 -8.8660212 -0.73627263 4 10
32.347218 -28.850716 1.765882 18 26
17.754534 -14.341458 -1.0631431 3 12
10.74377 -9.5824451 -0.75447518 3 11
22.483347 -16.413177 -1.134105 6 13
11.290894 -11.107157 -0.55308723 19 14
32.585789 -26.3216 -0.9747256 17 16
37.740673 -27.763866 -0.81781977 16 17
11.670453 -10.486014 -0.45660505 12 15
4.0182815 -3.2702298 -1.4503155 7 1
5.1058002 -4.5876107 -1.3728212 2 2
11.682359 -11.576812 -0.19147253 5 18
6.6369081 -5.4013672 -1.3312798 2 3
7.6002817 -6.8289266 -1.3005627 3 4
14.433328 -12.968484 -0.11277439 4 19
9.1025972 -7.4080381 -1.2641737 4 5
8.7866697 -8.7072849 -1.1547372 2 6
13.017649 -12.900038 0.21335779 6 22
12.868455 -10.472836 -1.1601896 2 8
10.575028 -9.5017653 -1.1605829 3 7
37.044441 -27.251686 1.3383974 10 25
14.845789 -10.921282 -1.181168 3 9
8.9574375 -8.8765087 -0.73441219 4 10
32.30666 -29.027845 1.7694643 9 26
14.503616 -11.803593 -0.87106264 2 12
10.649149 -9.5683632 -0.75028831 3 11
22.233097 -16.355743 -1.124498 6 13
11.306898 -11.204743 -0.55587918 14 14
32.448776 -26.408043 -0.97351593 8 16
37.69339 -27.922195 -0.81879705 16 17
11.665269 -10.551478 -0.45776865 11 15
3.9895384 -3.2688892 -1.4438457 7 1
5.0905595 -4.604517 -1.3728212 2 2
11.706203 -11.677631 -0.19249697 9 18
6.6128449 -5.418335 -1.3300499 2 3
7.5746531 -6.8514309 -1.3000576 2 4
33.989395 -25.178381 0.24584398 15 21
12.536216 -11.339267 -0.0982446 3 19
9.056448 -7.4205384 -1.261175 4 5
8.6816177 -8.66043 -1.1446992 3 6
13.065413 -13.033525 0.21484785 6 22
12.802791 -10.490162 -1.1573994 2 8
10.401543 -9.408411 -1.1449609 3 7
33.988438 -25.17767 1.2309951 8 25
14.780624 -10.949067 -1.1788654 3 9
8.9222984 -8.9005222 -0.73394704 4 10
34.922325 -31.587967 1.9184529 10 26
13.991522 -11.464167 -0.84258562 2 12
10.599587 -9.5875463 -0.74903226 3 11
22.031008 -16.319946 -1.1170079 6 13
11.264021 -11.236529 -0.55559999 9 14
32.398144 -26.545914 -0.97463256 8 16
37.977131 -28.338228 -0.82710445 16 17
11.634276 -10.59752 -0.45800138 8 15
3.9810739 -3.2852468 -1.444924 7 1
5.0657558 -4.6143346 -1.3704678 2 2
11.611753 -11.664566 -0.19161224 18 18
6.5908422 -5.43887 -1.329435 2 3
7.5389562 -6.8671422 -1.2980374 3 4
33.894886 -25.292089 0.24579749 15 21
12.999255 -11.840862 -0.1021967 3 19
9.027421 -7.4495745 -1.2607465 4 5
8.5726595 -8.6116505 -1.1342895 3 6
12.997262 -13.056377 0.21447533 9 22
12.723006 -10.499231 -1.153493 1 8
10.23306 -9.3211689 -1.1299899 1 7
14.723119 -10.986272 -1.1773305 3 9
8.8714542 -8.9118042 -0.73231918 4 10
34.643429 -31.556273 1.9091716 10 26
10.545383 -9.6056595 -0.74756688 3 11
21.954685 -16.382408 -1.1160309 6 13
11.303696 -11.355108 -0.55950874 7 14
14.986764 -12.367321 -0.45214239 3 16
37.970695 -28.540306 -0.82912892 16 17
11.582483 -10.624551 -0.45741957 5 15
3.9695823 -3.2991228 -1.444924 7 1
5.0525093 -4.6346402 -1.3712522 2 2
11.613145 -11.747693 -0.19231071 11 18
6.5566192 -5.4492111 -1.3263605 2 3
7.5090923 -6.888051 -1.2970272 3 4
12.895945 -11.829383 -0.10170849 3 19
8.9860716 -7.4683304 -1.2586046 2 5
8.4697504 -8.5678797 -1.1246233 3 6
13.075332 -13.226822 0.21652415 9 22
12.649457 -10.512973 -1.1501447 1 8
14.636817 -11.001621 -1.173493 3 9
8.8290634 -8.9313564 -0.73138893 4 10
34.064777 -31.247442 1.8832818 10 26
13.11833 -10.902655 -0.79456544 3 12
10.500016 -9.6316099 -0.74672949 3 11
21.849445 -16.422924 -1.1135885 6 13
11.446667 -11.579287 -0.56858265 20 14
38.094044 -28.841661 -0.83401561 16 17
11.627562 -10.740881 -0.46067768 6 15
3.9550886 -3.3104875 -1.4438457 8 1
5.027657 -4.6442642 -1.3688989 2 2
11.997963 -12.222008 -0.19938847 6 18
6.5375581 -5.4720654 -1.3263605 2 3
7.4704294 -6.9007583 -1.2945019 3 4
12.792872 -11.817329 -0.10122029 1 19
8.9446983 -7.4868898 -1.2564627 2 5
8.3728313 -8.5291815 -1.1157007 3 6
12.978649 -13.221006 0.21568601 6 22
12.600442 -10.54682 -1.1490285 3 8
9.948101 -9.1894913 -1.1055806 3 7
14.55377 -11.018912 -1.1699115 3 9
8.7894411 -8.9535713 -0.73069125 4 10
33.934944 -31.347176 1.8821421 10 26
12.835073 -10.743211 -0.77967548 3 12
10.434055 -9.6383877 -0.74442673 3 11
21.619921 -16.368818 -1.1047957 6 13
11.271755 -11.48224 -0.5618819 7 14
13.507874 -11.306359 -0.40989655 4 16
38.175674 -29.124216 -0.83813435 16 17
11.670072 -10.859694 -0.46393585 8 15
3.9429283 -3.3249617 -1.4438457 7 1
5.0106006 -4.6626606 -1.3688989 3 2
11.986584 -12.300278 -0.19994725 6 18
6.5114145 -5.4908948 -1.3251307 2 3
7.4421806 -6.9253902 -1.2939968 3 4
8.8989544 -7.504241 -1.2538923 4 5
8.2748032 -8.4913578 -1.106778 3 6
12.581167 -12.910421 0.20986547 9 22
9.8122025 -9.1308355 -1.0941895 3 7
14.484719 -11.05039 -1.167609 3 9
8.7342691 -8.9628477 -0.72883081 4 10
33.796413 -31.449564 1.8808393 10 26
12.465717 -10.511992 -0.75957412 3 12
10.384036 -9.662961 -0.74338001 3 11
21.467628 -16.377649 -1.1000737 6 13
11.288182 -11.583598 -0.56481344 7 14
13.328776 -11.239786 -0.40570918 9 16
37.014595 -28.443373 -0.81481797 16 17
11.541651 -10.815608 -0.46032861 8 15
3.9254258 -3.3337173 -1.441689 8 1
4.9885702 -4.6747575 -1.3673298 3 2
17.250488 -14.650194 0 6 20
12.046489 -12.448389 -0.20167014 4 18
6.4861832 -5.5084724 -1.3239008 2 3
7.4179621 -6.9513249 -1.2939968 3 4
16.598598 -15.55444 -0.13220942 5 19
8.8757381 -7.5378323 -1.2543207 2 5
8.1675634 -8.440053 -1.0963683 3 6
12.62225 -13.04336 0.21130896 9 22
12.296541 -10.442992 -1.1281017 1 8
9.6784534 -9.0696173 -1.0827985 3 7
14.4334 -11.091154 -1.1665857 3 9
8.6918221 -8.981802 -0.72790056 4 10
12.167029 -10.333003 -0.74356735 4 12
10.329841 -9.680028 -0.74191457 3 11
21.30892 -16.374556 -1.0948632 6 13
11.378339 -11.757948 -0.5713746 12 14
13.237645 -11.242236 -0.4041273 10 16
36.638546 -28.348145 -0.8086049 16 17
11.476637 -10.826387 -0.45916498 5 15
3.9084938 -3.3417101 -1.4395324 8 1
4.9644814 -4.6832013 -1.3649765 2 2
11.48125 -11.943295 -0.19286948 5 18
6.4678802 -5.5299516 -1.3239008 2 3
7.3804374 -6.9622731 -1.2914715 3 4
16.241417 -15.321202 -0.12976842 2 19
8.8295336 -7.5491333 -1.251322 2 5
8.0815678 -8.4067974 -1.0885611 3 6
12.667627 -13.177416 0.21279901 9 22
12.022247 -10.278861 -1.1060587 3 8
9.5526237 -9.0113859 -1.0720583 4 7
13.623835 -12.851929 0.32691848 1 23
14.336555 -11.092546 -1.1617249 3 9
8.6370821 -8.9846678 -0.72580755 4 10
11.926183 -10.196728 -0.7309109 4 12
10.280249 -9.6977854 -0.74065852 3 11
21.137545 -16.354639 -1.0888385 6 13
10.981902 -11.423851 -0.55336642 7 14
13.191172 -11.278276 -0.40384811 7 16
36.430317 -28.401094 -0.80630118 15 17
11.465862 -10.895921 -0.46032861 8 15
3.9078939 -3.3660686 -1.4438457 8 1
4.9472833 -4.7013655 -1.3649765 2 2
17.093237 -14.723278 0 9 20
11.473296 -12.022912 -0.19347481 13 18
6.4355898 -5.5433021 -1.3214412 2 3
7.3519936 -6.9865432 -1.2909664 3 4
8.7837257 -7.5658712 -1.2487518 4 5
7.9902105 -8.3729734 -1.0803819 3 6
34.468094 -29.689127 1.058566 11 24
12.807015 -13.420522 0.21596538 6 22
11.775884 -10.143169 -1.0868058 3 8
9.4212732 -8.9529629 -1.0609928 4 7
14.264321 -11.120473 -1.1591666 3 9
8.5958233 -9.0075979 -0.72510988 4 10
32.67334 -28.143215 2.5113733 12 27
11.704057 -10.081302 -0.71955729 4 12
10.224366 -9.7161369 -0.73919314 3 11
21.008118 -16.377941 -1.0852562 6 13
10.973075 -11.498729 -0.55504161 7 14
12.710412 -10.948127 -0.3903555 4 16
36.296352 -28.500916 -0.80553329 15 17
11.476868 -10.982873 -0.4623068 8 15
3.8815718 -3.3670692 -1.4384543 8 1
4.9308424 -4.718606 -1.3649765 2 2
17.062889 -14.801203 0 16 20
11.780662 -12.431598 -0.19938847 4 18
6.4162006 -5.565733 -1.3214412 2 3
7.3103609 -6.9957037 -1.287936 3 4
16.54751 -15.835261 -0.13311608 5 19
8.7512531 -7.5912743 -1.2478949 2 5
7.8979273 -8.3343239 -1.0718311 3 6
34.361229 -29.806644 1.058473 34 24
12.886646 -13.598693 0.21810734 6 22
11.553522 -10.022102 -1.0695063 3 8
9.2977924 -8.8975906 -1.0505781 4 7
13.493958 -12.913143 0.32601094 8 23
14.18774 -11.140612 -1.1560966 3 9
8.5533419 -9.0259533 -0.72417969 6 10
36.001892 -34.452274 2.0301538 11 26
11.496751 -9.9728565 -0.70894819 4 12
10.161529 -9.7241497 -0.73709965 3 11
20.843945 -16.36725 -1.07972 5 13
11.089604 -11.702356 -0.56299865 15 14
12.279418 -10.65178 -0.37825865 11 16
35.982029 -28.4475 -0.8006466 15 17
11.506614 -11.084672 -0.46498311 7 15
3.8790884 -3.3875229 -1.441689 7 1
4.9095182 -4.7294888 -1.3634075 3 2
16.932365 -14.786665 0 9 20
11.953215 -12.697757 -0.2030205 14 18
6.3947315 -5.5843792 -1.3208262 2 3
7.2728329 -7.0061417 -1.2854105 3 4
12.951643 -12.476713 -0.10452147 1 19
8.7080584 -7.6045566 -1.2453245 2 5
7.8129191 -8.2995701 -1.0640239 3 6
34.229061 -29.891489 1.0574493 22 24
11.342897 -9.9055042 -1.0530437 3 8
9.196455 -8.8592262 -1.0424417 4 7
14.088091 -11.138086 -1.15098 3 9
32.339653 -28.24151 2.5004432 12 27
33.446594 -32.220123 1.8920746 10 26
11.340221 -9.9031677 -0.70131707 3 12
20.604576 -16.290039 -1.0701132 5 13
11.349407 -12.056338 -0.57821488 15 14
12.310295 -10.750311 -0.38030583 6 16
35.841839 -28.540539 -0.79973906 15 17
11.421933 -11.080226 -0.46312132 6 15
3.8614552 -3.3959551 -1.4395324 10 1
4.8901639 -4.743866 -1.3626231 2 2
16.850611 -14.819263 0 9 20
11.889699 -12.71895 -0.20269455 6 18
6.3751993 -5.6066661 -1.3208262 2 3
7.2454848 -7.0287232 -1.2849056 3 4
8.6665287 -7.6217747 -1.2431827 4 5
7.7376647 -8.2773314 -1.0577035 3 6
34.082474 -29.973816 1.0561466 22 24
12.649023 -13.531234 0.21563943 6 22
11.13746 -9.7948341 -1.0371393 3 8
9.0739059 -8.8024445 -1.0320271 4 7
14.033513 -11.174763 -1.1497009 3 9
8.5080681 -9.1014671 -0.72557503 8 10
34.795673 -30.60104 2.698581 13 27
11.266579 -9.9083881 -0.69889748 3 12
11.262018 -10.925096 -0.82230264 12 11
20.422527 -16.262278 -1.0635999 5 13
11.069752 -11.841816 -0.56606984 10 14
12.155582 -10.690222 -0.3766768 5 16
35.778198 -28.684252 -0.80043715 15 17
11.333637 -11.067759 -0.46102679 8 15
3.8444049 -3.403635 -1.4373759 10 1
4.8659878 -4.7518353 -1.3602697 3 2
16.813358 -14.885666 0 6 20
11.961766 -12.881407 -0.20465024 10 18
6.3506546 -5.6225371 -1.3195964 2 3
7.2164593 -7.0471668 -1.2838954 3 4
8.635252 -7.6451998 -1.2423259 4 5
7.6451321 -8.2329025 -1.0487809 3 6
33.818218 -29.94088 1.0510286 11 24
12.457111 -13.414835 0.21312496 9 22
10.952551 -9.6968155 -1.0229089 3 8
8.9676552 -8.7572803 -1.0232396 4 7
13.937204 -11.173796 -1.1448401 3 9
8.4914274 -9.1442623 -0.72673786 6 10
33.269398 -32.488922 1.8945169 10 26
11.203744 -9.9192085 -0.69703621 3 12
11.177146 -10.914938 -0.81874377 8 11
20.228165 -16.217411 -1.0562726 5 13
11.030423 -11.87846 -0.56606984 7 14
11.838622 -10.481297 -0.36792985 6 16
35.665413 -28.79892 -0.80015796 15 17
11.343397 -11.154912 -0.46300495 2 15
3.8267503 -3.4119067 -1.4352193 9 1
4.8521676 -4.7715421 -1.3610542 3 2
14.51909 -12.94513 0 2 20
11.938421 -12.946607 -0.20502278 10 18
6.325089 -5.63941 -1.3183665 2 3
7.1918159 -7.0723143 -1.2838954 3 4
12.719809 -12.508451 -0.10368454 3 19
8.5936699 -7.6620626 -1.2401839 4 5
7.5704494 -8.2097645 -1.0424608 3 6
33.662758 -30.013506 1.0494468 11 24
12.337001 -13.378846 0.21186772 9 22
10.775675 -9.6075249 -1.0095158 3 8
8.857439 -8.7102604 -1.0141269 4 7
13.26274 -13.042361 0.32468456 1 23
13.860847 -11.192286 -1.1417701 3 9
8.5163031 -9.2354946 -0.7316215 6 10
32.021622 -31.48954 1.829711 9 26
11.142209 -9.9343243 -0.69536108 2 12
11.13328 -10.948285 -0.8183251 8 11
20.103022 -16.232683 -1.0526904 5 13
11.083739 -12.019748 -0.57095575 5 14
11.742267 -10.469332 -0.36606878 15 16
35.724045 -29.063213 -0.80385786 15 17
11.407537 -11.300527 -0.46731037 4 15
3.8142195 -3.4259098 -1.4352193 8 1
4.8374324 -4.7920542 -1.3618386 3 2
12.558076 -11.279592 0 1 20
11.834176 -12.92832 -0.20404492 8 18
6.2955551 -5.6546311 -1.3165219 3 3
7.1517515 -7.0846639 -1.28137 2 4
11.852632 -11.741447 -0.096965969 4 19
8.556653 -7.6855364 -1.2388988 4 5
7.4892144 -8.1816397 -1.0353969 3 6
12.268977 -13.403321 0.21154177 6 22
10.597897 -9.5189686 -0.99612242 3 8
8.7603121 -8.6781349 -1.0066414 4 7
13.785671 -11.215302 -1.138956 3 9
7.819119 -8.5420456 -0.67441267 3 10
31.888956 -31.589819 1.8287342 9 26
11.093833 -9.9644165 -0.69461662 2 12
11.129969 -11.025563 -0.82104653 6 11
14.320253 -11.650208 -0.7521078 2 13
11.691916 -10.501611 -0.36569658 12 16
35.593433 -29.153645 -0.80308998 15 17
3.8028374 -3.4385393 -1.4352193 8 1
4.8159599 -4.8025298 -1.3602697 2 2
11.955379 -13.148008 -0.20688535 6 18
6.270906 -5.670176 -1.3152921 2 3
7.1197896 -7.0999346 -1.2798548 3 4
8.5222702 -7.7058673 -1.2376136 4 5
7.4057751 -8.1445503 -1.0275897 3 6
12.240606 -13.461689 0.21182117 9 22
8.6467962 -8.6226835 -0.99687761 4 7
13.055255 -13.018847 0.32182238 4 23
13.677376 -11.202779 -1.1330719 3 9
33.58675 -33.493088 1.9324563 10 26
11.04591 -9.987751 -0.69368601 2 12
11.048089 -11.01728 -0.81769705 14 11
13.780649 -11.287367 -0.72572947 2 13
11.365311 -12.499076 -0.58994114 18 14
11.719316 -10.596647 -0.36765069 12 16
35.685818 -29.438042 -0.80748796 16 17
11.54195 -11.590397 -0.4760375 15 15
3.7879639 -3.4491992 -1.4341409 6 1
4.7963996 -4.8165321 -1.3594851 2 2
16.615711 -15.129738 0 3 20
11.904051 -13.183721 -0.20679221 4 18
6.2452312 -5.6867085 -1.3140622 2 3
7.0921636 -7.1219325 -1.2793498 2 4
11.713166 -11.762332 -0.096477769 6 19
8.4776773 -7.7195024 -1.2350433 4 5
7.337265 -8.1260109 -1.0220131 3 6
12.193543 -13.504333 0.21182117 9 22
10.285027 -9.3652172 -0.97268426 3 8
8.5491304 -8.5850143 -0.9890666 4 7
13.111326 -13.166361 0.32433555 4 23
13.419559 -11.070099 -1.114908 3 9
7.8116412 -8.6513824 -0.67883128 11 10
10.981437 -9.9993467 -0.69182479 2 12
11.057483 -11.103896 -0.82125586 14 11
20.243351 -20.328321 2.3419952 4 28
13.349619 -11.012403 -0.70505023 4 13
11.308218 -12.523836 -0.58924311 15 14
11.685212 -10.640182 -0.36774373 11 16
15.280532 -12.699664 -0.34681424 2 17
11.516256 -11.649686 -0.47673568 12 15
3.769619 -3.4578526 -1.4319844 9 1
4.7704411 -4.8257122 -1.3571318 2 2
16.551302 -15.182426 0 9 20
12.760641 -14.236958 -0.22257753 4 18
6.2185197 -5.7042165 -1.3128324 2 3
7.0604324 -7.1422353 -1.2783395 3 4
11.630608 -11.765362 -0.096152306 4 19
8.4405336 -7.7424583 -1.2337581 4 5
7.248951 -8.0876036 -1.013834 2 6
35.854893 -32.889511 1.1321706 12 24
12.539063 -13.989745 0.21871267 10 22
10.13007 -9.2922621 -0.96124423 3 8
8.4447346 -8.5425768 -0.98060471 4 7
13.226056 -13.379295 0.32838446 4 23
13.038128 -10.835999 -1.0865108 2 9
7.7638879 -8.6621151 -0.67743593 11 10
13.068188 -13.219598 0.75731832 5 26
10.921156 -10.01792 -0.69033575 2 12
10.960545 -11.087535 -0.81706899 17 11
20.398531 -20.634872 2.3686826 4 28
13.020236 -10.82113 -0.68974423 4 13
11.310266 -12.618784 -0.59175587 13 14
11.652029 -10.688347 -0.36792985 11 16
11.508378 -11.71919 -0.47801566 12 15
3.7581317 -3.4703338 -1.4319844 8 1
4.7571607 -4.8443027 -1.3579162 3 2
14.672986 -13.549328 0 2 20
11.843637 -13.302353 -0.20735098 4 18
6.1908593 -5.716763 -1.3109877 2 3
7.0311494 -7.1599469 -1.2773293 2 4
12.028733 -12.249078 -0.099778943 3 19
8.4031248 -7.7596135 -1.2320446 4 5
7.1770692 -8.0610294 -1.0075138 7 6
35.680992 -32.948544 1.1301234 12 24
12.500584 -14.040212 0.21885239 10 22
9.98487 -9.2202282 -0.95036221 4 8
8.3437338 -8.4965754 -0.97214282 4 7
13.10876 -13.348888 0.32656944 4 23
12.717404 -10.640945 -1.0627186 2 9
7.7377758 -8.6907949 -0.67766845 7 10
13.029881 -13.268564 0.757644 8 26
10.873198 -10.040528 -0.68940514 2 12
11.01048 -11.212172 -0.82355869 8 11
20.16798 -20.53742 2.3498061 4 28
12.870868 -10.769352 -0.68371958 2 13
11.382663 -12.784603 -0.59775859 10 14
11.12801 -11.331854 2.895731 2 30
11.695846 -10.800177 -0.37044224 12 16
11.523228 -11.816541 -0.48034292 9 15
3.7403533 -3.4781849 -1.4298278 8 1
4.7347445 -4.8552628 -1.3563473 3 2
13.843499 -12.873182 0 2 20
12.435601 -14.065783 -0.21857299 4 18
6.170866 -5.7383385 -1.3109877 3 3
7.0005722 -7.1787648 -1.2763193 3 4
12.293089 -12.605998 -0.10233619 5 19
8.3643379 -7.7780657 -1.2303311 4 5
7.1066794 -8.0382929 -1.0015653 4 6
9.1187344 -10.314108 0.16027445 4 22
9.8474293 -9.1572037 -0.94031727 4 8
8.247221 -8.4571457 -0.96433181 4 7
12.88617 -13.214175 0.32217142 4 23
12.408507 -10.456339 -1.0399497 2 9
7.6306887 -8.6309948 -0.67092437 17 10
31.807245 -29.577816 2.5295129 12 27
12.963952 -13.293937 0.75650418 8 26
10.820527 -10.062096 -0.68828839 2 12
10.996373 -11.276276 -0.82544273 12 11
19.483816 -19.979757 2.2782054 4 28
12.854591 -10.832242 -0.6848594 2 13
11.226758 -12.698471 -0.59189546 13 14
11.74007 -10.917186 -0.37304774 12 16
13.505374 -11.461497 -0.30918685 7 17
11.479129 -11.853821 -0.48022655 10 15
3.725378 -3.4885869 -1.4287494 8 1
4.7177677 -4.8717608 -1.3563473 2 2
6.1507978 -5.7598433 -1.3109877 3 3
6.975471 -7.2031579 -1.2763193 3 4
12.079271 -12.473552 -0.10091808 3 19
8.3226223 -7.793623 -1.228189 4 5
7.0286546 -8.0061846 -0.99450165 3 6
8.6947756 -9.904026 0.15342948 6 22
9.7105513 -9.0933332 -0.93027234 4 8
8.1566353 -8.4228764 -0.95717174 4 7
12.801016 -13.218855 0.32119408 3 23
12.128451 -10.292955 -1.0194832 4 9
7.5768037 -8.6305685 -0.66883135 14 10
12.898005 -13.319011 0.75536442 7 26
11.015301 -11.374852 -0.82983899 25 11
19.153254 -19.778437 2.2476122 4 28
11.190276 -12.746595 -0.59231424 7 14
11.59681 -10.859698 -0.36969784 10 16
13.453124 -11.498177 -0.3089076 7 17
11.476484 -11.934165 -0.48185563 4 15
3.7047708 -3.4936411 -1.4255145 7 1
4.6980152 -4.8853712 -1.3555628 2 2
13.572864 -12.799365 0 6 20
12.2346 -14.03467 -0.21675698 6 18
6.1191525 -5.7704306 -1.3085279 2 3
6.9447851 -7.2217422 -1.2753091 3 4
17.17672 -14.680676 0.131326 11 21
12.185378 -12.671329 -0.10217345 3 19
8.2837934 -7.8117118 -1.2264755 4 5
6.9666433 -7.991642 -0.98966855 2 6
9.1463823 -10.492085 0.16204388 6 22
9.5771456 -9.0313568 -0.92050648 4 8
8.0636272 -8.3852034 -0.94968623 4 7
11.870932 -10.145901 -1.0008076 4 9
7.3629518 -8.4462595 -0.65255243 9 10
31.486679 -29.692297 2.520443 25 27
12.801573 -13.312098 0.75243348 3 26
11.386647 -10.737739 -0.72904968 18 12
11.008755 -11.447783 -0.83235109 19 11
19.125553 -19.888277 2.2524943 4 28
12.45053 -10.641275 -0.66727376 6 13
11.080045 -12.710246 -0.58882433 7 14
11.500645 -10.84524 -0.36783677 11 16
12.539929 -10.793658 -0.28880242 4 17
11.387812 -11.924994 -0.47987744 7 15
3.6925528 -3.5065522 -1.4255145 5 1
4.6755152 -4.8960676 -1.3539939 2 2
13.180037 -12.516135 0 2 20
16.682796 -19.272736 -0.29675451 3 18
6.1018395 -5.7944784 -1.3091431 2 3
6.9113126 -7.2373309 -1.2737938 3 4
17.070801 -14.693576 0.13090755 3 21
12.265383 -12.843962 -0.10321959 5 19
8.2449398 -7.829627 -1.224762 4 5
6.8969998 -7.967732 -0.98372012 3 6
9.0442591 -10.448345 0.16087978 6 22
9.455863 -8.9795542 -0.91185659 4 8
7.9792399 -8.3556347 -0.9431771 4 7
34.561069 -29.748205 1.3271102 10 25
12.691847 -13.290544 0.32077524 3 23
11.647866 -10.025821 -0.98494619 4 9
7.2994485 -8.4326601 -0.64952922 16 10
32.929108 -31.270409 2.644628 13 27
12.865435 -13.47232 0.7589466 3 26
11.351994 -10.780172 -0.72923577 24 12
11.032178 -11.552585 -0.83716601 13 11
18.813713 -19.701189 2.2238538 4 28
12.20127 -10.50216 -0.6558758 12 13
8.1550484 -9.4210873 -0.43512693 4 14
19.1436 -20.046637 5.0538969 10 30
11.506214 -10.926625 -0.36923257 8 16
12.46289 -10.80331 -0.2878949 6 17
3.6747222 -3.5140955 -1.423358 6 1
4.6556973 -4.9095116 -1.3532094 3 2
16.555456 -19.261087 -0.29568353 7 18
6.064436 -5.7993517 -1.3054535 2 3
6.880547 -7.2556534 -1.2727838 3 4
17.2068 -14.915514 0.13234891 7 21
12.096619 -12.756089 -0.10217345 4 19
8.2089357 -7.8501124 -1.2234768 2 5
6.8276076 -7.9434328 -0.97777164 5 6
8.8956242 -10.349422 0.15887751 16 22
9.3321772 -8.9242563 -0.90292776 4 8
7.8732128 -8.3024359 -0.93406421 4 7
34.475143 -29.884377 1.3278083 10 25
12.727937 -13.421825 0.32286951 4 23
11.43182 -9.9095392 -0.96959639 4 9
7.184072 -8.3581533 -0.64185488 14 10
32.793777 -31.360321 2.642535 13 27
31.367916 -33.077999 1.8572291 9 26
11.282528 -10.789354 -0.72718841 13 12
10.986287 -11.585227 -0.83674735 18 11
19.877806 -20.961483 2.358268 4 28
12.037698 -10.434737 -0.64903694 16 13
8.1038723 -9.4282751 -0.43414974 2 14
11.015196 -11.61571 2.9186902 2 30
11.525805 -11.021997 -0.37109363 10 16
12.388948 -10.815187 -0.28705716 6 17
11.389257 -12.094441 -0.48348469 10 15
3.6596591 -3.5242295 -1.4222796 7 1
4.6385317 -4.925734 -1.3532094 3 2
16.449175 -19.273125 -0.29498509 3 18
6.0356145 -5.8122602 -1.3036088 2 3
6.8442965 -7.2680721 -1.2707634 3 4
12.764993 -13.555358 -0.10821784 5 19
8.1786184 -7.8759604 -1.2230483 4 5
13.480537 -12.981676 0.43548599 2 24
8.5868063 -10.060966 0.15398826 14 22
9.2118692 -8.8709745 -0.89427799 4 8
7.8004537 -8.2834311 -0.92885685 4 7
12.582303 -13.361356 0.32035637 4 23
11.21673 -9.7918749 -0.95424658 4 9
7.1211534 -8.3436937 -0.63883162 14 10
34.72633 -33.441242 2.8076499 14 27
11.296604 -10.878562 -0.73053867 10 12
10.975906 -11.655497 -0.83905017 22 11
18.558193 -19.707253 2.2098594 4 28
11.904854 -10.392586 -0.64382643 11 13
9.1063766 -10.669736 -0.48984933 9 14
10.979978 -11.659821 2.920125 2 30
11.516066 -11.089902 -0.37202415 11 16
12.212951 -10.736897 -0.28384593 6 17
11.336046 -12.122441 -0.4830192 13 15
3.6445694 -3.5343015 -1.4212013 7 1
4.6186304 -4.9390306 -1.352425 3 2
13.062605 -12.667392 0 4 20
6.0152884 -5.8332934 -1.3036088 2 3
6.8215942 -7.294817 -1.2712686 3 4
16.753777 -14.728919 0.12965217 11 21
12.173923 -13.018444 -0.10359156 5 19
8.1339464 -7.8878508 -1.2204781 4 5
6.6844401 -7.8876014 -0.96513128 9 6
13.409302 -13.003598 0.43464851 2 24
9.1035032 -8.8280735 -0.88674432 3 8
7.7088618 -8.2436352 -0.92137134 3 7
34.418823 -30.25897 1.3337429 10 25
12.407197 -13.2679 0.31707534 3 23
11.032581 -9.6991863 -0.94145507 4 9
7.0119505 -8.2740622 -0.63162237 12 10
33.442642 -32.430824 2.7129993 13 27
30.958786 -33.106438 1.8466452 9 26
11.324534 -10.981906 -0.73481953 13 12
10.902412 -11.658726 -0.83653802 24 11
18.701683 -19.999043 2.235245 4 28
11.778454 -10.354913 -0.63894153 18 13
10.76969 -12.708173 -0.58170485 13 14
18.282188 -19.550446 4.8802681 9 30
11.457188 -11.110547 -0.37137279 5 16
12.241276 -10.837787 -0.28538176 6 17
11.301825 -12.170729 -0.48336834 13 15
3.6239429 -3.5389283 -1.4179665 6 1
4.5986929 -4.9522486 -1.3516405 3 2
14.027395 -16.669876 -0.25363591 2 18
5.9892344 -5.848732 -1.3023789 2 3
6.7879896 -7.3098621 -1.2697533 3 4
16.837029 -14.906627 0.13069832 11 21
12.112077 -13.043275 -0.10345207 5 19
8.0921364 -7.9023013 -1.2183361 2 5
6.6132731 -7.8590813 -0.9588111 6 6
8.9898434 -8.7789488 -0.87865257 3 8
7.6366339 -8.2237511 -0.91616398 3 7
33.684326 -29.822344 1.3093069 10 25
12.524096 -13.48697 0.32126391 3 23
10.852209 -9.6079798 -0.92891943 4 9
6.8930387 -8.1915493 -0.62348294 13 10
31.735058 -30.99058 2.5832331 13 27
34.454674 -37.103607 2.0628824 12 26
11.29185 -11.026953 -0.73519176 15 12
10.853496 -11.687931 -0.83590996 24 11
18.41202 -19.827568 2.2088828 4 28
11.742237 -10.395964 -0.63894153 20 13
10.673786 -12.684514 -0.57891285 7 14
11.489862 -11.22032 -0.3736991 8 16
11.8153 -10.534448 -0.27630651 6 17
11.29993 -12.254194 -0.48511374 9 15
3.6115677 -3.5515561 -1.4179665 7 1
4.5787196 -4.9653869 -1.3508561 3 2
5.9659648 -5.8668308 -1.301764 2 3
6.7624321 -7.3335109 -1.2697533 3 4
16.755039 -14.938687 0.13046585 11 21
12.050204 -13.067829 -0.10331259 3 19
8.0531607 -7.9193454 -1.2166226 2 5
6.5500498 -7.8393297 -0.95360619 3 6
13.355262 -13.133344 0.43585819 2 24
8.6066418 -10.300732 0.15626991 6 22
8.8766365 -8.7291384 -0.87056077 3 8
7.5511265 -8.1888094 -0.90932941 3 7
12.517609 -13.574705 0.32231104 3 23
10.66963 -9.5129747 -0.91612786 3 9
6.8413601 -8.1879797 -0.62138993 16 10
31.529881 -31.005964 2.5753262 25 27
19.304228 -20.934444 1.1601577 4 26
11.258987 -11.071902 -0.73556399 13 12
8.5217505 -9.2414007 -0.65880507 6 11
18.188648 -19.724657 2.1903319 4 28
11.696929 -10.428908 -0.63845307 18 13
9.0454102 -10.825864 -0.49264133 3 14
19.391045 -21.028593 5.2153292 10 30
11.339427 -11.151006 -0.37007004 2 16
11.275987 -12.314205 -0.48592827 3 15
3.5991485 -3.5641413 -1.4179665 6 1
4.5560613 -4.9755535 -1.349287 3 2
13.594318 -13.462092 0 6 20
9.1554585 -11.035639 -0.16693315 4 18
5.9342155 -5.8764958 -1.2993045 2 3
6.7287531 -7.3482924 -1.2682381 3 4
16.676003 -14.973032 0.13025662 3 21
12.004515 -13.109812 -0.10331259 5 19
8.0226421 -7.9446101 -1.2161943 2 5
6.4895868 -7.822299 -0.94877309 4 6
8.7695599 -8.6842623 -0.8630271 3 8
7.4605713 -8.1474915 -0.90184391 3 7
34.653427 -31.114582 1.3553863 11 25
12.597091 -13.756948 0.32559207 3 23
10.472996 -9.4034815 -0.90205723 5 9
6.7999878 -8.1964445 -0.6202271 13 10
31.446995 -31.141125 2.5774193 12 27
19.309307 -21.087183 1.1648797 4 26
11.217432 -11.108326 -0.73537791 15 12
8.5110207 -9.2946596 -0.66047984 5 11
18.02545 -19.685116 2.1789408 4 28
11.6664 -10.475015 -0.63877869 20 13
17.967499 -19.621828 4.8508515 9 30
11.685825 -10.558952 -0.2749103 18 17
11.377172 -12.503347 -0.49197912 3 15
3.5824769 -3.5699933 -1.4158099 6 1
4.5377679 -4.9869413 -1.3485026 3 2
13.109955 -13.064272 0 4 20
8.553401 -10.376104 -0.1565493 4 18
5.9157243 -5.8951106 -1.2993045 2 3
6.6949525 -7.3576555 -1.2662178 3 4
16.557657 -14.96099 0.12969868 7 21
11.912121 -13.091249 -0.10287088 5 19
7.9948263 -7.9669676 -1.2157657 2 5
6.4269814 -7.7965512 -0.94319648 4 6
13.194218 -13.148241 0.43343881 6 24
8.6772251 -8.6469889 -0.85660952 3 8
7.3920088 -8.1237106 -0.89663655 3 7
10.333816 -9.3373175 -0.89259148 5 9
6.6903839 -8.1160841 -0.61255276 12 10
32.70282 -35.939926 1.9796767 10 26
11.137194 -11.098385 -0.73239988 9 12
8.487155 -9.327261 -0.66089851 9 11
18.355257 -20.172161 2.2264576 4 28
11.624539 -10.503576 -0.63829023 20 13
17.696545 -19.448246 4.7941709 9 30
11.622129 -11.581631 -0.38179466 11 16
11.6696 -10.61852 -0.27539897 20 17
11.312013 -12.519252 -0.49104822 3 15
3.5699933 -3.5824764 -1.4158099 6 1
4.5150733 -4.9969301 -1.3469337 3 2
12.993685 -13.03912 0 6 20
13.563564 -16.571438 -0.24930544 2 18
5.8895307 -5.9101243 -1.2980746 2 3
6.6665678 -7.378036 -1.2657127 3 4
16.531954 -15.042922 0.12990791 3 21
11.785901 -13.043715 -0.10217345 3 19
7.9473171 -7.9751067 -1.212767 2 5
6.359365 -7.7696261 -0.93724805 3 6
13.128482 -13.174389 0.43278745 6 24
8.5681238 -8.5980835 -0.84879673 3 8
7.3154955 -8.0962191 -0.89077836 3 7
34.730206 -31.602058 1.3665569 11 25
12.5592 -13.899541 0.32698828 9 23
10.209631 -9.2900505 -0.88466078 5 9
6.6569548 -8.1332092 -0.61208767 13 10
32.585201 -36.062756 1.9801651 10 26
11.041977 -11.080587 -0.72867739 6 12
7.9778552 -8.8292665 -0.62363529 4 11
17.923899 -19.836771 2.1825209 4 28
11.632143 -10.584436 -0.64073265 18 13
6.8793902 -8.404973 -0.37928775 3 14
10.552856 -11.679077 2.8699017 2 30
11.573162 -11.61363 -0.38151553 12 16
11.688489 -10.710526 -0.27672535 14 17
11.294944 -12.588423 -0.49221182 3 15
3.5493379 -3.5867026 -1.4125749 6 1
4.4976029 -5.012661 -1.3469337 3 2
13.026869 -13.164006 0 4 20
5.8633041 -5.9250288 -1.2968448 2 3
6.6301727 -7.3894491 -1.2636924 3 4
11.831121 -13.186002 -0.10296387 5 19
7.9082408 -7.9914927 -1.2110535 2 5
6.2970414 -7.7485075 -0.93204319 4 6
12.590171 -12.722711 0.41650328 5 24
13.440052 -16.537981 0.24809477 4 22
8.4678898 -8.5570326 -0.84182113 3 8
7.2445893 -8.0742273 -0.885571 3 7
34.831928 -31.917583 1.374935 11 25
12.523958 -13.958181 0.32733732 3 23
10.059418 -9.2177582 -0.87442756 3 9
6.5580072 -8.0696259 -0.6055761 13 10
31.10206 -31.429478 2.5750937 12 27
30.895018 -34.433064 1.8847473 10 26
11.011662 -11.127584 -0.72923577 9 12
8.0403547 -8.9611235 -0.63096237 8 11
19.151169 -21.34433 2.3410187 9 28
11.630486 -10.657377 -0.64268661 15 13
6.7869806 -8.3513775 -0.37579778 10 14
11.543802 -11.665327 -0.3818877 15 16
11.756842 -10.848902 -0.27923849 12 17
11.511595 -12.92033 -0.50361532 4 15
3.5340962 -3.5963223 -1.4114966 6 1
4.477469 -5.0254006 -1.3461492 3 2
12.616366 -12.838507 0 6 20
8.4317169 -10.449541 -0.15631647 9 18
5.8425865 -5.9454589 -1.2968448 2 3
6.6043391 -7.4125471 -1.2636924 3 4
16.473568 -15.201371 0.13027987 7 21
11.763737 -13.203327 -0.10277788 3 19
7.8691473 -8.0077019 -1.20934 2 5
6.237443 -7.7301478 -0.92721009 4 6
12.646586 -12.86926 0.41985315 5 24
9.9789133 -12.367002 0.18500011 2 22
8.3680487 -8.5153875 -0.83484548 3 8
7.1686244 -8.045887 -0.8797127 6 7
35.069973 -32.361641 1.3887821 11 25
17.599316 -19.753038 0.46179068 6 23
9.9098349 -9.1445332 -0.86419439 3 9
6.5147538 -8.073823 -0.60418075 13 10
31.031347 -31.577726 2.5783496 12 27
11.039967 -11.234351 -0.73370278 12 12
8.0329428 -9.015976 -0.63284647 7 11
17.814152 -19.994164 2.186101 8 28
11.593214 -10.69791 -0.64268661 13 13
6.770339 -8.3905725 -0.37649575 13 14
10.416093 -11.690765 2.8548348 5 30
11.542253 -11.745481 -0.38319045 15 16
11.707184 -10.878986 -0.27895927 4 17
3.5188317 -3.6058803 -1.4104184 7 1
4.4573011 -5.0380616 -1.3453647 3 2
8.5102262 -10.622499 -0.15845843 8 18
5.8107553 -5.9545016 -1.2943851 2 3
6.5731659 -7.4296112 -1.2626822 3 4
12.417293 -14.035193 -0.10891528 5 19
7.8328147 -8.0265827 -1.2080548 2 5
6.173069 -7.7052493 -0.92163342 2 6
12.919982 -13.239595 0.43046117 4 24
8.2686033 -8.4731512 -0.82786983 3 8
7.0850201 -8.0081568 -0.87287813 5 7
36.301182 -33.733139 1.4421924 12 25
16.093918 -18.190861 0.42395386 2 23
9.7755098 -9.0839634 -0.85524029 3 9
6.4291062 -8.0248356 -0.59883195 12 10
30.640642 -34.632938 1.8839332 10 26
11.017429 -11.289978 -0.73481953 9 12
8.070241 -9.1217461 -0.63828939 11 11
20.036528 -20.532188 3.5225117 9 29
17.646507 -19.945744 2.1740589 4 28
11.508959 -10.694784 -0.64008135 18 13
6.7660036 -8.4453526 -0.37789175 6 14
17.467607 -19.743534 4.8063679 9 30
11.501184 -11.7857 -0.38319045 17 16
11.824897 -11.069413 -0.282729 6 17
12.065244 -13.738415 -0.5321241 3 15
3.5002313 -3.61322 -1.4082618 7 1
4.4362168 -5.0514178 -1.3445803 3 2
12.490777 -12.893984 0 8 20
9.8876724 -12.434961 -0.18495354 3 18
5.7888913 -5.975759 -1.2943851 3 3
6.5275612 -7.4327831 -1.2591467 3 4
12.378962 -14.095638 -0.10903151 5 19
7.7950416 -8.0466681 -1.2067697 2 5
6.1175208 -7.6935329 -0.91754395 2 6
12.918668 -13.335687 0.43204305 2 24
8.1924305 -10.302986 0.15324323 6 22
8.1680822 -8.4317503 -0.82089418 3 8
7.0240512 -7.9981251 -0.8689726 3 7
9.6372375 -9.0215225 -0.84603041 3 9
6.3598862 -7.9983368 -0.59511101 20 10
30.856344 -35.135406 1.9051009 10 26
11.017676 -11.373331 -0.73761141 18 12
8.0051212 -9.1152468 -0.63577729 7 11
19.317495 -19.941072 3.4089296 8 29
19.530544 -22.238981 2.4161994 5 28
11.460929 -10.728699 -0.63959289 18 13
7.8745065 -9.9031582 -0.44182765 3 14
10.401095 -10.736847 4.0054836 1 31
17.254904 -19.64776 4.7676244 9 30
11.491298 -11.862242 -0.38430709 12 16
11.795884 -11.111992 -0.28286859 6 17
12.048314 -13.806376 -0.53328764 1 15
3.4888632 -3.6241984 -1.4082618 7 1
4.417747 -5.0623741 -1.3437958 3 2
11.923128 -12.385633 0 3 20
5.7563848 -5.9796786 -1.2913105 3 3
6.5015702 -7.450264 -1.2586417 3 4
13.800609 -13.000488 0.11019389 5 21
16.387424 -18.778639 -0.14485615 3 19
7.7586918 -8.0596561 -1.2050561 2 5
6.0661621 -7.6783371 -0.91345435 2 6
8.0917397 -8.4056234 -0.81587172 3 8
6.9595704 -7.9750948 -0.8640908 6 7
17.502794 -20.056761 0.46465287 6 23
9.5129633 -8.9614286 -0.83758801 3 9
6.3099718 -7.9869432 -0.59278548 15 10
30.956558 -32.157383 2.5995121 13 27
10.995749 -11.42228 -0.73854202 18 12
7.4774256 -8.5685139 -0.59600192 5 11
19.254757 -20.001659 3.4089296 8 29
19.683395 -22.55555 2.4438634 5 28
11.41844 -10.756431 -0.63910437 20 13
6.7752724 -8.5759048 -0.38166091 5 14
10.340519 -10.741634 3.995131 1 31
11.478937 -11.924212 -0.38514459 20 16
12.093603 -11.47239 -0.29096651 6 17
16.315142 -18.828074 -0.72505248 6 15
3.4682059 -3.6280024 -1.4050269 6 1
4.3974805 -5.0748005 -1.3430114 2 2
12.374583 -12.944738 0 6 20
8.0696096 -10.287856 -0.1522188 8 18
5.7354765 -5.9997368 -1.2913105 2 3
6.4781222 -7.4759121 -1.2591467 3 4
13.55201 -12.855882 0.10856655 5 21
7.7277622 -8.0838165 -1.2046276 2 5
6.0073681 -7.6587267 -0.90862125 3 6
12.622694 -13.204281 0.42506412 6 24
7.9906602 -8.3588276 -0.80861706 3 8
6.8820839 -7.9420943 -0.85790706 4 7
9.394743 -8.9121628 -0.82991314 4 9
6.2771254 -8.0026379 -0.59232038 19 10
30.819284 -32.239273 2.597419 13 27
10.988943 -11.495255 -0.74077553 15 12
7.3088274 -8.4345665 -0.5849067 10 11
18.766472 -21.656971 2.3393915 4 28
11.430117 -10.842984 -0.64187247 15 13
10.30296 -10.777666 3.995131 1 31
11.4179 -11.943975 -0.38449317 16 16
11.595584 -11.084853 -0.28000641 4 17
3.4462965 -3.6329086 -1.4017919 5 1
4.3702903 -5.082726 -1.3406579 3 2
12.266976 -12.931216 0 8 20
8.0005713 -10.280888 -0.15166004 5 18
5.704236 -6.013113 -1.2894659 2 3
6.4467821 -7.4977231 -1.2586417 3 4
17.175104 -19.974953 -0.15310907 7 19
7.6829801 -8.0990028 -1.2024858 2 5
5.9436731 -7.6377344 -0.9034164 2 6
12.404016 -13.075678 0.41938794 11 24
7.9538989 -10.220913 0.15077531 5 22
7.9063272 -8.334444 -0.80331558 3 8
6.8125496 -7.9231167 -0.8530252 6 7
8.6672211 -10.080132 0.2320472 6 23
9.2710037 -8.8626595 -0.82198232 4 9
6.2586126 -8.0424376 -0.59348315 12 10
33.050522 -34.84016 2.7967198 14 27
31.674921 -36.838501 1.9793509 10 26
10.97772 -11.572149 -0.74300897 19 12
7.2112794 -8.3868465 -0.57967311 13 11
19.036577 -20.067381 3.3962553 8 29
18.579208 -21.60795 2.3263731 4 28
11.486622 -10.980691 -0.64740866 33 13
6.5747404 -8.4486675 -0.37384343 7 14
11.413238 -12.031249 -0.38588899 12 16
11.652935 -11.209953 -0.28224033 4 17
9.1474209 -10.70647 -0.40982744 9 15
3.432224 -3.6409147 -1.4007136 6 1
4.3568492 -5.099412 -1.3414423 3 2
12.198852 -12.940583 0 4 20
7.889945 -10.204716 -0.15016998 7 18
5.6798949 -6.0252514 -1.288236 3 3
6.415463 -7.5088878 -1.2571265 2 4
13.10448 -12.606318 0.10568384 12 21
17.166832 -20.092674 -0.15359727 7 19
7.6574984 -8.1230993 -1.2024858 2 5
5.8879805 -7.6154103 -0.89858329 3 6
12.318988 -13.068023 0.41789904 5 24
7.9364285 -10.264837 0.15105471 7 22
7.8171515 -8.2924604 -0.79689795 3 8
6.7410107 -7.8899202 -0.84716696 10 7
8.6251192 -10.095148 0.23176797 5 23
9.159688 -8.8114872 -0.81456333 4 9
6.2626262 -8.0999699 -0.59627384 20 10
32.908031 -34.908951 2.7939291 14 27
31.491537 -36.858822 1.9751173 10 26
10.97146 -11.638562 -0.74505639 14 12
7.1433802 -8.3608675 -0.57632357 18 11
18.231546 -21.338854 2.2912238 4 28
11.466471 -11.030578 -0.6482228 18 13
6.4259062 -8.3111544 -0.36686349 9 14
11.389099 -12.081594 -0.38635427 5 16
11.570647 -11.20882 -0.2811932 6 17
9.1513796 -10.787117 -0.41168922 9 15
3.4168618 -3.6500604 -1.3996353 6 1
4.3364854 -5.111598 -1.3406579 3 2
12.774137 -13.645964 0 6 20
5.6588287 -6.0450401 -1.288236 3 3
6.3815126 -7.5221581 -1.2556112 2 4
13.051779 -12.643635 0.1056141 7 21
17.156107 -20.222628 -0.15413196 3 19
7.6127901 -8.1323586 -1.1999154 2 5
5.8395376 -7.6074829 -0.89523739 4 6
12.289696 -13.128459 0.41845739 11 24
7.8421006 -10.216331 0.14993717 7 22
7.7472544 -8.276 -0.79271257 2 8
6.6747422 -7.8678002 -0.84228504 7 7
8.5380831 -10.064198 0.23037177 5 23
9.0457296 -8.7628593 -0.80714422 4 9
6.1856852 -8.0584288 -0.59162271 16 10
32.813267 -35.052753 2.7962544 14 27
14.104159 -16.625168 0.88823295 2 26
10.906193 -11.650534 -0.74338126 21 12
7.0960631 -8.3644285 -0.57485819 12 11
18.884075 -20.172901 3.392843 8 29
14.092269 -16.611151 1.7783021 2 28
11.427898 -11.070535 -0.6482228 16 13
6.282454 -8.184494 -0.36030242 8 14
9.9028683 -11.672928 2.7909794 2 30
11.404247 -12.18258 -0.38830835 5 16
11.496042 -11.222434 -0.28042528 6 17
9.1304913 -10.846648 -0.41262016 4 15
3.3975782 -3.6575096 -1.3974787 6 1
4.3117743 -5.1222105 -1.339089 3 2
12.446685 -13.398918 0 4 20
8.1905308 -10.755503 -0.15738745 9 18
5.6355753 -6.0667248 -1.288236 3 3
6.3449168 -7.5375004 -1.254096 2 4
13.040344 -12.729981 0.10591632 5 21
7.5652676 -8.1440477 -1.197345 2 5
5.7837415 -7.594995 -0.89114779 4 6
12.462368 -13.4158 0.42608768 14 24
7.8512788 -10.310009 0.15086845 13 22
7.6475263 -8.2325993 -0.78573692 3 8
6.6162415 -7.8598228 -0.83870506 5 7
8.5096788 -10.109148 0.23065101 2 23
8.9263239 -8.7138758 -0.79946935 2 9
6.1111498 -8.0249357 -0.58743668 17 10
30.588469 -32.928638 2.6174188 13 27
13.99389 -16.624166 0.88530201 2 26
10.861378 -11.692326 -0.74338126 8 12
6.9995832 -8.315217 -0.5696246 10 11
18.803774 -20.242355 3.3923552 8 29
13.946225 -16.567543 1.7678874 2 28
11.376726 -11.105958 -0.64773428 16 13
6.2291837 -8.1799335 -0.35904601 12 14
10.126626 -10.901363 3.9868486 1 31
13.867052 -16.473488 3.9260256 6 30
11.33561 -12.202841 -0.38756391 13 16
11.640471 -11.435065 -0.2848233 21 17
9.078414 -10.853809 -0.41180563 5 15
3.3860712 -3.668165 -1.3974787 7 1
