# .PCD v0.7 - Point Cloud Data file format
VERSION 0.7
FIELDS x y z intensity ring
SIZE 4 4 4 4 2
TYPE F F F F U
COUNT 1 1 1 1 1
WIDTH 1284
HEIGHT 1
VIEWPOINT 0 0 0 1 0 0 0
POINTS 1284
DATA ascii
-12.01862 -23.456146 0.46004543 3 23
-9.7931776 -24.823305 -1.7102247 8 9
-12.464396 -21.650007 -1.4548711 4 10
-34.369427 -76.013695 4.8583293 60 27
-11.436389 -22.319836 1.0217528 13 26
-12.575179 -27.812096 -1.421805 5 12
-11.943865 -23.310253 -1.3726676 4 11
-16.10166 -35.611492 4.798728 17 29
-12.28832 -31.147877 -1.3641825 10 13
-12.461952 -21.645761 -0.87220824 4 14
-34.440472 -76.170822 22.399237 57 31
-12.503031 -27.652529 -0.70617586 13 16
-1.667163 -3.2273042 -1.6938542 1 0
-12.038009 -23.303249 -0.76333565 3 15
-2.6680431 -5.8490739 -1.7996851 0 1
-3.9172091 -7.5829573 -1.707005 2 2
-12.689375 -27.818552 0 12 20
-12.436085 -21.436117 -0.28851262 3 18
-4.5272593 -9.9249802 -1.6971511 2 3
-6.2975202 -12.190778 -1.7465421 4 4
-12.346845 -30.994747 0.19390871 8 21
-12.072274 -23.369581 -0.15287659 3 19
-6.4847994 -14.216439 -1.6831373 5 5
-9.3612652 -16.136044 -1.7414001 1 6
-12.458163 -21.474176 0.28902483 5 22
-10.205928 -22.374161 -1.7196366 4 8
-9.7397718 -18.854309 -1.7324126 2 7
-11.440717 -28.72006 0.89971203 4 25
-12.109186 -23.441034 0.4605341 3 23
-9.8828287 -24.809237 -1.711504 8 9
-12.463983 -21.484207 -1.446499 4 10
-16.570702 -36.327469 2.3253284 11 27
-11.532354 -22.3244 1.0237068 6 26
-12.068767 -23.362791 -1.3781105 4 11
-16.242731 -35.608471 4.8055525 17 29
-12.308717 -30.899035 -1.3550642 9 13
-12.433364 -21.431429 -0.86522835 4 14
-12.493428 -27.388983 -0.70049971 9 16
-1.6750672 -3.2150347 -1.6904731 1 0
-12.332334 -30.64674 -0.57662749 143 17
-12.169154 -23.356827 -0.76647741 3 15
-2.6900535 -5.843224 -1.8007635 0 1
-3.9436531 -7.5692377 -1.707005 2 2
-12.951997 -28.133799 0 19 20
-12.46237 -21.309717 -0.28739509 3 18
-4.5602212 -9.9055262 -1.6965361 2 3
-6.3455338 -12.179279 -1.7480574 4 4
-12.328032 -30.636047 0.19193265 8 21
-12.194432 -23.405344 -0.15338804 3 19
-6.531055 -14.186491 -1.6822807 5 5
-9.4255724 -16.117022 -1.7428873 1 6
-13.319738 -28.93259 0.74116367 6 24
-12.472466 -21.326981 0.28762791 5 22
-10.295642 -22.363773 -1.7215897 4 8
-9.8202581 -18.848482 -1.7350162 3 7
-11.463276 -28.487068 0.8936612 4 25
-12.216805 -23.448282 0.46151146 3 23
-9.9812851 -24.804213 -1.7135506 8 9
-12.462291 -21.309582 -1.4376618 4 10
-16.366756 -35.551197 2.2792823 10 27
-11.634212 -22.330088 1.0258236 9 26
-12.430006 -26.99995 -1.3845801 5 12
-12.181616 -23.380745 -1.3816694 4 11
-15.86552 -34.462437 4.6583343 16 29
-12.252374 -30.448032 -1.337153 9 13
-12.435441 -21.263672 -0.86020279 4 14
-12.49363 -27.138153 -0.69519567 13 16
-1.6902136 -3.215292 -1.6938542 1 0
-12.382809 -30.449442 -0.57376534 114 17
-12.273284 -23.347458 -0.76764101 3 15
-2.7098284 -5.8298326 -1.7996851 0 1
-3.9677188 -7.5477881 -1.705436 2 2
-12.5509 -27.001577 0 11 20
-12.465214 -21.136423 -0.28567219 3 18
-4.5981627 -9.8923302 -1.6971511 2 3
-6.3938227 -12.162964 -1.7490674 4 4
-12.286542 -30.212721 0.18956138 8 21
-12.313636 -23.424221 -0.15380649 3 19
-6.5863605 -14.169672 -1.6831373 5 5
-9.4967213 -16.102949 -1.7451179 1 6
-13.496488 -29.035885 0.74507183 6 24
-12.475373 -21.15365 0.28590503 5 22
-10.375859 -22.322269 -1.7213107 4 8
-9.8874216 -18.808834 -1.7346908 3 7
-11.469707 -28.204119 0.88609767 4 25
-12.341744 -23.47769 0.46297744 3 23
-10.066115 -24.752672 -1.7125272 8 9
-12.440916 -21.095222 -1.4262666 4 10
-16.374077 -35.226631 2.2623057 10 27
-11.723417 -22.301449 1.026475 22 26
-12.476674 -26.841892 -1.3788103 5 12
-12.265371 -23.332405 -1.3814601 4 11
-16.103848 -34.645271 4.6909952 16 29
-12.267531 -30.165974 -1.3267319 9 13
-12.44222 -21.097433 -0.85531688 4 14
-12.495251 -26.881857 -0.68979865 13 16
-1.7048229 -3.2157781 -1.6972351 1 0
-12.365945 -23.32567 -0.76833916 3 15
-2.7285259 -5.8168502 -1.7986069 0 1
-3.9958794 -7.5373588 -1.7062206 2 2
-12.539757 -26.733076 0 16 20
-12.467383 -20.972448 -0.28404245 3 18
-4.6343436 -9.879797 -1.6977659 2 3
-6.4306655 -12.130054 -1.7475524 7 4
-12.347856 -30.062347 0.18888719 8 21
-6.6442261 -14.164597 -1.6852794 2 5
-9.5610142 -16.083397 -1.7466052 1 6
-12.473516 -20.982763 0.28418213 5 22
-10.467272 -22.314816 -1.723543 4 8
-9.9455471 -18.760115 -1.7333889 2 7
-11.457193 -27.893921 0.87760323 4 25
-10.158525 -24.732155 -1.7135506 8 9
-12.441016 -20.928095 -1.4178945 4 10
-16.396887 -34.955956 2.248585 10 27
-11.79745 -22.253328 1.0261493 6 26
-12.478662 -26.602831 -1.3687596 5 12
-12.363582 -23.321211 -1.3833442 4 11
-16.383171 -34.92672 4.7368178 17 29
-12.301387 -29.949211 -1.3190789 9 13
-12.442248 -20.930168 -0.85029131 4 14
-12.505795 -26.660673 -0.68523908 12 16
-1.7177469 -3.2130046 -1.6989255 1 0
-12.333035 -29.730549 -0.5618279 45 17
-2.7504621 -5.8107719 -1.7996851 0 1
-4.0240149 -7.5268235 -1.707005 2 2
-12.591926 -26.602369 0 16 20
-12.489121 -20.843029 -0.28287834 3 18
-4.6671119 -9.8599873 -1.6971511 2 3
-6.4767098 -12.114532 -1.7485625 4 4
-12.316314 -29.690241 0.18681817 7 21
-12.41652 -23.224804 -0.15306257 7 19
-6.690227 -14.134128 -1.6844225 2 5
-9.6252861 -16.063589 -1.7480922 1 6
-12.627869 -26.678303 0.68682098 10 24
-12.47473 -20.819014 0.28255239 5 22
-10.538273 -22.263714 -1.7224269 4 8
-10.016611 -18.735832 -1.7343653 3 7
-11.456442 -27.617395 0.87015605 4 25
-10.255501 -24.722353 -1.7153413 8 9
-12.464736 -20.802332 -1.4123132 4 10
-13.074614 -27.62212 1.7797519 5 27
-12.357446 -23.114307 1.0678334 10 26
-16.547455 -34.95903 4.7490048 17 29
-12.257309 -29.548 -1.3032845 8 13
-12.445374 -20.77002 -0.84554499 4 14
-12.514952 -26.439751 -0.6806795 12 16
-1.7249526 -3.2009079 -1.6955445 1 0
-2.7663975 -5.7946672 -1.7975285 0 1
-4.0526743 -7.5203443 -1.7085741 1 2
-12.581845 -26.354712 0 10 20
-12.471349 -20.657688 -0.28092265 3 18
-4.7014861 -9.8480234 -1.6977659 2 3
-6.5130835 -12.086002 -1.7475524 4 4
-12.3251 -29.43524 0.18546981 7 21
-12.444133 -23.091953 -0.15245813 3 19
-6.7404881 -14.119043 -1.6852794 5 5
-9.7093773 -16.082726 -1.7536688 1 6
-13.824053 -28.956717 0.74665374 6 24
-12.461012 -20.640566 0.28068981 5 22
-10.625797 -22.257454 -1.7246591 4 8
-10.093818 -18.730591 -1.736969 3 7
-11.453763 -27.354282 0.86305797 4 25
-12.39881 -23.007851 0.4562059 3 23
-10.352844 -24.725029 -1.7178997 8 9
-12.451097 -20.624142 -1.403011 4 10
-13.097325 -27.434467 1.7704496 5 27
-12.36198 -22.939507 1.061646 10 26
-38.871895 -81.423477 11.078412 53 29
-12.307375 -29.392906 -1.2982367 8 13
-12.421208 -20.574635 -0.83926308 4 14
-12.511251 -26.206841 -0.67574775 12 16
-1.7343847 -3.1916821 -1.6938542 2 0
-12.390267 -29.303333 -0.55533558 56 17
-12.443212 -22.898483 -0.75844836 3 15
-2.7899511 -5.7919159 -1.7996851 0 1
-4.0789008 -7.5061517 -1.7085741 2 2
-12.573084 -26.10162 0 5 20
-12.437346 -20.439766 -0.27854785 3 18
-4.7375488 -9.8351126 -1.6983808 2 3
-6.560915 -12.073651 -1.7490674 4 4
-3.5065081 -8.2929907 0.052330475 0 21
-12.415804 -22.848045 -0.15113302 3 19
-6.7880058 -14.091846 -1.6848508 2 5
-9.7633877 -16.045334 -1.753297 1 6
-13.543254 -28.115685 0.72618222 5 24
-12.493483 -20.532022 0.27980509 5 22
-10.713818 -22.241798 -1.7263333 4 8
-10.161042 -18.698746 -1.7372943 3 7
-3.5128686 -8.3080339 0.26251298 0 25
-12.398846 -22.816837 0.45327392 3 23
-3.5149338 -8.3129177 -0.57843202 0 9
-12.462816 -20.481625 -1.3962668 4 10
-13.049174 -27.089979 1.7511474 5 27
-12.359922 -22.745211 1.0546443 10 26
-12.456214 -22.922409 -1.3672246 4 11
-16.293989 -33.826191 4.610074 16 29
-3.5129998 -8.3083439 -0.36750537 1 13
-12.465938 -20.486753 -0.8374483 4 14
-12.503735 -25.957651 -0.67044371 12 16
-1.7437732 -3.1824291 -1.6921636 1 0
-12.409711 -22.648029 -0.75158304 3 15
-2.8067844 -5.7752128 -1.7975285 0 1
-4.1050777 -7.491868 -1.7085741 2 2
-12.487708 -20.362129 -0.27808219 3 18
-4.770124 -9.8149605 -1.6977659 2 3
-6.6011143 -12.047196 -1.7485625 4 4
-12.416677 -22.660744 -0.15017986 3 19
-6.8388934 -14.071641 -1.6852794 5 5
-9.8276663 -16.024734 -1.7547841 1 6
-12.466799 -20.328035 0.27761656 5 22
-10.800112 -22.222206 -1.7277284 4 8
-10.228168 -18.666658 -1.7376198 3 7
-12.409231 -22.647154 0.45076075 3 23
-12.450728 -20.301832 -1.3869646 4 10
-12.930706 -26.606096 1.7227756 5 27
-12.356662 -22.551214 1.0476427 10 26
-12.43634 -22.696629 -1.3563387 4 11
-17.206793 -35.404533 4.8333387 17 29
-12.451689 -20.303398 -0.83172482 4 14
-12.482397 -25.683659 -0.66448838 12 16
-1.7531182 -3.1731493 -1.6904731 1 0
-12.428753 -22.496082 -0.74797583 3 15
-2.8252311 -5.7619219 -1.7964504 0 1
-4.1236162 -7.4637585 -1.705436 2 2
-12.589465 -25.675606 0 10 20
-12.508241 -20.236763 -0.27696466 3 18
-4.809576 -9.808898 -1.6996107 2 3
-6.6469646 -12.031027 -1.7495726 4 4
-12.428002 -22.494722 -0.14936619 3 19
-6.8984766 -14.069109 -1.6878496 5 5
-9.8856373 -15.993719 -1.7551559 1 6
-12.601904 -25.700974 0.66607028 9 24
-12.489314 -20.206141 0.27654558 5 22
-10.889914 -22.209452 -1.7296815 4 8
-10.302904 -18.648289 -1.7392471 3 7
-12.414715 -22.470673 0.44810799 3 23
-12.466933 -20.169931 -1.3809181 4 10
-12.733425 -25.969204 1.6844039 4 27
-12.356062 -22.36451 1.0409666 10 26
-12.558239 -25.611921 -1.3287429 4 12
-12.444018 -22.523712 -1.3485931 4 11
-17.35824 -35.401291 4.8411384 17 29
-3.5630062 -8.2652645 -0.36669123 19 13
-12.455229 -20.150995 -0.82725763 4 14
-12.485708 -25.463999 -0.6599288 12 16
-1.7677118 -3.1733453 -1.6938542 1 0
-12.411858 -22.28141 -0.74227405 3 15
-2.8419094 -5.7451196 -1.7942936 0 1
-4.1515522 -7.4527473 -1.7062206 2 2
-12.544219 -25.35902 0 10 20
-12.483632 -20.040207 -0.27486926 3 18
-4.842031 -9.7885065 -1.6989958 2 3
-6.6947107 -12.018152 -1.7510878 4 4
-12.414956 -22.286972 -0.14827356 3 19
-6.9563584 -14.062767 -1.6899916 5 5
-9.9392958 -15.955736 -1.7547841 1 6
-14.310334 -28.929346 0.75102723 6 24
-12.475173 -20.026628 0.274683 5 22
-10.979753 -22.196341 -1.7316347 4 8
-10.365993 -18.60873 -1.7389216 3 7
-12.415221 -22.287449 0.4453156 3 23
-12.473918 -20.024612 -1.3739415 4 10
-12.574346 -25.419924 1.6516134 4 27
-11.669685 -20.949083 0.97697484 5 26
-12.458412 -22.364983 -1.3416847 4 11
-16.659632 -33.678619 4.6134863 16 29
-12.436714 -19.964888 -0.82139456 4 14
-12.491179 -25.251797 -0.65555531 12 16
-1.7699019 -3.1513512 -1.6854017 1 0
-12.448442 -22.164738 -0.73983049 3 15
-2.8688264 -5.7489514 -1.7986069 0 1
-4.1813831 -7.4450493 -1.7077894 2 2
-12.579082 -25.207705 0 5 20
-12.45356 -19.837296 -0.27268076 3 18
-4.8744054 -9.7680082 -1.6983808 2 3
-6.7366214 -11.99471 -1.7510878 4 4
-12.41237 -22.100512 -0.1473204 3 19
-7.0000772 -14.027724 -1.6887064 5 5
-10.011873 -15.947928 -1.7577584 1 6
-14.430872 -28.918581 0.75205082 6 24
-12.476952 -19.874557 0.27319294 5 22
-11.073201 -22.190014 -1.7341459 4 8
-10.436742 -18.582861 -1.739898 3 7
-12.418522 -22.111465 0.44266284 3 23
-10.814891 -24.613674 -1.7230163 8 9
-12.463061 -19.85243 -1.3651043 4 10
-12.37237 -24.793468 1.6137067 4 27
-11.648798 -20.740953 0.96915901 2 26
-11.878576 -23.803936 -1.2392169 4 12
-12.442514 -22.154182 -1.3316363 4 11
-12.358661 -28.127148 -1.2516676 8 13
-12.448943 -19.829941 -0.8176254 4 14
-12.538181 -25.125744 -0.65341508 8 16
-1.7826777 -3.1483083 -1.6870922 1 0
-12.458717 -28.088228 -0.53634739 13 17
-12.427233 -21.947187 -0.73401237 3 15
-2.8888764 -5.7389021 -1.7986069 0 1
-4.2054138 -7.4269958 -1.707005 2 2
-11.926005 -23.691626 0 4 20
-12.488513 -19.739622 -0.2719357 3 18
-4.9138041 -9.7615252 -1.7002256 2 3
-6.776495 -11.967669 -1.7505827 4 4
-12.479866 -28.13591 0.17889072 21 21
-12.42046 -21.935226 -0.14650674 3 19
-7.0525775 -14.010309 -1.6895632 5 5
-10.071739 -15.919615 -1.7585018 1 6
-11.913789 -23.667355 0.6165663 4 24
-12.488513 -19.739622 0.2719357 4 22
-11.147003 -22.144096 -1.7335879 4 8
-10.509403 -18.560192 -1.7411999 3 7
-11.466436 -25.851128 0.8230294 4 25
-12.418777 -21.932255 0.43994027 2 23
-10.915312 -24.608616 -1.7253188 8 9
-12.45756 -19.690695 -1.3569649 4 10
-12.216451 -24.26861 1.5823117 4 27
-11.626602 -20.533228 0.96134323 2 26
-11.877157 -23.594584 -1.2304691 4 12
-12.45482 -21.995907 -1.3247278 4 11
-12.469732 -28.113062 -1.2529702 8 13
-12.436869 -19.657991 -0.81232071 4 14
-11.858048 -23.556625 -0.61368167 3 16
-1.794356 -3.1458414 -1.6887827 1 0
-12.537102 -28.027044 -0.53592849 13 17
-12.416882 -21.769114 -0.72935784 3 15
-2.9051495 -5.7263632 -1.7975285 0 1
-4.2267828 -7.4103398 -1.7062206 2 2
-11.908082 -23.472115 0 4 20
-12.473103 -19.57885 -0.27025941 3 18
-4.9498124 -9.7566137 -1.7020704 2 3
-6.8101282 -11.939426 -1.7495726 4 4
-12.538799 -28.03084 0.17847227 20 21
-12.425894 -21.784912 -0.14576282 3 19
-7.094759 -13.984535 -1.6891347 5 5
-10.130263 -15.901329 -1.759989 1 6
-11.894004 -23.444365 0.61172754 4 24
-12.470953 -19.575476 0.27021286 4 22
-11.221934 -22.119644 -1.7344249 4 8
-10.561735 -18.516695 -1.7402234 3 7
-11.462699 -25.625187 0.81697857 7 25
-12.418265 -21.77154 0.43749693 2 23
-10.99094 -24.570557 -1.725063 8 9
-12.467867 -19.570631 -1.3513836 4 10
-12.021633 -23.695936 1.5474283 4 27
-11.564322 -20.274416 0.95092213 5 26
-11.884336 -23.42531 -1.2235825 4 12
-12.440739 -21.81094 -1.3159354 4 11
-12.459905 -19.558134 -0.8098079 4 14
-11.877721 -23.41227 -0.61089009 3 16
-1.8053261 -3.1395588 -1.6887827 1 0
-12.521297 -27.731602 -0.53111166 13 17
-12.429016 -21.614723 -0.72563428 3 15
-2.9181015 -5.7024708 -1.7932154 0 1
-4.2584896 -7.4057417 -1.7085741 2 2
-11.920699 -23.29509 0 4 20
-12.448454 -19.390461 -0.26825714 3 18
-4.9856396 -9.742794 -1.7026852 2 3
-6.857697 -11.925901 -1.7510878 4 4
-12.501595 -27.687965 0.17656595 13 21
-12.416123 -21.592302 -0.14476316 3 19
-7.1417193 -13.956144 -1.6887064 2 5
-10.185708 -15.865871 -1.759989 1 6
-11.955729 -23.363543 0.61070395 4 24
-12.457098 -19.403925 0.26844341 4 22
-11.284535 -22.051918 -1.7321928 4 8
-10.626306 -18.479715 -1.7402234 3 7
-11.458292 -25.377306 0.81034589 3 25
-12.426403 -21.61018 0.43512341 2 23
-11.104566 -24.593889 -1.729412 8 9
-12.447656 -19.389217 -1.3418487 4 10
-12.03151 -23.511635 1.5381261 4 27
-11.535407 -20.060692 0.94278073 5 26
-11.956933 -23.365898 -1.2226518 4 12
-12.453078 -21.65657 -1.3092364 4 11
-12.443873 -19.383326 -0.80436361 4 14
-11.941155 -23.335066 -0.60995954 3 16
-1.8180923 -3.1363738 -1.6904731 2 0
-12.622999 -27.698643 -0.53132111 6 17
-12.434209 -21.450136 -0.72156161 3 15
-2.9397559 -5.6956725 -1.7942936 0 1
-4.2902155 -7.40101 -1.7109272 3 2
-12.084499 -23.41329 0 4 20
-12.483476 -19.296516 -0.26755866 3 18
-5.0141797 -9.7147951 -1.7008405 2 3
-6.9012747 -11.905323 -1.7515929 4 4
-12.513572 -27.458527 0.17538032 13 21
-12.435251 -21.451935 -0.14411223 3 19
-7.199513 -13.948801 -1.6908484 5 5
-10.249682 -15.843597 -1.7614762 1 6
-12.075727 -23.396294 0.61265808 4 24
-12.498683 -19.320023 0.26788461 4 22
-11.370594 -22.030123 -1.7335879 4 8
-10.692747 -18.445957 -1.7405488 3 7
-11.458928 -25.144323 0.80417871 7 25
-12.423538 -21.431728 0.43240082 2 23
-11.188692 -24.551344 -1.7291561 8 9
-12.448022 -19.241713 -1.3346394 4 10
-11.90655 -23.06852 1.5118473 4 27
-11.537213 -19.902737 0.93724447 7 26
-12.05675 -23.359526 -1.2245131 4 12
-12.440455 -21.460911 -1.3000253 4 11
-14.899467 -25.70293 2.4253123 5 28
-12.441976 -19.232367 -0.79989648 4 14
-12.062888 -23.371418 -0.61200666 3 16
-12.45252 -21.309944 -0.7183035 3 15
-2.9631755 -5.6922102 -1.7964504 0 1
-4.3180017 -7.3893781 -1.7117119 5 2
-12.17723 -23.392254 0 4 20
-12.465567 -19.122149 -0.26574266 3 18
-5.0498834 -9.7007408 -1.7014555 2 3
-6.9387836 -11.87431 -1.7505827 4 4
-12.50738 -27.19301 0.17396221 12 21
-12.433365 -21.277164 -0.14322881 3 19
-7.2499924 -13.927113 -1.6912767 5 5
-10.29622 -15.794377 -1.759989 1 6
-12.179474 -23.396564 0.61377472 4 24
-12.465567 -19.122149 0.26574266 4 22
-11.467688 -22.029234 -1.7366573 4 8
-10.763102 -18.41885 -1.7415253 3 7
-11.469769 -24.937078 0.79882604 7 25
-12.425629 -21.263926 0.42988768 2 23
-11.285995 -24.537527 -1.730947 8 9
-12.458408 -19.11117 -1.328593 4 10
-11.902179 -22.863884 1.5011497 4 27
-11.542087 -19.751925 0.93203402 7 26
-12.17511 -23.388182 -1.2282356 4 12
-12.479011 -21.355278 -1.2962571 4 11
-14.999149 -25.667982 2.4269397 5 28
-12.443536 -19.088354 -0.79570854 4 14
-12.170241 -23.37883 -0.61330944 3 16
-1.8294461 -3.1045442 -1.6803303 5 0
-13.073561 -28.151705 -0.54179251 14 17
-12.441231 -21.112593 -0.71318352 3 15
-2.9858112 -5.684721 -1.7975285 0 1
-4.3390837 -7.3633633 -1.7093585 3 2
-12.266611 -23.354544 0 4 20
-12.458696 -18.959339 -0.26411292 3 18
-5.0872445 -9.6856642 -1.7020704 2 3
-6.9862905 -11.855636 -1.7515929 4 4
-12.514311 -26.947454 0.1726836 12 21
-12.434103 -21.100496 -0.1423454 3 19
-7.3028417 -13.903966 -1.6917051 5 5
-10.364981 -15.773174 -1.761848 1 6
-12.296762 -23.411951 0.61535662 4 24
-12.467482 -18.972708 0.26429915 4 22
-11.544645 -21.979986 -1.7360991 4 8
-10.846734 -18.406754 -1.7441289 3 7
-11.468474 -24.695423 0.79242617 7 25
-12.43445 -21.101086 0.42751414 2 23
-11.3994 -24.54668 -1.7345285 8 9
-12.4582 -18.958584 -1.3211513 4 10
-11.828073 -22.519606 1.4813824 3 27
-11.551506 -19.602743 0.92698628 5 26
-12.299774 -23.417685 -1.2321442 4 12
-12.461889 -21.147648 -1.286418 4 11
-15.036459 -25.516659 2.4178269 5 28
-12.440973 -18.932369 -0.79110181 4 14
-12.283746 -23.387169 -0.61470526 3 16
-1.8434323 -3.1046948 -1.6837113 9 0
-12.505188 -26.695726 -0.51456678 12 17
-12.443809 -20.957767 -0.70934355 3 15
-2.9938307 -5.6543641 -1.7910588 0 1
-4.3714862 -7.3624244 -1.7124963 2 2
-12.373934 -23.370304 0 4 20
-12.468513 -18.837873 -0.26299536 2 18
-5.1193337 -9.6687422 -1.7020704 2 3
-7.0275903 -11.835814 -1.752098 4 4
-12.522152 -26.731941 0.17156769 12 21
-12.41415 -20.90782 -0.14132251 3 19
-7.3526282 -13.886704 -1.6925619 5 5
-10.421623 -15.74536 -1.7625915 1 6
-12.374328 -23.371046 0.61535662 4 24
-12.466305 -18.834539 0.26294881 4 22
-11.613732 -21.934532 -1.7355411 4 8
-10.915853 -18.384398 -1.7454308 3 7
-11.470584 -24.487083 0.78695714 7 25
-12.422678 -20.922182 0.42472175 2 23
-11.501052 -24.552126 -1.7375985 8 9
-12.457082 -18.820604 -1.3144071 3 10
-11.770014 -22.229696 1.4648709 3 27
-11.542988 -19.440613 0.9211244 5 26
-12.438134 -20.948212 -1.2767881 4 11
-14.931698 -25.147852 2.3875594 4 28
-12.417634 -18.761005 -0.78565747 4 14
-1.8635678 -3.1137943 -1.6921636 28 0
-12.594887 -26.64468 -0.51442713 6 17
-12.447082 -20.797554 -0.70538729 3 15
-3.0135512 -5.6438785 -1.7910588 0 1
-4.3931322 -7.3403878 -1.7109272 4 2
-12.478717 -18.711044 -0.26183125 2 18
-5.1549168 -9.6542978 -1.7026852 1 3
-7.0688648 -11.811211 -1.752098 4 4
-12.540181 -26.52895 0.17054482 6 21
-12.419275 -20.751093 -0.14055534 3 19
-7.4123001 -13.882001 -1.6951323 5 5
-10.472106 -15.702257 -1.761848 1 6
-12.463182 -18.68775 0.26150531 4 22
-11.699631 -21.911455 -1.7369362 4 8
-10.977917 -18.342758 -1.7451054 3 7
-11.473977 -24.273378 0.78137171 7 25
-12.423755 -20.758577 0.42227843 2 23
-11.600338 -24.540697 -1.7396452 8 9
-12.438513 -18.650761 -1.30557 3 10
-11.783596 -22.068707 1.456964 3 27
-11.540998 -19.2836 0.9155882 5 26
-12.396783 -23.217104 -1.2260021 8 12
-12.451695 -20.805264 -1.2707171 4 11
-14.76757 -24.674807 2.347528 4 28
-12.440909 -18.654352 -0.78300512 4 14
-12.4031 -23.228935 -0.61275113 7 16
-1.8663945 -3.0951798 -1.6854017 19 0
-13.414657 -28.137056 -0.54409623 7 17
-12.427195 -20.608932 -0.70038366 3 15
-3.0377257 -5.6440296 -1.7942936 0 1
-4.4194741 -7.3291397 -1.7117119 4 2
-12.422489 -18.493589 -0.25936335 2 18
-5.1925206 -9.6475935 -1.7045299 1 3
-7.1141376 -11.797899 -1.7536131 4 4
-13.418196 -28.14448 0.18121548 7 21
-12.421919 -20.600183 -0.13981141 3 19
-7.4564056 -13.853843 -1.6947038 5 5
-10.53966 -15.690587 -1.7644503 1 6
-12.409108 -18.473669 0.25908396 4 22
-11.774113 -21.876051 -1.7372153 4 8
-11.040737 -18.309669 -1.7454308 3 7
-11.468369 -24.054745 0.77555364 3 25
-12.407845 -20.576845 0.41941625 2 23
-11.671341 -24.480476 -1.7381102 8 9
-12.382277 -18.433727 -1.2932445 3 10
-11.80561 -21.93457 1.450685 3 27
-11.536771 -19.132278 0.91021484 5 26
-12.43772 -23.109018 -1.2224658 4 12
-12.452546 -20.650976 -1.2638087 4 11
-14.81225 -24.564247 2.3416696 4 28
-12.380099 -18.430483 -0.77532727 3 14
-12.449732 -23.131336 -0.61126226 3 16
-1.8753048 -3.0855477 -1.6837113 21 0
-13.502391 -28.068436 -0.54367739 7 17
-12.42015 -20.435593 -0.69596195 3 15
-3.0592463 -5.6367774 -1.795372 0 1
-4.4470682 -7.317019 -1.7124963 4 2
-12.457472 -22.953363 0 4 20
-5.2280517 -9.6328831 -1.7051449 2 3
-7.1532173 -11.769604 -1.7531081 4 4
-13.531963 -28.12991 0.18142471 21 21
-12.44805 -20.481499 -0.13929996 3 19
-7.5028234 -13.824236 -1.6942754 5 5
-10.603296 -15.666894 -1.7659373 1 6
-12.452193 -22.943638 0.60744715 4 24
-11.861825 -21.855862 -1.7388895 4 8
-11.108726 -18.27783 -1.7460817 3 7
-12.441436 -25.862947 0.83524746 4 25
-12.433901 -20.458218 0.41788042 2 23
-11.760186 -24.446783 -1.738622 8 9
-11.796389 -21.735294 1.4402199 3 27
-11.539139 -18.986015 0.90516722 5 26
-12.453508 -22.946062 -1.2161375 4 12
-12.466468 -20.511803 -1.2579472 4 11
-14.649438 -24.103571 2.3026147 4 28
-12.410229 -22.866318 -0.60539997 3 16
-1.8879576 -3.0820744 -1.6854017 18 0
-12.493124 -25.740007 -0.49941805 11 17
-12.441282 -20.310286 -0.69316924 3 15
-3.0770543 -5.622685 -1.7942936 0 1
-4.4787288 -7.3114862 -1.7148497 3 2
-12.453025 -22.755346 0 4 20
-12.463416 -18.277536 -0.25754732 23 18
-5.2578497 -9.6076412 -1.703915 2 3
-7.1942573 -11.744563 -1.7531081 4 4
-12.494817 -25.743494 0.16631374 11 21
-12.437982 -20.304897 -0.1383933 3 19
-7.5453053 -13.787496 -1.6929903 5 5
-10.664652 -15.639659 -1.7670528 1 6
-12.449656 -22.749189 0.60344583 4 24
-12.463416 -18.277536 0.25754732 27 22
-11.922719 -21.78632 -1.7366573 4 8
-11.176624 -18.245743 -1.7467326 3 7
-12.434208 -20.298738 0.4155069 2 23
-11.848936 -24.412766 -1.7391336 8 9
-12.449926 -18.257755 -1.2869655 15 10
-11.791672 -21.54686 1.4304526 3 27
-11.551063 -18.85701 0.90093368 5 26
-12.449128 -22.748226 -1.207948 4 12
-12.462876 -20.345537 -1.2504108 4 11
-14.612701 -23.85511 2.2837381 4 28
-12.449912 -18.257732 -0.7716977 19 14
-12.4151 -22.686047 -0.60177094 3 16
-1.8967999 -3.0723805 -1.6837113 19 0
-12.572343 -25.674688 -0.49899921 11 17
-12.451191 -20.168072 -0.68979478 3 15
-3.0985236 -5.6152825 -1.795372 0 1
-4.5062838 -7.2991452 -1.7156341 2 2
-12.453147 -22.56815 0 4 20
-12.545259 -18.260294 -0.25791985 8 18
-5.2970834 -9.5996103 -1.7057598 2 3
-7.2372932 -11.722754 -1.7536131 4 4
-13.773752 -28.128155 0.18202916 14 21
-12.441544 -20.152445 -0.13764937 2 19
-7.608758 -13.788931 -1.6964175 5 5
-9.3367147 -13.590086 -1.5391539 1 6
-12.447845 -22.558542 0.59953767 4 24
-12.54073 -18.2537 0.25782672 9 22
-12.004478 -21.755049 -1.7374942 4 8
-11.259094 -18.237148 -1.7496618 3 7
-12.439858 -20.149715 0.4133428 2 23
-11.928814 -24.3605 -1.7383661 8 9
-12.531671 -18.240515 -1.2888259 7 10
-11.82244 -21.425154 1.4251038 3 27
-11.54333 -18.697546 0.89523458 4 26
-12.428076 -22.522715 -1.1982695 4 12
-12.475062 -20.206739 -1.2445492 3 11
-14.524147 -23.525785 2.2570508 4 28
-9.3580112 -13.621084 -0.57709807 5 14
-12.447845 -22.558542 -0.59953767 3 16
-1.9113436 -3.071897 -1.6870922 22 0
-12.432799 -19.981901 -0.68490756 2 15
-3.1068695 -5.5842357 -1.7889022 0 1
-4.5275912 -7.27671 -1.7140653 3 2
-12.454062 -22.384724 0 4 20
-5.3267174 -9.5741539 -1.7045299 2 3
-7.2865548 -11.710896 -1.7556334 4 4
-13.877171 -28.09066 0.1820989 22 21
-12.41461 -19.952667 -0.13657999 2 19
-7.6529779 -13.755335 -1.6955606 2 5
-12.452636 -22.38216 0.59600168 3 24
-9.4128723 -13.598984 0.19254352 11 22
-12.068706 -21.692091 -1.7358201 4 8
-11.339536 -18.224815 -1.7522655 3 7
-14.323113 -28.993353 0.94113696 5 25
-12.431944 -19.980526 0.41075984 2 23
-12.020848 -24.333025 -1.7393894 8 9
-11.84862 -21.296515 1.4192898 3 27
-11.555742 -18.572302 0.89116383 4 26
-12.421146 -22.325563 -1.19008 3 12
-12.463223 -20.030796 -1.2363847 3 11
-14.408203 -23.156754 2.2264576 4 28
-9.398675 -13.578473 -0.57667929 17 14
-12.411807 -22.308777 -0.59404755 3 16
-1.9182023 -3.0590639 -1.6837113 19 0
-11.807595 -23.692738 -0.46206993 5 17
-12.434499 -19.829987 -0.68118393 2 15
-3.1282268 -5.5767174 -1.7899804 0 1
-4.5612974 -7.2741547 -1.7172031 1 2
-12.465583 -22.222506 0 4 20
-5.3639703 -9.562397 -1.7057598 2 3
-7.3231711 -11.678668 -1.7546233 4 4
-13.992977 -28.077854 0.18233137 7 21
-12.435304 -19.83127 -0.13604529 2 19
-7.7067804 -13.738945 -1.6968458 2 5
-12.452428 -22.199053 0.59227955 3 24
-9.4579926 -13.562765 0.19249697 2 22
-12.152156 -21.663755 -1.7369362 4 8
-11.405197 -18.188501 -1.7525909 3 7
-11.816879 -23.711367 0.77101552 3 25
-12.429371 -19.821808 0.40838632 2 23
-12.105708 -24.29092 -1.7393894 8 9
-11.895533 -21.20627 1.4160341 3 27
-11.552554 -18.4235 0.88595337 4 26
-12.432532 -22.163586 -1.1837518 3 12
-12.450302 -19.855188 -1.2282203 3 11
-14.393634 -22.954329 2.211812 4 28
-11.822781 -23.723207 -1.0798829 5 13
-12.409387 -22.122324 -0.59023243 3 16
-1.9318718 -3.05474 -1.6854017 20 0
-11.876909 -23.604355 -0.46123222 5 17
-12.433613 -19.660442 -0.67699492 2 15
-3.1591032 -5.5814257 -1.795372 0 1
-4.585001 -7.2499566 -1.7156341 2 2
-12.466095 -22.02479 0 4 20
-12.647796 -17.989325 -0.25601071 2 18
-5.4025936 -9.5451698 -1.7063746 1 3
-7.3658381 -11.647109 -1.7541182 4 4
-11.864136 -23.578968 0.15341128 5 21
-12.449357 -19.685337 -0.1353711 2 19
-7.7535996 -13.698869 -1.6955606 2 5
-10.889669 -15.488692 -1.7674245 1 6
-12.476509 -22.04319 0.58939493 3 24
-12.661598 -18.008957 0.25629011 4 22
-12.231318 -21.609989 -1.7363782 4 8
-11.489866 -18.168159 -1.7548691 3 7
-11.859314 -23.569386 0.76787376 3 25
-12.43912 -19.669151 0.40622222 2 23
-12.197094 -24.240694 -1.7391336 8 9
-12.618071 -17.947046 -1.2776632 3 10
-11.923762 -21.066608 1.4097551 3 27
-11.559122 -18.277668 0.88106847 4 26
-12.452592 -22.000933 -1.1776097 3 12
-12.466665 -19.712708 -1.2223587 3 11
-14.249395 -22.531618 2.176337 4 28
-11.816777 -23.484846 -1.0710901 5 13
-12.640946 -17.979584 -0.7675097 3 14
-12.441055 -21.980549 -0.58771998 3 16
-1.9375647 -3.0425398 -1.6820208 20 0
-11.882272 -23.431379 -0.45857942 5 17
-12.456659 -19.560575 -0.67490041 2 15
-3.1556361 -5.5346646 -1.7835106 0 1
-4.6077561 -7.2355161 -1.7156341 2 2
-12.450037 -21.836098 0 4 20
-12.64417 -17.864616 -0.25480005 2 18
-5.4325552 -9.5281496 -1.7063746 1 3
-7.4109197 -11.637298 -1.7561386 4 4
-11.869409 -23.406013 0.15252787 5 21
-12.427346 -19.514545 -0.13446444 2 19
-7.7906899 -13.664078 -1.6942754 2 5
-10.945179 -15.464157 -1.7685399 1 6
-12.458551 -21.851032 0.58530062 3 24
-12.639549 -17.858089 0.25470692 4 22
-12.267527 -21.515993 -1.7319137 4 8
-11.555455 -18.145424 -1.756171 3 7
-11.87001 -23.4072 0.76380104 3 25
-12.444998 -19.542265 0.40440717 2 23
-12.284022 -24.223616 -1.7406685 8 9
-12.602876 -17.806274 -1.2704539 3 10
-11.910773 -20.890285 1.4004529 3 27
-11.560671 -18.153614 0.87683493 4 26
-12.424678 -21.79162 -1.1684896 3 12
-12.449145 -19.548777 -1.214613 3 11
-14.253726 -22.382494 2.1662478 4 28
-11.865193 -23.397701 -1.0688105 5 13
-12.61654 -17.825579 -0.76262385 3 14
-12.440725 -21.819767 -0.58446312 3 16
-1.9462161 -3.0327063 -1.6803303 19 0
-11.934855 -23.332787 -0.45746249 5 17
-12.414736 -19.345358 -0.66896594 2 15
-3.1826162 -5.536973 -1.7878239 0 1
-4.6351047 -7.2226882 -1.7164187 2 2
-12.448448 -21.657253 0 4 20
-12.648404 -17.738953 -0.25363591 2 18
-5.4657841 -9.5091267 -1.7063746 1 3
-7.4536424 -11.614696 -1.7566437 4 4
-11.947401 -23.357313 0.15248138 5 21
-12.426264 -19.363321 -0.13372052 2 19
-7.8541975 -13.664382 -1.6977026 2 5
-11.006032 -15.435581 -1.7696552 1 6
-12.470986 -21.696465 0.58232296 3 24
-12.673947 -17.774775 0.25414813 4 22
-12.352504 -21.490334 -1.7333089 4 8
-11.623034 -18.111685 -1.7568219 3 7
-11.982603 -23.426134 0.76577926 3 25
-12.437541 -19.380894 0.40196383 2 23
-12.35215 -24.148602 -1.7383661 8 9
-11.913978 -20.727406 1.3923134 3 27
-11.563533 -18.018965 0.87227571 4 26
-12.442928 -21.64765 -1.1630919 3 12
-12.456905 -19.41107 -1.2087513 3 11
-14.107841 -21.983652 2.1324003 4 28
-12.655481 -17.748877 -0.76122779 3 14
-12.429137 -21.623657 -0.58036888 3 16
-1.9587584 -3.0289392 -1.6820208 21 0
-12.045564 -23.347855 -0.45857942 5 17
-12.434417 -19.228046 -0.66640598 2 15
-3.2057853 -5.5324969 -1.7899804 0 1
-4.6645465 -7.2130532 -1.7179875 2 2
-12.465806 -21.513304 0 4 20
-12.742913 -17.740177 -0.25428784 2 18
-5.5029049 -9.4968309 -1.7076045 1 3
-7.5006013 -11.598606 -1.7581588 4 4
-12.080207 -23.415003 0.15313232 5 21
-12.413407 -19.195557 -0.13286035 2 19
-7.907825 -13.647207 -1.6989877 2 5
-11.064488 -15.403541 -1.7703987 1 6
-12.460428 -21.504023 0.5783217 3 24
-12.742913 -17.740177 0.25428784 4 22
-12.411435 -21.41947 -1.7310767 4 8
-11.707831 -18.104485 -1.7600765 3 7
-12.078964 -23.412594 0.7667101 3 25
-12.435616 -19.229898 0.39972994 2 23
-12.370475 -23.977629 -1.7291561 8 9
-12.603408 -17.545963 -1.2581285 7 10
-11.848111 -20.447294 1.376267 3 27
-11.66108 -18.03219 0.87488097 6 26
-12.444291 -21.476173 -1.1562054 3 12
-12.446494 -19.246721 -1.201215 3 11
-14.078407 -21.770241 2.1164527 4 28
-12.75467 -17.756546 -0.76346141 3 14
-12.430354 -21.452122 -0.57692587 3 16
-1.9693193 -3.0220835 -1.6820208 19 0
-12.182373 -23.412102 -0.46067372 5 17
-12.425058 -19.06728 -0.66233331 2 15
-3.2250781 -5.5212727 -1.7899804 0 1
-4.6875553 -7.1934409 -1.7172031 4 2
-12.46618 -21.341864 0 4 20
-12.837587 -17.740953 -0.25493973 2 18
-5.5360217 -9.4775648 -1.7076045 1 3
-7.5388761 -11.569029 -1.7576538 4 4
-12.160021 -23.369144 0.15310907 5 21
-12.423558 -19.064978 -0.13225591 2 19
-7.9594274 -13.626389 -1.6998445 2 5
-11.127529 -15.377732 -1.7718859 1 6
-12.462806 -21.336088 0.5749718 3 24
-12.849311 -17.757154 0.25517258 4 22
-12.421725 -21.265757 -1.7221478 4 8
-11.76878 -18.060165 -1.7597508 3 7
-12.199373 -23.444773 0.76915371 3 25
-12.434976 -19.082499 0.39756581 2 23
-12.37671 -23.785578 -1.7184113 8 9
-12.606053 -17.420984 -1.2523146 7 10
-11.858992 -20.302368 1.3692904 3 27
-11.737046 -18.011467 0.87585795 9 26
-12.450663 -21.315298 -1.1498772 3 12
-12.45472 -19.112797 -1.1955627 3 11
-13.969304 -21.437052 2.088789 3 28
-12.837667 -17.741062 -0.76471776 3 14
-12.456755 -21.325727 -0.57469261 3 16
-1.9758772 -3.00913 -1.6786398 19 0
-12.277032 -23.394224 -0.46116239 5 17
-12.463013 -18.980343 -0.6608206 2 15
-3.2482402 -5.5166197 -1.792137 0 1
-4.7341657 -7.2098207 -1.7250478 7 2
-12.463478 -21.167236 0 3 20
-12.932423 -17.741282 -0.25559163 2 18
-5.5750875 -9.4684 -1.7094493 2 3
-7.5770364 -11.539325 -1.7571486 4 4
-12.301001 -23.439896 0.153853 5 21
-12.448318 -18.957966 -0.13181421 2 19
-8.0049257 -13.595095 -1.6994162 2 5
-11.192871 -15.354887 -1.7737448 1 6
-12.474308 -21.185629 0.57208717 3 24
-12.939489 -17.750977 0.25573131 4 22
-12.427044 -21.10536 -1.712661 4 8
-11.851445 -18.048967 -1.7626801 3 7
-12.301576 -23.440992 0.77043372 3 25
-12.433462 -18.935339 0.39540172 2 23
-12.376189 -23.58317 -1.706899 7 9
-12.647972 -17.351061 -1.2504542 10 10
-11.777828 -20.002769 1.3518486 3 27
-11.716488 -17.843435 0.86967039 15 26
-12.435787 -21.120207 -1.1416876 3 12
-12.46655 -18.985729 -1.1903291 3 11
-13.967463 -21.271521 2.0773978 3 28
-12.27801 -23.39609 -1.0764635 5 13
-12.946612 -17.76075 -0.7675097 3 14
-12.42967 -21.109819 -0.57003999 3 16
-1.9858449 -3.0025611 -1.6786398 19 0
-12.352674 -23.34985 -0.46109259 5 17
-12.450893 -18.825523 -0.65686429 2 15
-3.2606196 -5.4958792 -1.7889022 0 1
-4.7537208 -7.1875386 -1.7234788 7 2
-12.478497 -21.032906 0 3 20
-15.133109 -20.61631 -0.29773238 3 18
-5.6104884 -9.4566584 -1.7106791 2 3
-7.6240168 -11.527374 -1.759169 4 4
-12.348735 -23.342402 0.15348102 5 21
-12.442716 -18.81316 -0.13109353 2 19
-8.0560532 -13.578736 -1.7007014 5 5
-11.246085 -15.320895 -1.7741165 1 6
-12.450634 -20.985945 0.56780672 3 24
-13.036153 -17.759562 0.25647637 4 22
-12.427739 -20.947353 -1.703174 4 8
-11.911233 -18.009567 -1.7626801 3 7
-12.432204 -18.797266 0.39337724 2 23
-12.362861 -23.369102 -1.6943632 7 9
-12.733796 -17.347651 -1.2532449 7 10
-11.764631 -19.829664 1.3427789 3 27
-11.782209 -17.814486 0.87015891 6 26
-12.442554 -20.972324 -1.1359178 3 12
-12.461129 -18.841 -1.1838394 3 11
-13.822396 -20.899212 2.0455029 3 28
-12.436351 -20.96187 -0.56715536 3 16
-1.9963138 -2.9956107 -1.6786398 20 0
-12.434493 -18.658838 -0.65255886 2 15
-3.2837384 -5.4910755 -1.7910588 0 1
-4.791832 -7.1904845 -1.7281857 7 2
-12.461509 -20.838167 0 3 20
-15.157421 -20.499035 -0.29680106 3 18
-5.6394076 -9.430232 -1.7094493 2 3
-7.6642089 -11.50069 -1.759169 4 4
-12.439548 -18.666424 -0.13037285 2 19
-8.105444 -13.553945 -1.7011297 5 5
-11.290027 -15.268735 -1.7726294 1 6
-12.462242 -20.839392 0.5650152 3 24
-13.642632 -18.45042 0.26713961 4 22
-12.437298 -20.79768 -1.6945243 4 8
-11.996136 -18.001053 -1.7659346 3 7
-12.38557 -23.215603 0.76577926 7 25
-12.440081 -18.667225 0.39156219 2 23
-12.376719 -23.199015 -1.6851534 7 9
-12.820389 -17.338411 -1.2558029 7 10
-11.747701 -19.644535 1.3330116 3 27
-12.437757 -20.798449 -1.128845 3 12
-12.464797 -18.704311 -1.1779778 3 11
-13.813463 -20.728083 2.0334611 3 28
-12.3749 -23.195604 -1.0710901 11 13
-12.435561 -20.794777 -0.56380552 3 16
-2.0087783 -2.9916341 -1.6803303 20 0
-12.450954 -23.143291 -0.45871904 5 17
-12.392557 -18.455992 -0.64697349 2 15
-3.3028851 -5.4795804 -1.7910588 0 1
-4.8212738 -7.1802282 -1.7297547 7 2
-12.474286 -20.695196 0 3 20
-15.157201 -20.349775 -0.29540414 3 18
-5.670249 -9.4071045 -1.7088343 2 3
-7.7043042 -11.473869 -1.759169 4 4
-12.431796 -23.107681 0.15250462 5 21
-8.1547575 -13.528975 -1.701558 5 5
-11.340872 -15.226043 -1.7722576 1 6
-12.47091 -20.689596 0.56213051 3 24
-13.738007 -18.444391 0.26774493 4 22
-12.43154 -20.624279 -1.6839213 4 8
-12.063338 -17.965693 -1.7665856 3 7
-12.422956 -23.091249 0.76310289 3 25
-12.383857 -23.018576 -1.675176 7 9
-12.899912 -17.319181 -1.2576635 7 10
-11.66159 -19.34691 1.3155698 3 27
-11.857269 -17.658798 0.86657661 4 26
-12.471088 -20.689892 -1.1253088 3 12
-12.416441 -18.491562 -1.1673013 3 11
-13.694599 -20.395098 2.0054717 3 28
-12.385723 -23.022043 -1.0650654 5 13
-12.442009 -20.641649 -0.56082779 3 16
-2.0171785 -2.981601 -1.6786398 21 0
-12.432501 -22.916885 -0.45508897 5 17
-3.3139932 -5.4548488 -1.7867455 0 1
-4.8572993 -7.1795969 -1.7336769 8 2
-12.467532 -20.521618 0 3 20
-5.6968966 -9.3771191 -1.7069895 2 3
-7.7487588 -11.453477 -1.760179 4 4
-12.418925 -22.891861 0.15136549 5 21
-12.410422 -18.343904 -0.12872227 21 19
-8.2060661 -13.507224 -1.7024149 2 5
-12.462083 -20.512648 0.55850148 3 24
-12.43302 -20.464809 -1.6744344 4 8
-12.132684 -17.933376 -1.7675619 3 7
-12.396719 -22.850929 0.75658661 3 25
-12.40426 -18.334795 0.38639629 22 23
-12.378481 -22.817308 -1.6636636 7 9
-11.697957 -19.254892 1.3120815 3 27
-12.458178 -20.50622 -1.1176776 3 12
-13.678589 -20.218386 1.9927788 3 28
-12.414558 -22.883812 -1.0606691 5 13
-12.393564 -20.399866 -0.55543077 2 16
-2.0255313 -2.9715464 -1.6769494 20 0
-12.43564 -22.733002 -0.45229656 4 17
-12.442283 -18.253393 -0.64290076 17 15
-3.3289902 -5.4366784 -1.7845889 0 1
-4.8955846 -7.1820445 -1.7383838 7 2
-12.46389 -20.355169 0 3 20
-5.7337208 -9.3639193 -1.7082194 2 3
-7.7886891 -11.42636 -1.760179 4 4
-12.397013 -22.66239 0.15013336 5 21
-12.474375 -18.300474 -0.12872227 23 19
-8.2531624 -13.478498 -1.7024149 5 5
-7.2470584 -9.5892868 -1.1220208 11 6
-12.470958 -20.366713 0.5557099 3 24
-12.437696 -20.312391 -1.6655055 4 8
-12.204186 -17.904095 -1.7688638 3 7
-12.395814 -22.660196 0.75169945 3 25
-12.465929 -18.288082 0.38632649 11 23
-12.381418 -22.633883 -1.6534305 7 9
-7.2590299 -9.6051273 -0.70115662 20 10
-11.606614 -18.955124 1.2944072 3 27
-12.01628 -17.628428 0.86918193 11 26
-12.462908 -20.353567 -1.1117216 3 12
-12.45524 -18.272402 -1.1589276 20 11
-9.3299713 -13.68749 1.3522776 1 28
-12.408045 -22.682556 -1.0533417 5 13
-12.437547 -20.312147 -0.55422109 2 16
-2.0364091 -2.9641025 -1.6769494 18 0
-12.447385 -22.557711 -0.44971362 4 17
-12.520422 -18.224144 -0.64348263 5 15
-3.3549652 -5.4342737 -1.7878239 0 1
-4.9396448 -7.1899176 -1.7446597 7 2
-12.473272 -20.203838 0 3 20
-7.3084726 -9.5972176 -0.14043804 30 18
-5.7659268 -9.3394775 -1.7076045 2 3
-7.8327632 -11.401007 -1.7606841 4 4
-12.451002 -22.564266 0.14978465 5 21
-9.3794117 -13.652236 -0.09626855 4 19
-8.3045979 -13.451543 -1.7028432 2 5
-7.2893944 -9.5721645 -1.1231362 16 6
-12.490904 -20.232397 0.55329055 3 24
-7.3084726 -9.5972176 0.14043804 17 22
-12.434503 -20.141041 -1.6551815 4 8
-12.409241 -22.488585 0.74751037 3 25
-9.3713455 -13.640496 0.28887221 3 23
-12.389078 -22.452044 -1.6434531 7 9
-7.2941852 -9.5784559 -0.70115662 18 10
-11.573221 -18.745962 1.283012 2 27
-9.3763208 -13.647738 0.67460114 4 26
-12.459762 -20.181955 -1.104835 3 12
-12.537962 -18.249676 -1.1603929 6 11
-12.400343 -22.47246 -1.0456887 5 13
-12.463594 -20.188162 -0.55208081 2 16
-2.0462272 -2.9573331 -1.6769494 17 0
-12.411323 -22.31708 -0.44573447 4 17
-9.3980522 -13.582642 -0.48069197 7 15
-3.3770361 -5.4296598 -1.7899804 0 1
-4.9746189 -7.1896243 -1.7485819 6 2
-12.468375 -20.046879 0 3 20
-5.7926908 -9.3135939 -1.7063746 1 3
-7.8727856 -11.378233 -1.7611893 4 4
-12.42078 -22.334085 0.14852928 4 21
-9.424633 -13.621058 -0.09626855 4 19
-8.3470592 -13.420552 -1.7024149 2 5
-7.330791 -9.5605822 -1.1246233 5 6
-12.471337 -20.051641 0.54947537 3 24
-12.435896 -19.994659 -1.6465318 4 8
-9.4026165 -13.589237 -1.349023 6 7
-12.409903 -22.314526 0.7430886 3 25
-9.427907 -13.62579 0.28922129 2 23
-12.381979 -22.264315 -1.6327082 7 9
-11.586816 -18.629492 1.2776632 2 27
-12.214102 -17.652569 0.87455529 4 26
-12.448539 -20.014986 -1.0979484 3 12
-9.4209661 -13.615757 -0.8677302 11 11
-12.402924 -22.301977 -1.039664 5 13
-12.450218 -20.017685 -0.54854488 2 16
-2.0565381 -2.9501722 -1.6769494 18 0
-12.432426 -22.172455 -0.44371 4 17
-9.4431219 -13.546474 -0.48057562 1 15
-3.3775568 -5.3884645 -1.7802757 0 1
-5.0064144 -7.1818681 -1.7509353 7 2
-12.468171 -19.89139 0 3 20
-5.8377614 -9.3134098 -1.7100642 1 3
-7.9192634 -11.360447 -1.7627045 4 4
-12.416503 -22.144056 0.14755288 4 21
-12.64932 -18.14587 -0.12855954 2 19
-8.3917427 -13.387964 -1.7019864 2 5
-12.454178 -19.869064 0.54566026 3 24
-16.05036 -20.781727 0.30569488 6 22
-12.425084 -19.822651 -1.6359289 3 8
-12.420646 -17.817829 -1.7730948 3 7
-12.39777 -22.110647 0.73773593 3 25
-12.631598 -18.120447 0.38555858 2 23
-12.397148 -22.109539 -1.6245216 7 9
-13.231944 -17.13249 -1.2606866 3 10
-11.465141 -18.291183 1.2571982 2 27
-12.45891 -19.876616 -1.092737 3 12
-13.542334 -19.426928 1.9332199 3 28
-12.396648 -22.108648 -1.0326624 5 13
-15.545637 -20.12822 -0.88812244 10 14
-12.445682 -19.855511 -0.54528803 2 16
-2.0689073 -2.9459424 -1.6786398 17 0
-12.43102 -21.98966 -0.44091761 4 17
-12.631588 -17.986275 -0.63964266 2 15
-3.4066315 -5.3929253 -1.7856673 0 1
-5.0404706 -7.1771879 -1.7540731 7 2
-12.473442 -19.746292 0 3 20
-5.8786793 -9.3063431 -1.7125237 1 3
-7.9543099 -11.326241 -1.7616943 4 4
-12.416955 -21.964781 0.14664622 4 21
-12.64132 -18.000132 -0.12783886 2 19
-8.4405489 -13.361953 -1.7024149 2 5
-11.681712 -15.016632 -1.7759755 1 6
-12.455116 -19.717283 0.54268253 3 24
-12.440928 -19.69482 -1.6289532 3 8
-12.466727 -17.751528 -1.7708166 3 7
-12.413878 -21.959339 0.73412877 3 25
-12.616624 -17.964968 0.38318503 2 23
-12.421209 -21.972307 -1.6176143 7 9
-13.215657 -16.988491 -1.2534775 3 10
-11.501196 -18.207163 1.2541751 2 27
-12.380687 -17.629013 0.87764907 16 26
-12.440726 -19.694502 -1.0851059 3 12
-12.635688 -17.992113 -1.1522285 3 11
-13.612357 -19.382803 1.9335456 3 28
-12.408839 -21.950426 -1.027289 5 13
-15.657528 -20.127472 -0.89049554 10 14
-12.429489 -19.676712 -0.5415659 2 16
-2.0791776 -2.9387026 -1.6786398 17 0
-12.464135 -21.86969 -0.43938178 4 17
-12.629634 -17.850681 -0.63638455 2 15
-3.4171615 -5.3680029 -1.7813541 0 1
-5.0745544 -7.1723576 -1.757211 7 2
-12.462816 -19.57778 0 3 20
-15.866956 -20.250431 -0.29950181 7 18
-5.9090061 -9.2824306 -1.7119089 1 3
-7.9869218 -11.288688 -1.760179 4 4
-12.436114 -21.820524 0.14597203 4 21
-12.625527 -17.844875 -0.12704845 2 19
-8.489275 -13.335762 -1.7028432 2 5
-11.736516 -14.978898 -1.7763472 1 6
-12.485214 -19.612965 0.54100758 3 24
-16.283859 -20.782511 0.30737117 12 22
-12.434601 -19.533457 -1.6191874 3 8
-12.519404 -17.694883 -1.7695147 3 7
-12.411263 -21.77692 0.72947425 3 25
-12.609958 -17.82287 0.38109073 2 23
-12.418769 -21.790091 -1.6073811 7 9
-11.451029 -17.988367 1.2418495 2 27
-12.467539 -17.621576 0.87944013 7 26
-12.464338 -19.580172 -1.0811973 3 12
-12.63843 -17.863111 -1.1467856 3 11
-13.772037 -19.465349 1.9465638 3 28
-12.426017 -21.802807 -1.0224042 5 13
-13.368168 -17.061317 -0.75690031 7 14
-12.459444 -19.572481 -0.53989094 2 16
-2.0831101 -2.9225712 -1.6735685 17 0
-12.424832 -21.624918 -0.4353328 4 17
-12.631526 -17.721834 -0.63335913 2 15
-3.4400373 -5.3625269 -1.7835106 0 1
-5.1154947 -7.176959 -1.7627025 5 2
-12.461965 -19.426424 0 3 20
-15.982144 -20.25144 -0.30033997 3 18
-5.9435048 -9.2650757 -1.7125237 1 3
-8.0262756 -11.26074 -1.760179 4 4
-12.430502 -21.634785 0.14501889 4 21
-12.659877 -17.76161 -0.12676947 2 19
-8.5357714 -13.306049 -1.7028432 2 5
-11.793662 -14.944094 -1.7770907 1 6
-12.441318 -19.394239 0.53616887 3 24
-16.393469 -20.772642 0.30806965 6 22
-12.433763 -19.382462 -1.6102585 3 8
-12.57415 -17.641336 -1.7685384 6 7
-12.43541 -21.643328 0.72644883 3 25
-12.679055 -17.788517 0.38130018 2 23
-12.40725 -21.594316 -1.5961245 6 9
-11.377913 -17.736542 1.2271986 2 27
-12.07198 -16.9368 0.84736288 2 26
-12.459253 -19.422197 -1.0748689 3 12
-13.890803 -19.488581 1.9537239 3 28
-12.412444 -21.603355 -1.0150769 5 13
-13.390491 -16.967482 -0.75480628 11 14
-12.436999 -19.387506 -0.53598279 2 16
-2.0970182 -2.9215372 -1.6769494 18 0
-12.424335 -21.458998 -0.43281969 4 17
-3.4473481 -5.3349133 -1.7781191 0 1
-5.1484156 -7.1727023 -1.7658403 8 2
-12.441649 -19.253965 0 3 20
-16.096491 -20.257832 -0.30122468 7 18
-5.9699059 -9.2386751 -1.7112941 1 3
-8.0658875 -11.237285 -1.7606841 4 4
-12.424013 -21.458443 0.14411223 4 21
-12.751363 -17.765026 -0.12709494 2 19
-8.590641 -13.294372 -1.7049851 5 5
-11.835721 -14.895547 -1.7759755 1 6
-12.47952 -19.312571 0.53505224 3 24
-16.531935 -20.805847 0.30937347 12 22
-12.430833 -19.237226 -1.6016086 3 8
-12.430985 -21.470484 0.72202706 3 25
-12.763627 -17.782112 0.38206807 2 23
-12.386786 -21.394144 -1.5843563 6 9
-13.317847 -16.760839 -1.2467332 105 10
-11.388985 -17.624924 1.2220823 2 27
-12.272571 -17.097979 0.85745823 2 26
-12.443354 -19.256601 -1.0679824 3 12
-12.666553 -17.64687 -1.1384119 9 11
-13.980926 -19.478035 1.957304 3 28
-12.413925 -21.441019 -1.0093778 5 13
-13.389485 -16.850998 -0.75159556 7 14
-12.399217 -19.188297 -0.5316093 2 16
-2.1055875 -2.9108946 -1.6752589 16 0
-12.462571 -21.34424 -0.43142349 4 17
-12.815868 -17.717449 -0.63638455 2 15
-3.4858005 -5.3512912 -1.7878239 0 1
-5.1861639 -7.1696744 -1.7697625 9 2
-12.451004 -19.114389 0 3 20
-16.233124 -20.276758 -0.30238879 7 18
-6.0058842 -9.2200451 -1.7119089 1 3
-8.1163235 -11.220509 -1.7627045 4 4
-12.450142 -21.322952 0.14350778 4 21
-12.858587 -17.776506 -0.12751339 2 19
-8.6414804 -13.266129 -1.7054136 5 5
-11.90517 -14.870722 -1.778206 1 6
-12.441087 -19.099165 0.53039962 3 24
-16.633076 -20.776339 0.3098391 12 22
-12.440276 -19.097919 -1.5937959 3 8
-12.594194 -17.410994 -1.7542182 9 7
-12.41081 -21.25559 0.71632528 3 25
-12.87091 -17.793543 0.38332465 2 23
-12.412784 -21.258972 -1.5777047 6 9
-11.407737 -17.512798 1.2171986 2 27
-12.398401 -17.140318 0.86185461 2 26
-12.433156 -19.08699 -1.0610957 3 12
-12.609407 -17.432026 -1.1275259 9 11
-14.131668 -19.536493 1.9683695 3 28
-12.421894 -21.274574 -1.0036788 5 13
-14.865228 -18.568123 -0.83060801 8 14
-12.43454 -19.089113 -0.53012049 2 16
-2.1173632 -2.9068263 -1.6769494 14 0
-12.444049 -21.151125 -0.42835185 4 17
-12.905154 -17.716867 -0.63789725 5 15
-3.499301 -5.3332605 -1.7856673 0 1
-5.2260761 -7.1746292 -1.7752538 9 2
-12.461659 -18.992729 0 3 20
-6.0342588 -9.1967726 -1.7112941 2 3
-8.1604958 -11.203153 -1.7642198 4 4
-12.429508 -21.12641 0.14246164 4 21
-12.952791 -17.782265 -0.12786211 2 19
-8.6963348 -13.254025 -1.7075555 5 5
-11.961917 -14.840462 -1.7793214 1 6
-12.469255 -19.004307 0.52891082 3 24
-12.43787 -18.956472 -1.5854251 3 8
-12.635431 -17.346577 -1.75194 9 7
-12.420403 -21.110933 0.71283448 3 25
-15.348155 -21.070745 0.45501915 3 23
-12.400222 -21.076632 -1.5672157 6 9
-11.406603 -17.384726 1.2109196 2 27
-12.516355 -17.183102 0.86608821 2 26
-12.465697 -18.998884 -1.05849 3 12
-12.64833 -17.364285 -1.1258512 9 11
-23.648552 -36.042595 5.2930298 22 29
-14.236279 -19.544302 1.9739022 3 28
-12.419415 -21.109255 -0.99781698 5 13
-14.853971 -18.428467 -0.82655972 13 14
-12.47145 -19.00765 -0.52900386 2 16
-2.1274972 -2.8994174 -1.6769494 14 0
-12.442324 -20.980282 -0.42576891 4 17
-12.988208 -17.700722 -0.63894451 2 15
-3.5263937 -5.3338661 -1.7899804 0 1
-5.2626915 -7.1721549 -1.7791762 9 2
-12.483761 -18.882381 0 3 20
-14.9036 -18.358509 -0.27528834 9 18
-6.0641451 -9.1723557 -1.7106791 1 3
-8.2065954 -11.184196 -1.7657349 4 4
-12.415444 -20.934958 0.141462 4 21
-15.116081 -20.600653 -0.14850603 3 19
-8.7381611 -13.216953 -1.7066987 5 5
-12.031219 -14.820261 -1.7819238 1 6
-12.469355 -18.860592 0.52611917 3 24
-14.918726 -18.37714 0.27556774 15 22
-12.435746 -18.809757 -1.5767754 3 8
-12.71949 -17.334505 -1.7551945 9 7
-12.408359 -20.92301 0.70794725 3 25
-12.392271 -20.895882 -1.5569825 6 9
-13.51277 -16.64526 -1.2485937 3 10
-12.609361 -17.184418 0.86836779 2 26
-12.443796 -18.821932 -1.0510451 3 12
-12.730134 -17.34901 -1.1277353 6 11
-22.672873 -34.29398 5.0478287 19 29
-14.405831 -19.632702 1.9878969 3 28
-12.405363 -20.917959 -0.99081534 5 13
-14.953481 -18.419952 -0.8285141 8 14
-12.44289 -18.820562 -0.52500254 2 16
-2.1354504 -2.8890581 -1.6752589 16 0
-12.441609 -20.813139 -0.42325577 4 17
-13.667833 -18.491259 -0.66919869 5 15
-3.536449 -5.308701 -1.7856673 0 1
-5.3016834 -7.1726661 -1.7838831 8 2
-12.474197 -18.725504 0 3 20
-16.582834 -20.281927 -0.3049964 7 18
-6.0939345 -9.1478424 -1.7100642 1 3
-8.2385101 -11.145908 -1.7642198 4 4
-12.428928 -20.791925 0.14078781 4 21
-15.145103 -20.489862 -0.14808758 3 19
-8.7864485 -13.18968 -1.7071271 5 5
-12.09044 -14.787424 -1.7830391 4 6
-12.466387 -18.713779 0.52323455 3 24
-15.063797 -18.42404 0.2770578 5 22
-12.441598 -18.676567 -1.5692415 3 8
-12.815469 -17.338093 -1.7600765 6 7
-12.425929 -20.786907 0.70480543 2 25
-15.537675 -21.020973 0.4562757 6 23
-12.395499 -20.736002 -1.5482843 6 9
-11.507769 -17.274759 1.2088267 5 27
-12.721534 -17.211006 0.87194997 2 26
-12.456255 -18.698568 -1.046578 3 12
-12.811986 -17.33338 -1.1296194 6 11
-22.889292 -34.360004 5.0692773 19 29
-14.493233 -19.607944 1.9905006 3 28
-12.435241 -20.802485 -0.98739588 4 13
-15.172038 -18.556425 -0.83702952 13 14
-12.424264 -18.650545 -0.52146655 2 16
-2.1455219 -2.8815863 -1.6752589 14 0
-12.444007 -20.653109 -0.42088223 4 17
-15.122001 -20.309906 -0.73692143 6 15
-3.5420775 -5.2771344 -1.7791975 0 1
-5.3430853 -7.1761379 -1.7893744 7 2
-12.441399 -18.535711 0 3 20
-16.681501 -20.257881 -0.30550861 11 18
-6.1236267 -9.1232338 -1.7094493 1 3
-8.2773657 -11.117083 -1.7642198 4 4
-12.447758 -20.659334 0.14018337 4 21
-7.2212844 -9.6986904 -0.070277669 1 19
-8.8390846 -13.168835 -1.7084123 5 5
-12.141985 -14.74513 -1.7830391 2 6
-12.444716 -18.540657 0.51960552 3 24
-15.181411 -18.436184 0.27803564 5 22
-12.444448 -18.540257 -1.5614289 7 8
-12.899719 -17.325228 -1.7633309 6 7
-12.424128 -20.620115 0.70061642 2 25
-7.2250829 -9.7037926 0.21117412 2 23
-12.412181 -20.600288 -1.5413768 6 9
-13.81141 -16.772467 -1.2653378 7 10
-11.588027 -17.264324 1.2109196 2 27
-7.2130332 -9.6876087 0.49206963 1 26
-12.416788 -18.499046 -1.0378302 3 12
-13.132437 -17.637783 -1.1524378 6 11
-12.431462 -20.632288 -0.98137122 4 13
-15.211308 -18.472492 -0.83563352 13 14
-2.1533921 -2.8711796 -1.6735685 15 0
-12.443363 -20.489908 -0.41843891 4 17
-3.5626335 -5.2679296 -1.7802757 0 1
-5.3751616 -7.1668582 -1.7917278 8 2
-16.787855 -20.242634 -0.30616051 3 18
