# .PCD v0.7 - Point Cloud Data file format
VERSION 0.7
FIELDS x y z intensity ring
SIZE 4 4 4 4 2
TYPE F F F F U
COUNT 1 1 1 1 1
WIDTH 1308
HEIGHT 1
VIEWPOINT 0 0 0 1 0 0 0
POINTS 1308
DATA ascii
-4.976243 40.645432 -0.95285827 8 16
-6.6180315 39.211376 -0.69411713 25 17
-2.9699736 42.686691 -1.2453076 11 15
-0.68257582 5.7412949 -1.6185305 2 1
-0.57715249 8.295269 -1.6630747 1 2
-4.8412986 40.721226 0 25 20
-1.2579978 10.581296 -1.6577967 1 3
-0.97357816 13.992997 -1.7854327 2 4
-6.6229219 39.240349 0.23129094 25 21
-3.0019977 43.146965 -0.25137693 28 19
-1.964445 16.523378 -1.7923763 3 5
-0.4476507 21.732885 -2.029155 2 6
-4.8371558 40.686378 0.95341653 20 24
-0.92351383 44.835449 0.52207935 16 22
-3.5707815 30.034626 -2.1150162 6 8
-1.6918216 24.316132 -1.9898497 3 7
-6.623558 39.244118 1.1582687 14 25
-3.0018685 43.145111 0.75492126 15 23
-5.6654534 33.567417 -2.1817198 15 9
-0.64817303 31.467995 -1.8330072 6 10
-4.7567372 40.00996 2.3464911 23 27
-2.9726517 42.725185 1.7448771 9 26
-4.8483195 40.780281 -1.9129877 11 12
-2.7270579 39.195328 -2.0591061 10 11
-4.8066182 40.42952 4.9990807 19 29
-2.9480972 42.372269 3.4674287 11 28
-6.5716486 38.936558 -1.6087518 14 13
-0.65982473 32.033672 -1.1188779 7 14
-4.7525105 39.974407 10.786543 31 31
-2.9555457 42.479324 7.7638016 22 30
-4.8480139 40.777706 -0.95555675 17 16
-6.4648118 39.13559 -0.69237185 12 17
-2.8293746 42.824467 -1.2490312 11 15
-0.66252923 5.7436428 -1.6185305 2 1
-0.54819083 8.2972336 -1.6630747 2 2
-4.7128649 40.857086 0 26 20
-0.68442261 40.011436 -0.46587616 18 18
-1.2224103 10.597402 -1.6596415 1 3
-0.92498547 14.000271 -1.7859379 2 4
-6.4676437 39.152733 0.23063999 12 21
-2.8484559 43.113277 -0.25112116 19 19
-1.9085742 16.54594 -1.7940899 3 5
-0.37252948 21.778122 -2.0332446 2 6
-4.7097569 40.830143 0.95639426 20 24
-0.76924866 44.970375 0.52361596 16 22
-3.469569 30.078621 -2.1172485 6 8
-1.6087654 24.349735 -1.9921279 3 7
-6.4663191 39.144714 1.1546614 7 25
-2.8501797 43.139366 0.75464207 15 23
-5.5586476 33.650005 -2.1858132 15 9
-0.53886312 31.502008 -1.8348676 6 10
-4.629849 40.137398 2.3530025 23 27
-2.8332322 42.882854 1.7509017 9 26
-4.7169175 40.89222 -1.9174545 11 12
-2.5910037 39.216568 -2.0597341 10 11
-2.8051548 42.457886 3.4736123 11 28
-6.4591351 39.101223 -1.6146138 14 13
-0.54703653 31.979828 -1.1169236 7 14
-4.6253304 40.098225 10.815531 32 31
-4.7221289 40.937397 -0.95890665 17 16
-6.3358283 39.205296 -0.69320959 25 17
-2.6891181 42.981731 -1.2533367 11 15
-0.64333338 5.7535763 -1.6206871 2 1
-0.51947135 8.30301 -1.6638591 2 2
-4.5804501 40.964718 0 26 20
-0.54514188 40.041576 -0.46620211 9 18
-1.1871701 10.617316 -1.6621011 1 3
-0.87834251 14.039056 -1.7904835 2 4
-6.3373246 39.214554 0.23087248 12 21
-2.6964555 43.099007 -0.25098169 19 19
-1.8574388 16.611786 -1.8005157 3 5
-0.29721668 21.831059 -2.0380778 2 6
-4.5854316 41.00927 0.96020937 20 24
-0.61821222 45.408714 0.52869147 16 22
-3.3689942 30.130205 -2.1200387 6 8
-1.5250089 24.375097 -1.9937552 3 7
-6.3411288 39.238094 1.156756 7 25
-2.6960902 43.09317 0.75366473 7 23
-5.4507117 33.728306 -2.1896505 15 9
-0.43086082 31.647442 -1.8432397 6 10
-4.5017047 40.260464 2.3592815 23 27
-2.6917703 43.02412 1.7562751 9 26
-4.262464 38.12085 -1.7867951 10 12
-2.6870687 42.948975 -2.2552612 13 11
-4.507926 40.316105 4.9810443 38 29
-2.7923646 44.631977 3.6506615 11 28
-6.3372798 39.214275 -1.6183587 14 13
-0.43579033 32.009521 -1.1179007 7 14
-4.4990807 40.237 10.84866 32 31
-4.5947633 41.092728 -0.96216345 17 16
-6.2145529 39.325932 -0.69495487 25 17
-2.5473275 43.130554 -1.2574093 12 15
-0.6228323 5.7519579 -1.6196089 2 1
-0.49071833 8.3086891 -1.6646438 1 2
-4.4520779 41.115665 0 26 20
-0.46501637 45.934536 -0.53479141 10 18
-1.1522312 10.641044 -1.6651758 1 3
-0.82956868 14.045998 -1.7909886 2 4
-6.213522 39.319405 0.23136069 12 21
-2.552608 43.219959 -0.25163263 9 19
-1.8045826 16.665615 -1.8056563 3 5
-0.2213375 21.863823 -2.0410519 2 6
-4.4556084 41.14827 0.963094 20 24
-0.46282998 45.718563 0.53227693 16 22
-3.2380323 29.903755 -2.1032972 6 8
-1.4420353 24.41609 -1.9966843 3 7
-6.2234788 39.382412 1.1603632 7 25
-2.5529695 43.226082 0.75582886 7 23
-5.3385606 33.782619 -2.1919532 15 9
-0.32140541 31.748579 -1.8490535 6 10
-4.3753362 40.40694 2.366956 23 27
-2.5512421 43.196831 1.7629511 9 26
-1.901031 32.18766 -1.6898235 7 11
-4.375298 40.40659 4.9903064 38 29
-2.546773 43.121162 3.5263364 11 28
-6.2178335 39.346691 -1.6229179 14 13
-0.3240605 32.010849 -1.1179007 7 14
-4.3710866 40.367695 10.879718 32 31
-2.6421039 44.735275 8.1706104 24 30
-4.4655099 41.239712 -0.96523422 17 16
-6.0919008 39.442242 -0.69663024 12 17
-2.4045303 43.278904 -1.2614819 12 15
-0.60355425 5.7617588 -1.6217654 2 1
-0.46193191 8.3142672 -1.6654282 1 2
-4.3202076 41.242348 0 26 20
-0.30478799 45.951878 -0.53497761 10 18
-1.1171411 10.664655 -1.6682502 1 3
-0.78251797 14.084464 -1.7955341 2 4
-6.0921164 39.443638 0.23196512 13 21
-2.4088364 43.356407 -0.25237656 19 19
-1.7522019 16.727186 -1.8116537 3 5
-0.14525957 21.900305 -2.0443978 2 6
-4.3248711 41.286865 0.96597868 20 24
-0.30439007 45.891884 0.53427923 16 22
-3.1585782 30.15299 -2.1200387 6 8
-1.358794 24.456799 -1.9996134 3 7
-6.1018462 39.506634 1.1633886 7 25
-2.4102848 43.382477 0.75841177 7 23
-5.2376723 33.911507 -2.1991162 15 9
-0.2113286 31.861315 -1.8555652 7 10
-4.2442565 40.517288 2.3725374 23 27
-2.4042196 43.273315 1.7657192 9 26
-3.993331 38.121861 -1.7854923 20 12
-4.2487116 40.559818 5.0073681 38 29
-2.4033229 43.257172 3.5367513 11 28
-6.0963197 39.470852 -1.6271515 14 13
-0.2124857 32.035767 -1.1187382 7 14
-4.2414298 40.490307 10.908706 33 31
-2.474591 44.539917 8.1333017 24 30
-4.3311205 41.346523 -0.9673745 17 16
-2.2609158 43.430782 -1.265671 12 15
-0.58227295 5.7523327 -1.6185305 2 1
-0.43270081 8.3119125 -1.6646438 1 2
-4.1915154 41.408401 0 26 20
-1.080303 10.672421 -1.6688652 1 3
-0.73437691 14.106923 -1.7980596 2 4
-6.3840461 42.312382 0.24870344 15 21
-2.2645378 43.500362 -0.25316697 9 19
-1.7006068 16.800467 -1.8189365 3 5
-0.068806544 21.900679 -2.0443978 2 6
-4.1911864 41.405155 0.96839803 20 24
-0.14466096 46.044651 0.53604859 16 22
-3.0456619 30.088402 -2.1147373 6 8
-1.2713366 24.421581 -1.9963589 3 7
-6.4297686 42.615425 1.2542675 9 25
-2.2663105 43.534412 0.76092494 7 23
-5.1228313 33.953266 -2.2006512 15 9
-0.10032794 31.933735 -1.8597511 7 10
-4.1152549 40.655018 2.3797467 23 27
-2.2471159 43.165695 1.7609972 9 26
-3.8618355 38.151463 -1.7862368 20 12
-1.6621513 31.928892 -1.6755883 7 11
-4.1182895 40.684998 5.0210171 38 29
-2.2456684 43.137894 3.5263364 23 28
-5.9745927 39.598595 -1.6315479 15 13
-0.10091398 32.120266 -1.1216699 15 14
-4.1187325 40.689373 10.958399 34 31
-2.2509663 43.239658 7.894382 22 30
-4.2016578 41.508598 -0.97081739 17 16
-5.9003072 40.053574 -0.7066828 26 17
-2.1158819 43.574188 -1.2696272 12 15
-0.56218851 5.7543302 -1.6185305 2 1
-0.40387216 8.3172894 -1.6654282 1 2
-4.059772 41.554157 0 13 20
0.016319517 46.736832 -0.54410428 10 18
-1.0430399 10.676127 -1.6688652 1 3
-0.68801314 14.168851 -1.8056357 2 4
-2.120816 43.6758 -0.25414339 9 19
-1.6454279 16.841925 -1.8227919 3 5
0.0076792785 21.992388 -2.0529487 2 6
-4.059062 41.54689 0.97137564 20 24
0.01613237 46.200867 0.53786463 16 22
-2.9246998 29.936024 -2.1032972 6 8
-1.188202 24.469673 -1.999939 3 7
-6.2582369 42.483345 1.2497294 9 25
-2.1220806 43.701843 0.76371729 8 23
-5.0083442 33.998585 -2.2024419 15 9
0.011213388 32.113586 -1.8702163 7 10
-3.9849551 40.788361 2.3867233 23 27
-2.0905991 43.053516 1.7561123 9 26
-3.7402847 38.284016 -1.7918206 20 12
-1.5483551 31.88662 -1.673076 7 11
-3.9885905 40.825573 5.0366168 39 29
-5.8508825 39.718063 -1.6356187 15 13
-3.9931948 40.8727 11.003951 34 31
-4.0648947 41.60659 -0.97277147 8 16
-5.7851415 40.195637 -0.70884693 26 17
-1.9777261 43.720764 -1.2736999 12 15
-0.54346907 5.7599983 -1.6196089 2 1
-0.37647164 8.3225012 -1.6662126 1 2
-3.9328752 41.682877 0 13 20
0.17032036 46.47654 -0.54107761 10 18
-1.0106082 10.711008 -1.6737845 1 3
-0.64157116 14.182945 -1.8071508 2 4
-5.7813668 40.169411 0.23587073 13 21
-1.9817836 43.810463 -0.25488731 9 19
-1.5944368 16.89876 -1.8283609 3 5
0.080477163 21.960381 -2.0499747 2 6
-3.9336889 41.691502 0.97444642 10 24
0.16995391 46.376545 0.53991348 17 22
-2.8325536 30.021036 -2.1085987 6 8
-1.1144539 24.636766 -2.0132828 3 7
-6.0894418 42.30994 1.2440276 9 25
-1.9840455 43.860462 0.76637006 8 23
-4.9052639 34.082176 -2.2067912 15 9
0.1180502 32.213203 -1.8760301 7 10
-3.8613296 40.924595 2.3939326 23 27
-1.9505547 43.120098 1.7585547 9 26
-1.4476825 32.003311 -1.6789377 7 11
-3.8644011 40.95715 5.0512409 39 29
-1.949844 43.104385 3.5224311 23 28
-5.7373867 39.863831 -1.6408292 15 13
0.11841257 32.312088 -1.1283705 16 14
-3.8696382 41.012657 11.038116 35 31
-1.9539436 43.195015 7.8836203 45 30
-3.9427044 41.787052 -0.97667968 8 16
-5.6668334 40.321533 -0.7107318 26 17
-1.8384129 43.862907 -1.2776563 12 15
-0.52576011 5.777113 -1.623922 1 1
-0.34870467 8.3197851 -1.6654282 1 2
-3.8062179 41.823162 0 13 20
0.2998822 42.956043 -0.50010097 9 18
-0.97651356 10.730043 -1.676244 0 3
-0.59569466 14.212747 -1.8106865 2 4
-5.8329368 41.503414 0.24358895 14 21
-1.8420076 43.948673 -0.25565448 9 19
-1.5387456 16.907915 -1.8287892 3 5
0.15377845 22.027695 -2.0562947 2 6
-3.8062754 41.823792 0.97723806 10 24
0.32495612 46.54771 0.54191571 17 22
-2.7261055 29.954762 -2.1032972 6 8
-1.0342453 24.676176 -2.0162117 3 7
-5.9240513 42.15173 1.2387913 8 25
-1.8439355 43.994667 0.76860398 8 23
-4.7977624 34.137783 -2.2093494 15 9
0.22605175 32.380344 -1.8857974 7 10
-3.7360821 41.052502 2.4006767 23 27
-1.811223 43.21418 1.7621369 9 26
-3.4837754 38.280125 -1.7905177 30 12
-1.3231388 31.568924 -1.6559098 13 11
-3.7400646 41.09626 5.0668402 39 29
-1.8123918 43.242065 3.5331712 23 28
-5.6212821 39.997417 -1.6455513 15 13
0.22632475 32.419449 -1.1321397 8 14
-3.7441087 41.140697 11.069173 35 31
-1.8161193 43.331001 7.9072971 46 30
-3.8124363 41.891491 -0.97881985 8 16
-5.5412378 40.452019 -0.71268648 26 17
-1.5650998 40.740688 -1.1865448 10 15
-0.50558949 5.7789135 -1.623922 2 1
-0.31965882 8.3209515 -1.6654282 1 2
-3.6769276 42.027466 0 13 20
0.45050687 43.01873 -0.50084597 9 18
-0.94008338 10.745201 -1.6780888 0 3
-0.54698926 14.238529 -1.8137168 2 4
-5.5593591 40.584309 0.23807925 14 21
-1.4800587 16.917145 -1.8292177 3 5
0.23079969 22.038973 -2.05741 2 6
-3.6741898 41.996174 0.98096013 10 24
0.4892498 46.718273 0.54391801 17 22
-2.6194327 29.940247 -2.1016231 6 8
-0.94809628 24.679638 -2.0162117 3 7
-1.6924917 44.056789 0.76958132 8 23
-4.6839786 34.193874 -2.2119079 15 9
0.34017497 32.483177 -1.8918438 7 10
-3.6028411 41.180656 2.4074206 23 27
-1.6646506 43.332066 1.7666961 9 26
-3.3556933 38.355743 -1.7934957 20 12
-1.2087859 31.465578 -1.6502576 20 11
-3.6079969 41.239586 5.0829268 40 29
-1.6673945 43.403492 3.5458639 23 28
-5.49301 40.099949 -1.6489707 15 13
0.34133917 32.594345 -1.1382819 8 14
-3.6125896 41.292084 11.106443 35 31
-1.6704322 43.482567 7.9338436 46 30
-3.6773264 42.032028 -0.98179758 8 16
-5.3998132 40.52359 -0.71359396 26 17
-0.48376328 5.7730503 -1.6217654 2 1
-0.28943315 8.3299074 -1.6669971 1 2
-3.5579453 42.45919 0 27 20
0.61025774 43.164761 -0.50256884 9 18
-0.90102631 10.752512 -1.6787037 0 3
-0.49604216 14.27613 -1.8182625 2 4
-5.4005442 40.529076 0.23763753 27 21
-1.413574 40.682762 -0.23659138 16 19
-1.4263504 17.021532 -1.8399274 3 5
0.31196415 22.065853 -2.0600126 2 6
-3.5579844 42.459656 0.99147511 10 24
0.66261566 46.868141 0.54568744 17 22
-2.5116842 29.973501 -2.1032972 6 8
-0.85874766 24.714821 -2.0188153 3 7
-5.4062715 40.57206 1.1911992 24 25
-1.5524015 44.67823 0.78033197 8 23
-4.5691733 34.289948 -2.2170243 15 9
0.46001247 32.537609 -1.8950996 7 10
-3.4655628 41.356735 2.4169555 23 27
-1.5104092 43.469688 1.7720695 9 26
-3.221771 38.447414 -1.7972181 10 12
-1.0908223 31.393948 -1.6462801 13 11
-3.4671085 41.375179 5.0980387 40 29
-1.5134338 43.556736 3.5579059 23 28
-5.3618455 40.238659 -1.6538556 15 13
0.46181098 32.664822 -1.1407948 8 14
-3.4715557 41.428249 11.139572 36 31
-1.5161153 43.633911 7.9603901 46 30
-3.5402861 42.248451 -0.98654324 8 16
-5.2459702 40.44701 -0.71191859 13 17
-1.2656581 40.499077 -1.1792139 20 15
-0.46391538 5.7785439 -1.6228437 2 1
-0.26010728 8.3230267 -1.6654282 1 2
-3.4193051 42.590969 0 27 20
0.76425254 43.35033 -0.5047574 9 18
-0.86380112 10.759533 -1.6793187 0 3
-0.44706988 14.305536 -1.821798 2 4
-5.2471948 40.456451 0.23710285 13 21
-1.2670472 40.54353 -0.23575449 16 19
-1.3701037 17.066053 -1.8442113 3 5
0.3893435 22.084543 -2.0618715 2 6
-3.4219003 42.623295 0.99501109 21 24
0.82883334 47.013512 0.54741031 17 22
-2.4070342 29.98209 -2.1032972 6 8
-0.77495557 24.797365 -2.0253246 4 7
-5.2476339 40.459839 1.1873592 15 25
-4.4617643 34.400696 -2.2231643 15 9
0.57662272 32.707493 -1.9050996 7 10
-3.3406622 41.611389 2.4311414 24 27
-1.3626456 43.602528 1.7772801 9 26
-3.1038425 38.661556 -1.8067106 10 12
-0.98022372 31.365623 -1.6446053 13 11
-3.3302753 41.48201 5.1097383 20 29
-1.3654809 43.693253 3.568646 11 28
-5.2331667 40.348293 -1.6576006 15 13
0.57795256 32.782925 -1.1449827 8 14
-3.3374248 41.571064 11.174771 36 31
-1.3683316 43.78447 7.986937 23 30
-3.4042993 42.404053 -0.98989314 9 16
-5.1062613 40.476971 -0.71212798 13 17
-1.1202967 40.359364 -1.1750249 19 15
-0.44403768 5.7839684 -1.623922 1 1
-0.23094586 8.3199635 -1.6646438 1 2
-3.281033 42.738247 0 27 20
0.91885358 43.503349 -0.50657344 9 18
-0.82533258 10.750659 -1.6774739 1 3
-0.39801535 14.338742 -1.8258387 2 4
-5.1084547 40.494362 0.23721908 13 21
-1.121085 40.387764 -0.23482458 16 19
-1.3132669 17.106419 -1.8480668 3 5
0.46701461 22.110922 -2.0644739 2 6
-3.2835121 42.770538 0.99817485 21 24
0.9916591 46.950344 0.54671186 17 22
-2.3035903 30.006222 -2.1044133 6 8
-0.68773335 24.776007 -2.0233719 4 7
-5.1078806 40.489811 1.1877084 7 25
-1.2437798 44.807911 0.7824263 17 23
-4.3531542 34.507149 -2.2290483 16 9
0.69196326 32.761169 -1.9083554 7 10
-3.2082372 41.790016 2.4409087 24 27
-1.2331792 44.426022 1.8106601 19 26
-2.9869225 38.907207 -1.8176919 10 12
-0.86907524 31.308958 -1.6414652 13 11
-3.2264907 42.027786 5.1755476 20 29
-1.2410617 44.709991 3.6513124 11 28
-5.1063075 40.477341 -1.6621598 15 13
0.69541472 32.924583 -1.1500082 16 14
-3.1991048 41.671062 11.198583 18 31
-1.2437761 44.807777 8.1727629 24 30
-3.2660644 42.543266 -0.99287081 9 16
-4.9861493 40.608799 -0.71415246 13 17
-0.98382467 40.254932 -1.171883 9 15
-0.42626664 5.8046165 -1.6293135 1 1
-0.20364377 8.3324461 -1.6669971 1 2
-3.1501379 42.896492 0 27 20
1.0671085 43.664001 -0.50848252 9 18
-0.78823245 10.733627 -1.6743994 1 3
-0.35095182 14.359817 -1.8283639 2 4
-4.9873123 40.618275 0.23784678 14 21
-0.98393148 40.259304 -0.23405741 16 19
-1.2571188 17.11861 -1.8489234 3 5
0.54032999 22.109253 -2.0644739 2 6
-3.1507497 42.904823 1.0010594 21 24
1.1489983 47.014774 0.54750347 17 22
-2.2064176 30.04553 -2.1066456 6 8
-0.60742509 24.853876 -2.0295556 4 7
-4.9877219 40.621609 1.1910828 8 25
-1.0940211 44.763813 0.78158855 8 23
-4.2494102 34.608562 -2.2346766 16 9
0.80654401 33.002213 -1.9225413 7 10
-3.0795913 41.935833 2.4488158 24 27
-2.8599417 38.94479 -1.8189948 10 12
-0.76593578 31.339622 -1.6429305 19 11
-3.0929279 42.117439 5.185297 21 29
-1.1053656 45.227997 3.6932964 11 28
-4.992517 40.66066 -1.6689987 15 13
0.80693012 33.018013 -1.1533586 16 14
-3.1381564 42.733334 -0.99705815 9 16
-4.8471971 40.710205 -0.71561849 13 17
-0.83759469 40.322231 -1.1737449 9 15
-0.4039152 5.7907701 -1.6250004 0 1
-0.17301886 8.329215 -1.6662126 1 2
-3.0003972 43.015491 0 28 20
1.2311947 43.80373 -0.51015884 9 18
-0.74750859 10.71673 -1.6713248 2 3
-0.29856163 14.372908 -1.8298792 2 4
-4.8544745 40.771324 0.23863719 14 21
-0.83344936 40.122673 -0.23324375 16 19
-1.1946399 17.127073 -1.849352 3 5
0.62214983 22.134991 -2.0670762 2 6
-3.0029244 43.051723 1.0042232 21 24
1.3257034 47.16618 0.54931951 17 22
-2.0971055 30.065359 -2.1074827 6 8
-0.51665181 24.87188 -2.0308573 4 7
-4.8529749 40.758728 1.1945738 8 25
-0.93334013 44.931465 0.78445077 8 23
-4.1362133 34.738857 -2.2420957 16 9
0.93031126 33.098827 -1.9283552 7 10
-2.9369717 42.106182 2.458118 36 27
-0.92947149 44.745228 1.8233608 19 26
-0.65213561 31.394138 -1.6456521 13 11
-3.1592562 45.292988 5.5747919 24 29
-0.94040567 45.271603 3.6965511 11 28
-4.8566756 40.78981 -1.673558 15 13
0.93131983 33.134712 -1.1575465 17 14
-3.2632542 46.783962 12.566183 27 31
-0.94326901 45.409447 8.2811022 25 30
-2.9917941 42.892151 -1.0005012 9 16
-4.7229714 40.881824 -0.71834111 13 17
-0.38370043 5.7921443 -1.6250004 0 1
-0.14394519 8.3297682 -1.6662126 1 2
-2.8581681 43.145435 0 28 20
1.3883768 43.935093 -0.51174206 9 18
-0.71088171 10.731105 -1.6731696 2 3
-0.24894054 14.405602 -1.8339198 2 4
-4.7217741 40.871464 0.23912539 14 21
-0.69187802 40.03735 -0.2327323 16 19
-1.1398464 17.206535 -1.8574915 3 5
0.6992811 22.128702 -2.0667045 2 6
-2.8605666 43.181641 1.0070149 32 24
1.5005587 47.485077 0.55309117 17 22
-2.0013831 30.211847 -2.1172485 6 8
-0.43079925 24.929337 -2.0354137 4 7
-4.7262797 40.910461 1.19853 16 25
-0.77919888 45.090405 0.78717339 8 23
-4.0236378 34.828423 -2.2469563 16 9
1.0489881 33.195156 -1.9341691 7 10
-2.7971113 42.223755 2.464397 24 27
-0.77584034 44.896049 1.8293854 19 26
-2.597297 39.207462 -1.8303484 10 12
-0.54386365 31.472107 -1.6496296 6 11
-2.8111458 42.435612 5.221858 21 29
-0.79161263 45.808754 3.7401624 12 28
-4.7261968 40.909744 -1.6777915 15 13
1.0510093 33.259117 -1.1620136 8 14
-3.0950854 46.721817 12.546513 27 31
-0.787552 45.57378 8.3105183 25 30
-2.8481433 42.994106 -1.0026413 9 16
-4.5926905 41.009346 -0.72029573 26 17
-0.36371934 5.7972932 -1.6260786 0 1
-0.11481169 8.3262978 -1.6654282 1 2
-2.7030249 43.083294 0 28 20
1.7639548 50.261646 -0.58549994 11 18
-0.67292094 10.725632 -1.6719397 2 3
-0.1989238 14.426222 -1.8364451 2 4
-4.594203 41.02285 0.23991582 14 21
-0.55276853 40.087517 -0.23301126 8 19
-1.0815159 17.238194 -1.8604902 3 5
-2.7055485 43.123516 1.005433 21 24
1.6712258 47.61945 0.55472088 17 22
-1.8939047 30.186792 -2.1150162 6 8
-0.34448496 24.982512 -2.0396447 4 7
-4.5972314 41.049892 1.2021372 16 25
-3.9135811 34.9454 -2.253608 16 9
1.1718662 33.390835 -1.945797 7 10
-2.6589463 42.380726 2.4730017 24 27
-0.62136656 45.06234 1.8360615 19 26
-2.0345802 32.429008 -1.5135643 6 12
-0.43520546 31.561686 -1.6542351 6 11
-2.6664693 42.500637 5.228683 21 29
-0.63015407 45.699623 3.7310495 11 28
-4.2608662 38.046398 -1.5597403 27 13
1.1724356 33.407059 -1.1673183 8 14
-0.63040614 45.717903 8.3363476 25 30
-2.7042964 43.103561 -1.0049677 9 16
-4.4696202 41.143631 -0.72239 13 17
-0.34494811 5.8061576 -1.6282352 0 1
-0.087197743 8.3266325 -1.6654282 2 2
-2.5601287 43.092022 0 14 20
1.9312472 50.271511 -0.58568621 11 18
-0.63711244 10.72386 -1.6713248 1 3
-0.15149511 14.466478 -1.8414959 2 4
-4.4689293 41.137272 0.24049701 14 21
-0.48105606 45.93671 -0.26699933 10 19
-1.0241053 17.237715 -1.8600616 3 5
0.8508184 22.147306 -2.0689349 5 6
-2.5620449 43.124271 1.0052469 10 24
1.932322 50.299488 0.58601218 18 22
-1.8018289 30.328337 -2.1245031 6 8
-0.26192334 25.011421 -2.0419228 4 7
-4.4740224 41.184155 1.205628 16 25
-0.4793157 45.770519 0.79897118 18 23
-3.8123248 35.093113 -2.2623062 16 9
1.2855096 33.462578 -1.9502155 7 10
-2.5261953 42.520855 2.4806759 24 27
-0.47355068 45.220009 1.8424118 19 26
-0.33207962 31.710741 -1.6619809 6 11
-2.5398686 42.751003 5.258419 21 29
1.2872102 33.506847 -1.1709479 8 14
-2.5320127 42.618774 11.439802 20 31
-0.4795669 45.794506 8.3499794 52 30
-2.5679736 43.224068 -1.0075731 9 16
-4.3381267 41.274326 -0.72441453 13 17
-0.32468274 5.8073258 -1.6282352 0 1
-0.058192343 8.3347311 -1.6669971 2 2
-2.4195483 43.276413 0 14 20
-0.59902078 10.714178 -1.6694801 1 3
-0.10117295 14.490727 -1.8445263 2 4
-4.3382955 41.275936 0.24121769 14 21
-0.32118255 46.002106 -0.2673713 10 19
-0.96394008 17.241182 -1.8600616 3 5
0.92877346 22.160118 -2.0704222 2 6
-2.4197862 43.280674 1.0086898 10 24
2.1088581 50.31641 0.58629155 18 22
-1.7022099 30.445992 -2.1323159 6 8
-0.17493899 25.056038 -2.0455029 4 7
-4.3419666 41.310863 1.2088863 16 25
-0.3204689 45.899891 0.80120504 9 23
-3.6973381 35.177662 -2.266911 16 9
1.4066324 33.561623 -1.956262 7 10
-2.3855855 42.668953 2.4888153 24 27
-0.3168757 45.385246 1.8490877 19 26
-1.7901678 32.019218 -1.4938351 13 12
-0.22216129 31.819557 -1.6676331 6 11
-0.31920451 45.718796 3.7323513 23 28
-3.9997222 38.054642 -1.5589261 27 13
1.4088269 33.613983 -1.1748567 17 14
-2.5771556 46.095402 12.370516 26 31
-0.31982529 45.807705 8.3521318 26 30
-2.4242508 43.360527 -1.0105509 9 16
-4.2069483 41.416546 -0.72664839 13 17
-0.305819 5.835351 -1.6357833 0 1
-0.029123487 8.3427286 -1.668566 2 2
-2.2745299 43.400444 0 14 20
-0.5622353 10.728046 -1.6713248 1 3
-0.050711017 14.526703 -1.849072 2 4
-4.2079225 41.426136 0.2420081 14 21
-0.90478736 17.264303 -1.8622036 3 5
1.0102825 22.248255 -2.0789731 2 6
-2.2760074 43.428635 1.0119467 10 24
2.2846777 50.312744 0.5863381 18 22
-1.5969591 30.471674 -2.1337111 6 8
-0.087580621 25.088388 -2.0481067 4 7
-4.211061 41.457035 1.2127262 16 25
-0.1603318 45.928726 0.80169374 9 23
-3.5850019 35.29361 -2.2735627 16 9
1.5297627 33.688148 -1.9639363 7 10
-2.2439318 42.816597 2.4969549 24 27
-0.1590095 45.549938 1.8557637 19 26
-1.670434 31.873652 -1.4867625 6 12
-0.1116242 31.975924 -1.6757975 7 11
-2.2523811 42.977821 5.284255 21 29
-0.16007507 45.855183 3.743417 12 28
-3.8599863 38.000778 -1.5561581 13 13
1.5330534 33.760616 -1.1801614 17 14
-2.4137976 46.057819 12.358092 26 31
-0.16048922 45.97382 8.382266 26 30
-2.2806115 43.516487 -1.0139937 9 16
-4.0679855 41.563038 -0.72895211 13 17
0.001451807 8.3388567 -1.6677816 2 2
-2.1220734 43.544323 0 14 20
2.1245413 43.284954 -0.50452453 9 18
-0.52310604 10.733981 -1.6719397 1 3
0.0025360438 14.566472 -1.8541228 2 4
-4.0697055 41.580608 0.24282178 14 21
0.0080774752 46.395222 -0.26964957 11 19
-0.84460568 17.331059 -1.8690579 3 5
1.0951338 22.312021 -2.0852933 2 6
-2.1242242 43.588455 1.0154825 10 24
2.4716053 50.355965 0.58694345 18 22
-1.4891555 30.55703 -2.1392915 6 8
0.0043797512 25.156317 -2.0536394 4 7
-4.0711675 41.595543 1.2163334 16 25
0.0080102328 46.008995 0.80308998 9 23
-3.4653492 35.405838 -2.2799587 17 9
1.6588951 33.797977 -1.9706804 7 10
-2.0941873 42.972103 2.5055594 25 27
0.0079574957 45.706089 1.8621141 19 26
-1.5467999 31.739876 -1.4802482 6 12
0.0055803019 32.052013 -1.679775 14 11
-2.1012313 43.116646 5.3003416 44 29
0.0080758156 46.385693 3.7867026 12 28
1.6642214 33.906494 -1.1854662 18 14
0.0080617052 46.304646 8.4425335 26 30
-2.1275337 43.656361 -1.0170645 9 16
-3.9330113 41.684494 -0.73083699 13 17
0.030533299 8.3309555 -1.6662126 2 2
-1.9769197 43.703308 0 14 20
2.325829 44.231888 -0.51565343 10 18
-0.48527423 10.727846 -1.67071 2 3
0.053560875 14.613989 -1.8601835 2 4
-3.9361744 41.718014 0.24354246 14 21
0.17043507 46.502903 -0.27027726 11 19
-0.78481805 17.349792 -1.8707714 3 5
1.1763628 22.371698 -2.0912418 2 6
-1.978011 43.727436 1.0185533 11 24
2.3256192 44.227898 0.51560688 16 22
-1.3840972 30.597919 -2.1418028 6 8
0.092300609 25.184053 -2.0559177 4 7
-3.9383304 41.740868 1.2201734 8 25
0.16901951 46.116669 0.80497479 9 23
-3.3503532 35.509121 -2.2858427 17 9
1.7821132 33.89167 -1.9764943 7 10
-1.9466885 43.035 2.5088151 25 27
0.16814344 45.877632 1.8691156 19 26
-1.4309334 31.633316 -1.4750366 6 12
0.11780789 32.143669 -1.6845899 14 11
-1.9505225 43.119755 5.2998548 44 29
0.17025276 46.453156 3.7922356 12 28
-3.5920899 38.071194 -1.5579493 27 13
1.7909725 34.060154 -1.1910501 18 14
-1.982348 43.823311 -1.0207866 9 16
-3.8081589 41.844673 -0.73341995 13 17
0.058107123 8.3229656 -1.6646438 2 2
-1.8380014 43.853504 0 14 20
2.821703 50.469757 -0.58848006 12 18
-0.44936273 10.721498 -1.6694801 2 3
0.10210947 14.625635 -1.8616987 2 4
-3.8090374 41.854328 0.24426314 15 21
0.29983088 42.946232 -0.24961008 9 19
-0.72960645 17.40793 -1.8767687 3 5
1.2543291 22.435276 -2.0975618 2 6
-1.8401833 43.905563 1.0225546 11 24
-1.2854552 30.670116 -2.1465461 6 8
0.17582041 25.183611 -2.0559177 4 7
-3.8122005 41.889084 1.2241297 8 25
0.32316035 46.287827 0.8079766 9 23
-3.2430646 35.635326 -2.2932618 17 9
2.3204803 41.504749 -2.4209092 11 10
-1.8098094 43.180862 2.5169547 25 27
0.32146287 46.044685 1.8759545 20 26
0.22532868 32.274921 -1.6914982 14 11
-1.8076757 43.129951 5.3003416 44 29
0.32865083 47.074257 3.8430071 12 28
-3.4734178 38.166485 -1.5613687 27 13
1.9135152 34.225658 -1.1970528 9 14
-1.8143655 43.289566 11.609588 42 31
-1.8415231 43.937527 -1.0232991 9 16
-3.6931021 42.212299 -0.73963296 13 17
0.34244674 32.700367 -0.95172596 6 15
0.08728081 8.3344774 -1.6669971 2 2
-1.5720618 40.921818 0 12 20
3.4872098 58.696518 -0.6845423 27 18
-0.41178551 10.719051 -1.6688652 1 3
0.1534912 14.656932 -1.8657393 2 4
-3.693254 42.214039 0.24628568 15 21
0.45119637 43.084911 -0.25042376 9 19
-0.67097801 17.466007 -1.8827661 3 5
1.3347563 22.466541 -2.100908 2 6
-1.6912206 44.023605 1.0251601 11 24
2.6126201 43.975475 0.51285958 16 22
-1.1819185 30.766127 -2.1529639 6 8
0.26418048 25.226694 -2.0594976 4 7
-3.704298 42.340271 1.2369295 8 25
0.48627296 46.434383 0.81055963 9 23
-3.1235328 35.702099 -2.2968435 17 9
2.4672306 41.528286 -2.4227693 11 10
-1.6644435 43.326576 2.5250943 25 27
0.48397681 46.215126 1.8829561 20 26
-1.2088298 31.466646 -1.4668472 18 12
0.33923593 32.393764 -1.6977786 21 11
-1.662609 43.278824 5.3178911 44 29
0.49095491 46.881466 3.8273849 12 28
-3.347842 38.265965 -1.5649508 27 13
2.976784 50.105061 -1.7527924 23 14
-1.6642932 43.322662 11.616835 42 31
0.49214023 46.994652 8.5688095 27 30
-3.56582 42.464062 -0.74382156 28 17
0.4622215 33.10276 -0.96347851 6 15
0.11642604 8.3380442 -1.6677816 2 2
-1.4307526 40.971027 0 12 20
3.1754625 50.472778 -0.58875948 12 18
-0.37436879 10.720423 -1.6688652 2 3
0.2052588 14.69995 -1.8712951 2 4
-3.569315 42.50568 0.247913 15 21
0.60319853 43.199062 -0.25109795 9 19
-0.61236948 17.53581 -1.8900489 3 5
1.4154168 22.497517 -2.1042538 2 6
-1.5410378 44.12915 1.0274864 11 24
2.7583127 43.842342 0.51141608 32 22
-1.0764735 30.825891 -2.1568701 6 8
0.3531774 25.293388 -2.0650306 4 7
-3.5715449 42.532238 1.2421658 17 25
0.65063578 46.596359 0.81342179 9 23
-3.0099204 35.844051 -2.3052859 17 9
2.6254568 41.730644 -2.4350951 11 10
-1.5182215 43.475788 2.5334661 25 27
0.64768445 46.384998 1.8899578 20 26
-1.0963404 31.3948 -1.4633108 18 12
0.45386395 32.504223 -1.7036402 14 11
-1.5162477 43.419266 5.3344655 44 29
-3.2326505 38.496464 -1.5739064 27 13
3.1767552 50.493324 -1.7667521 24 14
-1.5169783 43.440182 11.646858 21 31
0.65550995 46.945435 8.5601997 27 30
-1.4192007 40.640224 -0.94625151 16 16
-3.4219882 42.624344 -0.74640453 14 17
0.1469187 8.3336391 -1.6669971 2 2
-1.3963907 44.682186 0 14 20
3.3577881 50.420895 -0.58829385 12 18
-0.33519468 10.725675 -1.6694801 1 3
0.2599785 14.746708 -1.8773561 2 4
-3.4243724 42.654041 0.24870344 15 21
0.76513374 43.400524 -0.25228357 9 19
-0.54871005 17.557814 -1.8921908 3 5
1.4994584 22.516024 -2.1064847 2 6
2.9152746 43.776066 0.51076418 16 22
-0.96634257 30.921362 -2.1632876 6 8
0.44672966 25.339754 -2.0689359 4 7
-3.4261804 42.676559 1.2460058 18 25
0.82431787 46.757614 0.816284 9 23
-2.890974 36.010021 -2.315263 17 9
2.7887483 41.876133 -2.4441645 12 10
-1.3623462 43.592823 2.5399778 25 27
0.82058984 46.54615 1.8966339 20 26
-0.97975963 31.350685 -1.4610773 12 12
0.57532668 32.634136 -1.7105486 22 11
-1.3616754 43.571358 5.3525019 45 29
0.82712096 46.916615 3.8306396 24 28
-3.100158 38.61562 -1.5783029 42 13
3.3575637 50.417526 -1.7645185 24 14
0.82869095 47.005665 8.5716791 27 30
-1.2671039 40.545227 -0.94392514 8 16
-3.2842104 42.779587 -0.7489177 14 17
0.17584023 8.3252325 -1.6654282 2 2
-1.2441953 44.822742 0 14 20
3.9667382 56.585289 -0.66037542 23 18
-0.29753593 10.718877 -1.6682502 1 3
0.31211975 14.777447 -1.8813967 2 4
-3.285574 42.797344 0.24947061 15 21
0.92024809 43.56955 -0.2532832 9 19
-0.48841533 17.5954 -1.8960463 3 5
1.5822179 22.570246 -2.1120613 2 6
-1.234205 44.462837 1.0350236 11 24
3.5278854 50.325081 0.58731598 18 22
-0.85663605 30.860731 -2.1588235 6 8
0.53542644 25.349998 -2.0699122 4 7
-3.2869933 42.815834 1.2497294 18 25
0.99123353 46.930386 0.81935561 9 23
-2.7710714 36.09552 -2.3201239 17 9
2.9483016 42.05735 -2.4553273 12 10
-1.2403177 44.683052 2.6032329 26 27
0.98634297 46.698841 1.9029841 20 26
-0.86921716 31.313972 -1.459216 18 12
0.69142383 32.735764 -1.7159915 14 11
-1.2126683 43.686966 5.3661513 22 29
0.99483246 47.100777 3.8459361 24 28
-2.9696364 38.681995 -1.5805825 42 13
3.520664 50.222065 -1.7580971 23 14
-1.2154157 43.785942 11.736927 44 31
0.99682814 47.195267 8.6068354 27 30
-1.1196947 40.337543 -0.93899339 16 16
-3.1594751 42.921322 -0.75122142 14 17
0.2021865 8.3324823 -1.6669971 1 2
-1.0214708 41.499432 0 13 20
3.6804307 50.237953 -0.58643126 12 18
-0.26375985 10.715808 -1.6676353 1 3
0.35893214 14.792261 -1.8834169 2 4
-3.1604903 42.935112 0.25021452 16 21
1.0605297 43.706402 -0.2540969 9 19
-0.43489188 17.668411 -1.9037573 3 5
1.6554509 22.596939 -2.1150353 2 6
-1.0991272 44.654385 1.0393971 11 24
3.6833529 50.277843 0.5868969 18 22
-0.76212591 30.962994 -2.1657991 6 8
0.61613411 25.392035 -2.0734923 4 7
-3.1633155 42.973492 1.2540348 18 25
1.1432377 47.114956 0.8226366 9 23
-2.6667345 36.227459 -2.3280547 17 9
3.0932634 42.22311 -2.4655597 12 10
-1.1037554 44.842419 2.6123028 26 27
1.1378106 46.891293 1.9109628 20 26
-0.77171326 31.352499 -1.4608912 18 12
0.79746974 32.865215 -1.7228999 15 11
-1.1019759 44.770123 5.4987454 48 29
1.1471641 47.276772 3.8605819 24 28
-2.8542492 38.774841 -1.5840019 28 13
3.6775615 50.198792 -1.7576783 23 14
-1.0799314 43.874516 11.759703 22 31
1.149114 47.357132 8.6369696 27 30
-0.99000162 40.220928 -0.93620187 16 16
-3.0197101 43.07571 -0.75373459 28 17
0.23148698 8.3395672 -1.668566 1 2
-0.87948513 41.638718 0 13 20
3.8545358 50.208847 -0.58624494 12 18
-0.22643881 10.720614 -1.6682502 1 3
0.41155237 14.826616 -1.8879626 2 4
-3.0187204 43.061592 0.25088871 16 21
-0.37355462 17.685728 -1.905471 3 5
1.7398015 22.662502 -2.1217272 2 6
-0.94629687 44.80188 1.042747 11 24
3.8582098 50.256702 0.58680373 18 22
-0.65615326 31.065197 -2.1727746 6 8
0.70630842 25.44552 -2.0780487 4 7
-3.0225265 43.115887 1.2578747 18 25
1.314563 47.358547 0.82696486 19 23
-2.550597 36.383881 -2.3375204 18 9
3.2568221 42.42308 -2.4778852 12 10
-0.95043314 44.997707 2.62114 26 27
1.3064653 47.066814 1.91829 20 26
-0.66362453 31.418919 -1.4638691 18 12
0.91594738 32.997986 -1.7300174 15 11
-0.94905525 44.932472 5.5182443 48 29
1.3169307 47.443844 3.8745766 24 28
-2.7228034 38.840382 -1.5862815 14 13
3.8708088 50.420818 -1.7659146 24 14
-0.95207632 45.075504 12.080638 48 31
1.3190994 47.521973 8.6678209 28 30
-0.84817117 40.156174 -0.93461996 8 16
-2.8550715 43.098957 -0.75394392 28 17
0.26375663 8.3464575 -1.670135 2 2
-0.72131538 41.741768 0 13 20
4.1061363 50.923256 -0.59476626 13 18
-0.18533869 10.725357 -1.6688652 1 3
0.46998689 14.872519 -1.8940234 2 4
-2.8567805 43.124752 0.25119093 32 21
1.5057071 47.647411 -0.27706558 11 19
-0.30625778 17.722816 -1.9093263 3 5
1.8293724 22.68741 -2.1247015 2 6
-0.7770853 44.969116 1.0465622 11 24
4.0537367 50.273411 0.58717626 18 22
-0.53685927 31.067488 -2.1727746 6 8
0.80627954 25.514345 -2.0839071 4 7
-2.8593197 43.163082 1.258922 27 25
-2.4164062 36.477047 -2.3428926 18 9
3.4293292 42.529667 -2.4848619 12 10
-0.78025848 45.15274 2.629977 26 27
1.4929972 47.245205 1.9257802 10 26
-0.54359353 31.45719 -1.4655443 6 12
1.0465628 33.117996 -1.7365072 15 11
-0.77925313 45.094566 5.5377436 48 29
1.5046439 47.613762 3.8888965 24 28
-2.8504982 43.029915 -1.7569264 17 13
-0.78291976 45.306747 12.14172 24 31
1.5075381 47.705349 8.70226 28 30
-2.7013645 43.05677 -0.75303644 14 17
0.29288787 8.3454857 -1.670135 2 2
-0.57754403 41.884018 0 26 20
4.2858682 50.932533 -0.59504563 13 18
-0.14801033 10.733843 -1.670095 2 3
0.523009 14.902511 -1.898064 2 4
-2.7019808 43.066593 0.25079572 16 21
1.7646018 50.280201 -0.29240903 13 19
-0.24488895 17.759569 -1.9131818 3 5
1.9132258 22.73645 -2.1299064 2 6
-0.62199306 45.107502 1.0497259 11 24
4.0688753 48.353825 0.56491852 17 22
-0.42566594 30.86968 -2.1588235 6 8
0.89686918 25.555204 -2.0874872 4 7
-2.7033865 43.088997 1.2564783 9 25
1.6766918 47.775307 0.83443451 20 23
-2.2930703 36.549007 -2.3469861 18 9
3.5961721 42.736298 -2.4976525 12 10
-0.62485301 45.314907 2.6392794 26 27
1.6751367 47.730995 1.9458083 31 26
-0.43709621 31.698614 -1.4767118 6 12
1.1671965 33.257854 -1.7440436 15 11
-0.62414753 45.263744 5.5582175 49 29
1.6776793 47.803448 3.904844 24 28
-2.7010384 43.051571 -1.7574148 17 13
-0.62637258 45.425106 12.172777 25 31
1.6814947 47.912163 8.741003 28 30
-2.5550606 43.133812 -0.75422323 14 17
1.3124145 34.008278 -0.99047446 6 15
0.32171699 8.3365736 -1.668566 2 2
-0.43289208 42.037773 0 27 20
4.4646912 50.929214 -0.59518534 13 18
-0.11053847 10.734295 -1.670095 1 3
0.5770185 14.952141 -1.9046299 2 4
-2.5556431 43.143646 0.25119093 16 21
1.9416575 50.313698 -0.29264149 13 19
-0.1834636 17.81599 -1.9191792 3 5
1.996411 22.773275 -2.133996 2 6
-0.46604636 45.257355 1.0531689 11 24
4.4339533 50.578583 0.59108764 19 22
-0.31789988 30.870979 -2.1588235 6 8
0.98484486 25.520046 -2.0848835 4 7
-2.5595696 43.20993 1.2597364 9 25
1.8508642 47.960991 0.8377853 20 23
-2.1616893 36.493031 -2.3428926 18 9
3.7592881 42.882603 -2.5069549 12 10
-0.46830338 45.476532 2.6485815 26 27
1.8485329 47.900581 1.9529727 21 26
-0.32808208 31.859766 -1.4841567 6 12
1.2868328 33.345383 -1.7488585 15 11
-0.46768528 45.416508 5.5767417 49 29
1.851773 47.984543 3.9201407 24 28
-1.9050728 32.1609 -1.3125658 9 13
-0.474915 46.11858 12.358092 26 31
1.8570881 48.122272 8.7804651 28 30
-2.4127445 43.290215 -0.75680614 14 17
0.35080937 8.3354006 -1.668566 2 2
-0.28724122 42.195026 0 27 20
4.6416788 50.905357 -0.59509224 13 18
-0.073102437 10.738568 -1.67071 1 3
0.63036537 14.977788 -1.9081655 2 4
-2.4161875 43.35199 0.25235331 16 21
2.1142113 50.234688 -0.29222304 13 19
-0.12147487 17.84436 -1.9221779 3 5
2.0758767 22.766169 -2.133996 2 6
-0.30910429 45.406662 1.0566119 11 24
4.6264248 50.738064 0.59313649 19 22
1.0760822 25.568237 -2.0891144 4 7
-2.4167633 43.36232 1.2639256 18 25
2.0264754 48.15004 0.84120595 20 23
-1.8226221 32.702053 -2.0990865 13 9
3.9248786 43.044197 -2.5171871 12 10
-0.31067654 45.637619 2.6578836 27 27
2.0232556 48.073536 1.9603 21 26
-0.21792433 32.012547 -1.4912294 6 12
1.4072303 33.436474 -1.7538828 7 11
-0.31026161 45.576668 5.5962405 50 29
2.0272727 48.16898 3.9357626 24 28
-1.7832575 31.995762 -1.305564 9 13
2.0326333 48.296356 8.813468 29 30
-2.2844696 43.445351 -0.7593891 14 17
0.3771776 8.3381739 -1.6693505 2 2
-0.15511715 42.323715 0 13 20
4.8008676 50.882557 -0.59499907 13 18
-0.039444596 10.762458 -1.6743994 1 3
0.67922086 15.01537 -1.9132161 2 4
-2.2858293 43.47121 0.25300425 16 21
2.2756708 50.307705 -0.29268798 13 19
-0.065415546 17.848631 -1.9226065 3 5
2.1552622 22.842798 -2.1418033 2 6
-0.16725433 45.635342 1.0619159 11 24
4.7929773 50.798931 0.59402126 19 22
-0.11314791 30.872408 -2.1588235 6 8
1.1591238 25.62447 -2.0939963 4 7
-2.2863703 43.481495 1.2671837 18 25
2.1081896 46.60524 0.81432933 9 23
-1.716498 32.643837 -2.0949934 13 9
4.0815005 43.258259 -2.530443 12 10
-0.16793862 45.822052 2.6685812 27 27
2.1820755 48.238617 1.9673017 21 26
-0.11735775 32.021061 -1.4916016 6 12
1.52204 33.647369 -1.7651873 7 11
-0.1676386 45.740192 5.6162276 50 29
2.187094 48.349556 3.9510591 24 28
-1.672843 31.81362 -1.297911 8 13
4.7900071 50.767448 -1.7807119 25 14
-0.16799952 45.838669 12.282516 51 31
2.1929231 48.47842 8.8479071 29 30
-2.1246533 43.597614 -0.76190227 14 17
1.6766973 34.1604 -0.9953618 6 15
0.40918911 8.3366652 -1.6693505 2 2
0.0074138418 42.488003 0 13 20
4.9985409 50.88763 -0.59527844 13 18
0.0018800509 10.774387 -1.676244 1 3
0.73978496 15.072102 -1.9207923 2 4
-2.1249413 43.603519 0.25372493 16 21
2.1703563 44.218025 -0.25730506 10 19
0.0031207206 17.884544 -1.9264618 3 5
2.2468445 22.873993 -2.1455212 2 6
0.0079909936 45.795605 1.0656379 11 24
4.8413591 49.287441 0.5765596 17 22
0.0053835614 30.852663 -2.1574283 6 8
1.2604315 25.67956 -2.0988781 4 7
-2.1264133 43.633724 1.2713727 19 25
2.2849572 46.55286 0.81356138 9 23
-1.5973676 32.777779 -2.1031799 13 9
4.2631745 43.401234 -2.5397451 13 10
0.0080214432 45.970108 2.6771858 27 27
2.3870599 48.633064 1.9837474 10 26
1.6553297 33.725063 -1.7695835 8 11
0.0080097821 45.903275 5.6362138 50 29
2.3822918 48.535919 3.9670064 24 28
-1.5469865 31.743963 -1.2948173 8 13
5.0235806 51.142544 -1.7945322 25 14
0.0080120461 45.916252 12.303223 51 31
2.4027677 48.953087 8.9361572 29 30
-1.978249 43.732613 -0.76413614 14 17
3.1007679 58.969536 -1.7185525 40 15
0.43869716 8.3430195 -1.6709194 2 2
0.15611133 42.595715 0 13 20
5.7583642 56.591938 -0.662238 24 18
0.039530829 10.786173 -1.6780888 1 3
0.79363894 15.093203 -1.9238228 2 4
-1.9794207 43.758514 0.25458509 16 21
2.6426785 50.257721 -0.29250202 13 19
0.065735072 17.936125 -1.9320309 3 5
2.3339279 22.937332 -2.1522131 2 6
0.16833597 45.931267 1.0688018 11 24
5.0125542 49.26228 0.57646644 17 22
0.11333606 30.924282 -2.1624508 6 8
1.3511037 25.69491 -2.1005054 4 7
-1.9804232 43.780678 1.2754453 9 25
-1.4860157 32.850945 -2.1075289 13 9
4.4320197 43.556915 -2.5497451 13 10
0.16909188 46.13752 2.6869533 27 27
2.5702279 48.879871 1.9941685 21 26
0.1179415 32.180897 -1.4990468 19 12
1.783103 33.910553 -1.7796321 8 11
0.16885793 46.073685 5.6571755 51 29
2.5621562 48.726368 3.9832795 24 28
-1.4318423 31.653347 -1.2909094 8 13
0.1687896 46.055038 12.340493 26 31
2.584779 49.156605 8.9749002 30 30
-1.8315737 43.883102 -0.76664931 14 17
0.46825856 8.3492699 -1.6724885 2 2
0.30552423 42.694908 0 13 20
5.9462543 56.479996 -0.66116697 24 18
0.077269107 10.797826 -1.6799335 1 3
0.84898943 15.137879 -1.9298836 2 4
-1.8336568 43.93301 0.2555615 17 21
2.8174362 50.23621 -0.29243228 26 19
0.12851901 17.959648 -1.9346013 3 5
2.4110668 22.901316 -2.1496105 2 6
0.329965 46.110336 1.0729891 11 24
5.4374366 51.647038 0.60459131 20 22
0.2215751 30.963596 -2.165241 6 8
1.4414638 25.701977 -2.1014817 4 7
-1.8347458 43.959103 1.280449 9 25
-1.3748221 32.939686 -2.1129014 13 9
4.6087141 43.775482 -2.5634658 13 10
0.33138195 46.30835 2.6969531 27 27
2.7500231 49.034203 2.0008445 21 26
0.23113948 32.300152 -1.5046304 19 12
1.9119837 34.091568 -1.7894711 8 11
0.3309181 46.243526 5.6781368 51 29
2.7436256 48.920132 3.9998779 24 28
0.33329546 46.575748 12.480254 27 31
2.7609923 49.229786 8.9899673 30 30
0.23438932 32.754295 -0.7621935 11 16
-1.5732601 40.767441 -0.71212798 13 17
2.985374 50.398289 -1.4693047 18 15
0.49471658 8.3516731 -1.6732728 2 2
0.44013876 42.741737 0 13 20
6.1003633 56.246315 -0.65865248 23 18
0.1112297 10.801482 -1.6805484 1 3
0.89794725 15.158905 -1.932914 2 4
-1.5793345 40.924847 0.23803276 14 21
2.9759438 50.23909 -0.29250202 26 19
0.18530536 17.994946 -1.9384567 3 5
2.4950216 23.004496 -2.1600204 2 6
0.47670853 46.293018 1.0772696 11 24
5.623806 51.852383 0.60719895 20 22
0.31830889 30.910877 -2.1616135 13 8
1.5259689 25.761 -2.1066892 4 7
-1.6984941 44.012596 1.2818453 9 25
-1.4237332 36.892796 -2.3661733 18 9
4.7681665 43.963253 -2.5753262 13 10
0.47870371 46.486767 2.707418 27 27
2.9151535 49.212841 2.0084975 22 26
0.33367574 32.403149 -1.5094697 19 12
2.0278091 34.232933 -1.7972169 8 11
0.47790289 46.409 5.6986108 52 29
2.9090767 49.110256 4.0161505 25 28
-1.2160202 31.510387 -1.2847219 17 13
5.7974877 53.453754 -1.8775929 93 14
3.0794439 51.986351 9.4950695 30 30
0.3373237 32.757401 -0.7622866 5 16
3.1715679 50.41095 -1.4700029 18 15
0.52532184 8.3498049 -1.6732728 2 2
0.59482795 42.599854 0 13 20
6.2962084 56.13216 -0.65758157 23 18
0.15098152 10.812859 -1.6823932 1 3
0.95698613 15.210955 -1.939985 2 4
-1.4254271 40.818428 0.23738182 13 21
3.1610527 50.243813 -0.292595 26 19
0.25136593 18.0021 -1.9393137 3 5
2.5779836 22.983322 -2.158905 2 6
0.64882404 46.466896 1.0813638 11 24
5.8343139 52.014263 0.60934091 20 22
1.622875 25.795021 -2.1099436 4 7
-1.5465273 44.286243 1.2896415 9 25
-1.2875377 36.869839 -2.3643825 18 9
4.9510694 44.139931 -2.5867214 13 10
0.65158147 46.664379 2.7178831 27 27
3.1123109 49.469078 2.019407 22 26
0.45415914 32.525562 -1.5152396 20 12
2.7963507 44.447006 -2.3339744 14 11
0.65048122 46.585579 5.7205477 52 29
3.101311 49.294235 4.0320983 25 28
-1.0998303 31.494659 -1.2839078 17 13
6.0931697 54.322021 -1.9088629 66 14
0.65434307 46.862156 12.5579 27 31
3.2699513 51.974716 9.4950695 30 30
-1.2745856 40.557804 -0.70828849 13 17
3.3488541 50.419518 -1.4705846 18 15
0.55498695 8.3557463 -1.6748418 2 2
0.74395561 42.62151 0 13 20
6.4778719 55.986675 -0.65613806 23 18
0.18914124 10.835976 -1.6860826 1 3
1.0095545 15.199603 -1.938975 2 4
-1.2784017 40.679234 0.23654489 13 21
3.3364305 50.232471 -0.292595 26 19
0.31462467 18.024971 -1.9418838 3 5
2.6646094 23.029572 -2.1641097 2 6
0.81424242 46.648266 1.0856442 11 24
5.8002486 50.130142 0.58750224 18 22
0.53914559 30.887861 -2.1602185 13 8
1.7139702 25.805111 -2.1112456 4 7
-1.1628327 37.001785 -2.3725691 18 9
5.1257815 44.300884 -2.5971866 13 10
0.81740594 46.829506 2.7276504 27 27
3.2971687 49.641354 2.0268972 22 26
0.56986207 32.647621 -1.5210093 20 12
2.9504359 44.421032 -2.333137 14 11
0.8164295 46.773563 5.7439466 52 29
3.286849 49.485985 4.0486965 25 28
-0.98899961 31.470346 -1.2827679 17 13
6.1247091 52.934376 -1.8608413 30 14
0.82096529 47.033424 12.604487 55 31
3.3186257 49.964409 9.1298752 30 30
-1.1284152 40.398087 -0.70542628 12 17
3.5242863 50.39954 -1.4703519 18 15
0.89056128 42.514679 0 13 20
6.6529131 55.792934 -0.65413576 22 18
0.22688483 10.831299 -1.6854678 1 3
1.0673144 15.263277 -1.9475611 2 4
-1.132477 40.543503 0.23573123 13 21
3.5120468 50.224506 -0.29261824 26 19
0.37796286 18.043642 -1.9440258 3 5
2.7497032 23.059677 -2.1678276 2 6
0.98043269 46.805065 1.0893663 11 24
6.2588906 52.488571 0.61539423 21 22
0.64822274 30.945631 -2.1644039 13 8
1.8054339 25.818855 -2.1128728 4 7
-1.2444371 44.551754 1.2970887 10 25
3.4607961 49.491592 0.86598843 10 23
5.3021512 44.465122 -2.6078842 13 10
0.98464227 47.006027 2.7381155 28 27
3.4829884 49.808952 2.0342245 22 26
0.68583709 32.741306 -1.5254763 20 12
3.1288939 44.745178 -2.3507218 14 11
0.98353183 46.953014 5.7663703 53 29
3.4732072 49.669079 4.0646439 25 28
-0.87902153 31.46961 -1.2826052 8 13
6.2976279 52.813431 -1.8573512 30 14
0.98515016 47.030273 12.604487 55 31
3.500988 50.06636 9.1506815 30 30
-0.98378575 40.253849 -0.70284337 25 17
0.61359483 8.3555803 -1.6756263 14 2
1.0395372 42.535301 0 13 20
6.8276286 55.606613 -0.65222669 22 18
0.26507574 10.846246 -1.6879274 1 3
1.1226176 15.287159 -1.9510967 2 4
-0.98733944 40.399254 0.23487107 13 21
3.6893814 50.239868 -0.292781 26 19
0.44259268 18.109802 -1.9513084 3 5
2.8321164 23.065752 -2.1693149 2 6
1.1485844 46.997242 1.093926 11 24
6.4722815 52.71254 0.61828125 21 22
0.75818253 31.022961 -2.1699843 6 8
1.8996296 25.868061 -2.1174293 4 7
-1.0928316 44.71571 1.3017431 10 25
3.5781627 48.725353 0.85279441 10 23
5.4836001 44.66037 -2.6204422 13 10
1.1530983 47.181946 2.7485805 28 27
3.6685305 49.955929 2.0407376 11 26
0.80362904 32.882519 -1.5321769 20 12
3.2754011 44.60252 -2.3438137 14 11
1.1514866 47.115993 5.7868443 53 29
3.6620281 49.867386 4.0818934 13 28
-0.76995444 31.50445 -1.2839078 8 13
6.8132138 55.489212 -1.9522779 36 14
1.1519437 47.134701 12.633476 56 31
3.6878245 50.218666 9.1808157 30 30
-0.83350939 40.125237 -0.70053965 38 17
3.8697581 50.1777 -1.4646503 18 15
0.64421362 8.3532763 -1.6756263 18 2
1.197331 42.599178 0 13 20
7.0183277 55.478039 -0.651016 22 18
0.30504712 10.853104 -1.6891572 1 3
1.1807728 15.310637 -1.9546322 2 4
-0.83636361 40.262638 0.23405741 13 21
4.4077258 57.153324 -0.33316216 19 19
0.50929666 18.119984 -1.9525934 3 5
2.9211314 23.090776 -2.1726608 2 6
1.3248645 47.136623 1.0972759 11 24
6.6995645 52.958298 0.62144762 22 22
0.87434185 31.107725 -2.1761229 7 8
1.9996337 25.928499 -2.122962 4 7
-0.93251359 44.891308 1.3067468 10 25
3.7481046 48.600266 0.85083973 10 23
-0.65642428 31.600338 -2.0256634 12 9
5.6788163 44.889553 -2.6350932 14 10
1.3308351 47.349045 2.7585804 28 27
3.8731043 50.221088 2.0521357 24 26
0.92761683 33.003166 -1.5379467 21 12
3.8258538 49.60841 -2.6075869 17 11
1.3292882 47.294014 5.8092685 54 29
3.8622391 50.080204 4.1004443 13 28
6.7757106 53.560211 -1.885271 31 14
1.3295678 47.303959 12.680062 56 31
3.8721519 50.20874 9.1815338 30 30
-0.70539254 40.011692 -0.69851512 25 17
4.0808249 50.830868 -1.4840827 20 15
0.6704554 8.3512115 -1.6756263 25 2
1.3316661 42.611202 0 13 20
7.1709905 55.289124 -0.64906031 22 18
0.33926815 10.856042 -1.6897721 1 3
1.2307763 15.330584 -1.9576626 2 4
-0.70767379 40.141087 0.23333673 13 21
4.5888729 57.15913 -0.33327839 19 19
0.56746709 18.158047 -1.9568775 3 5
3.0049345 23.168375 -2.1808398 2 6
6.6241245 51.072727 0.59956235 19 22
0.97494078 31.196558 -2.1825407 7 8
2.0820451 25.934011 -2.1239383 4 7
-0.79343969 45.005951 1.3100049 10 25
3.8908606 48.464668 0.84867561 10 23
-0.55537784 31.502468 -2.0192676 11 9
5.8475609 45.085339 -2.6476512 14 10
1.4848319 47.512264 2.7683477 28 27
4.0299144 50.196724 2.0516472 23 26
1.0355476 33.13588 -1.5442749 21 12
3.9759448 49.524479 -2.6038187 17 11
1.4835781 47.472145 5.8316922 54 29
4.0374317 50.290363 4.11867 14 28
-0.55683088 31.584888 -1.2870015 17 13
6.703835 51.687305 -1.8200786 27 14
1.4839773 47.484917 12.729756 57 31
4.0336614 50.243401 9.1901436 30 30
-0.56589949 40.025906 -0.69872457 12 17
4.2605596 50.844204 -1.4848973 20 15
0.70025575 8.356637 -1.6771951 27 2
1.4798342 42.590302 0 13 20
7.3427992 55.105171 -0.64719772 21 18
0.3781192 10.882442 -1.6940765 1 3
1.2859361 15.345965 -1.960188 2 4
-0.56535411 39.987328 0.23243006 13 21
4.78368 57.086964 -0.33295295 19 19
0.63098133 18.159929 -1.9573058 3 5
3.0899928 23.189329 -2.1838138 2 6
1.6403747 47.210728 1.0992299 23 24
7.1119332 53.372604 0.62684911 22 22
1.085903 31.252781 -2.1867259 7 8
2.1758828 25.966314 -2.127193 4 7
-0.63939655 45.224331 1.3162885 10 25
4.1785574 49.865616 0.87345809 11 23
-0.44750497 31.651896 -2.0287333 12 9
6.0270462 45.2309 -2.6574187 14 10
1.6570402 47.690369 2.7790453 28 27
4.2197833 50.357594 2.0588117 24 26
1.156195 33.275818 -1.5509754 21 12
4.1584563 49.625736 -2.6098897 17 11
1.6560233 47.661102 5.8555789 55 29
4.2289228 50.46666 4.1342921 15 28
-0.44765589 31.662569 -1.2900952 17 13
6.8847337 51.667549 -1.8202182 27 14
1.6560173 47.660931 12.778414 58 31
4.2379251 50.574093 9.2532806 30 30
-0.47337502 45.96656 -0.80239183 15 17
4.4735513 51.030605 -1.4908316 20 15
0.73302084 8.361701 -1.6787641 24 2
1.6445822 42.61628 0 13 20
7.5358405 54.941841 -0.6456145 21 18
0.42020422 10.888809 -1.6953063 1 3
1.3486589 15.384396 -1.9657438 2 4
-0.41029468 39.841213 0.2315699 12 21
4.465589 50.939777 -0.29719803 13 19
0.70116144 18.169292 -1.9585909 3 5
3.1833346 23.208858 -2.1867883 2 6
1.8160759 47.060223 1.09588 23 24
7.3537631 53.614361 0.63001543 23 22
1.2085054 31.316166 -2.1914694 7 8
2.2773046 25.977625 -2.1288202 4 7
-0.46764719 45.410366 1.3216412 10 25
4.3598561 49.733665 0.87143356 11 23
-0.32700199 31.753168 -2.0351291 12 9
6.2261686 45.393368 -2.6683488 14 10
1.8472177 47.867207 2.7897429 28 27
4.4319468 50.556015 2.0676045 25 26
1.2876465 33.366959 -1.5554425 21 12
4.350009 49.621338 -2.6105177 17 11
1.8463537 47.844814 5.8789778 55 29
4.4435468 50.688339 4.1538196 15 28
-0.32711315 31.763964 -1.294166 17 13
7.4209428 54.104153 -1.9070481 33 14
1.8431703 47.762321 12.807402 29 31
4.4561281 50.831856 9.303504 30 30
-0.31271631 45.939941 -0.80190319 15 17
5.2391171 57.457214 -1.6791056 37 15
0.76256251 8.3629971 -1.6795485 25 2
1.7911557 42.558327 0 13 20
7.6863484 54.622108 -0.64216876 21 18
0.45854604 10.895173 -1.6965361 1 3
1.4102833 15.466529 -1.9768554 3 4
-0.31284034 45.958164 0.26711559 18 21
