# .PCD v0.7 - Point Cloud Data file format
VERSION 0.7
FIELDS x y z intensity ring
SIZE 4 4 4 4 2
TYPE F F F F U
COUNT 1 1 1 1 1
WIDTH 1279
HEIGHT 1
VIEWPOINT 0 0 0 1 0 0 0
POINTS 1279
DATA ascii
-7.8225327 -6.8216276 -1.6147531 0 3
-10.037741 -7.9244876 -1.6278499 6 4
-69.684937 -67.035904 0.56198889 30 21
-11.006355 -9.5980759 -1.5730416 5 5
-14.313583 -10.206013 -1.6410205 1 6
-14.663931 -12.78766 -1.3605303 2 8
-15.601834 -12.317168 -1.6227331 2 7
-69.947647 -67.288635 2.8246908 30 25
-13.34829 -12.840863 -1.187052 3 9
-18.126322 -12.924609 -1.2965003 3 10
-14.728988 -12.844392 -0.91033494 2 12
-16.315765 -12.880795 -1.0894254 3 11
-13.330024 -12.823291 -0.75357324 2 13
-18.123192 -12.922378 -0.77728158 3 14
-2.7704687 -2.1715446 -1.6414495 1 0
-70.273422 -67.131287 -1.6963739 32 17
-89.033501 -69.786102 -3.2922339 29 15
-4.3795352 -3.7923353 -1.6217654 1 1
-6.4210329 -5.0329242 -1.631696 1 2
-84.387161 -73.072685 0 63 20
-7.8462963 -6.7942791 -1.6147531 0 3
-10.105941 -7.9212232 -1.6344159 6 4
-70.352356 -67.206696 0.565476 30 21
-84.955109 -66.589378 -0.6273613 30 19
-11.021752 -9.5439758 -1.5704712 5 5
-14.336121 -10.146785 -1.6395335 1 6
-14.786907 -12.804306 -1.367785 2 8
-15.657287 -12.27247 -1.624035 2 7
-70.372917 -67.226334 2.8323708 30 25
-13.442101 -12.841064 -1.1914011 3 9
-18.200663 -12.88202 -1.2985933 3 10
-14.828104 -12.839979 -0.9136852 2 12
-16.429794 -12.877975 -1.094031 3 11
-13.435393 -12.834657 -0.75699264 2 13
-18.249763 -12.916773 -0.78077155 4 14
-2.7719333 -2.1578913 -1.6380684 1 0
-70.785759 -67.17318 -1.703355 31 17
-87.084328 -67.793304 -3.2118278 29 15
-4.3950081 -3.780303 -1.6228437 1 1
-6.4345913 -5.0091929 -1.6309115 1 2
-7.8687849 -6.7682223 -1.6147531 0 3
-10.169726 -7.9169164 -1.6404768 4 4
-70.763428 -67.151985 0.5669871 30 21
-88.012955 -68.51622 -0.64826095 30 19
-11.071433 -9.522934 -1.5730416 5 5
-14.379463 -10.106056 -1.6406487 1 6
-14.932143 -12.843669 -1.3772719 2 8
-15.697898 -12.220481 -1.624035 2 7
-70.908691 -67.289833 2.844938 30 25
-13.574371 -12.881598 -1.1993319 3 9
-18.370695 -12.911141 -1.307663 3 10
-14.96754 -12.874115 -0.9196412 2 12
-16.535448 -12.872496 -1.0982178 3 11
-13.57645 -12.883571 -0.76252884 2 13
-18.410238 -12.938931 -0.78579706 4 14
-2.7798238 -2.147717 -1.6380684 1 0
-86.595016 -66.904091 -3.1847153 29 15
-4.408834 -3.7641692 -1.6228437 1 1
-6.459116 -4.9903712 -1.6324805 1 2
-7.890533 -6.7367706 -1.6141382 0 3
-10.239495 -7.9111271 -1.6470428 4 4
-11.106261 -9.4822922 -1.5730416 5 5
-14.409874 -10.048729 -1.6399053 1 6
-15.027672 -12.830309 -1.3817362 2 8
-15.758359 -12.175051 -1.6256623 2 7
-84.599319 -65.362198 1.8660811 44 23
-13.606965 -12.818072 -1.1980526 3 9
-18.496506 -12.898542 -1.3132443 3 10
-15.090593 -12.88403 -0.92429423 2 12
-16.648899 -12.86309 -1.102614 3 11
-13.678854 -12.885794 -0.76562262 2 13
-18.510004 -12.907955 -0.78803068 4 14
-2.8038113 -2.1522174 -1.6482112 0 0
-4.4206376 -3.7502995 -1.6228437 1 1
-6.4685388 -4.9652777 -1.6309115 1 2
-7.9116588 -6.7119479 -1.6141382 0 3
-10.308365 -7.9127445 -1.6541138 4 4
-86.970154 -66.758659 -0.6372183 30 19
-11.135997 -9.4473524 -1.5730416 2 5
-14.457744 -10.014749 -1.6417642 1 6
-15.107461 -12.816591 -1.3853636 2 8
-15.752255 -12.091497 -1.6211059 2 7
-13.73168 -12.854373 -1.2054719 3 9
-18.632132 -12.906311 -1.3199884 4 10
-15.164513 -12.864991 -0.92634165 2 12
-16.77478 -12.876391 -1.1082664 3 11
-13.739693 -12.861875 -0.76676238 2 13
-18.68191 -12.940791 -0.79361457 4 14
-2.8005185 -2.1326506 -1.6414495 0 0
-4.4350052 -3.7332978 -1.6228437 1 1
-6.4937983 -4.9451566 -1.6324805 2 2
-7.9283004 -6.673883 -1.6122936 0 3
-10.373398 -7.8995495 -1.6596696 4 4
-11.169147 -9.4019632 -1.5726132 2 5
-14.476396 -9.9456301 -1.6395335 1 6
-15.269511 -12.853566 -1.3956876 2 8
-15.823941 -12.050247 -1.6237096 2 7
-13.854052 -12.869473 -1.2118675 3 9
-18.803333 -12.918339 -1.328593 4 10
-15.265764 -12.850412 -0.92950577 2 12
-16.944862 -12.90385 -1.1162214 3 11
-13.911964 -12.923269 -0.77360129 2 13
-18.817129 -12.927817 -0.79724413 4 14
-2.8108368 -2.1250489 -1.64314 0 0
-4.4450536 -3.7153249 -1.6217654 1 1
-6.5110188 -4.9224601 -1.6324805 2 2
-7.9606452 -6.6537747 -1.6141382 0 3
-10.423063 -7.8800445 -1.6632051 2 4
-11.198845 -9.3603706 -1.5721848 2 5
-14.497859 -9.8860645 -1.6380464 1 6
-15.36633 -12.843695 -1.4004309 2 8
-15.862724 -11.992537 -1.6233841 2 7
-13.898887 -12.821037 -1.2118675 3 9
-18.897797 -12.886374 -1.3320813 4 10
-15.423959 -12.891862 -0.93639231 2 12
-17.024849 -12.871126 -1.1185242 3 11
-13.954047 -12.871921 -0.77343839 2 13
-18.934799 -12.911606 -0.80031526 4 14
-2.8117023 -2.1118526 -1.6397589 0 0
-4.4596677 -3.7038016 -1.6228437 1 1
-6.5201797 -4.8972678 -1.6309115 2 2
-7.9845514 -6.6312551 -1.6147531 1 3
-10.454115 -7.8520222 -1.6642152 2 4
-11.243496 -9.3378429 -1.5743268 2 5
-14.538742 -9.847167 -1.6391618 1 6
-84.088127 -69.83609 2.5434988 30 24
-15.425026 -12.810649 -1.4021051 2 8
-15.919452 -11.957004 -1.6253369 2 7
-84.362022 -63.363808 1.8416477 44 23
-14.05092 -12.879806 -1.2215891 3 9
-19.073744 -12.918748 -1.3416162 4 10
-15.495125 -12.868867 -0.93825364 2 12
-17.154633 -12.884742 -1.1243858 3 11
-14.044507 -12.873927 -0.77620649 2 13
-19.051397 -12.903612 -0.80352598 4 14
-2.8248692 -2.10636 -1.64314 1 0
-4.4666247 -3.6833117 -1.6206871 1 1
-6.5340905 -4.8721356 -1.6301271 2 2
-8.0015497 -6.5983162 -1.6135232 2 3
-10.487822 -7.8202295 -1.6652254 2 4
-11.288295 -9.3086634 -1.5760403 2 5
-14.576329 -9.798583 -1.6395335 1 6
-15.549689 -12.822737 -1.4093598 2 8
-15.970679 -11.908516 -1.6263132 2 7
-14.122359 -12.854868 -1.2238916 3 9
-19.218143 -12.918929 -1.3485929 4 10
-15.576942 -12.84521 -0.94048715 2 12
-17.257145 -12.867766 -1.128154 3 11
-14.172114 -12.900157 -0.78076571 2 13
-19.199167 -12.906173 -0.80785352 4 14
-2.8263767 -2.0921726 -1.6397589 0 0
-4.4824357 -3.6701381 -1.6217654 1 1
-6.557363 -4.8539653 -1.631696 2 2
-8.0367661 -6.5803604 -1.6159829 2 3
-10.508676 -7.7788506 -1.6642152 2 4
-11.348413 -9.2918777 -1.5798959 2 5
-14.613756 -9.7498512 -1.6399053 1 6
-15.674627 -12.834105 -1.4166144 2 8
-16.028172 -11.864554 -1.6279405 2 7
-14.190837 -12.826907 -1.2259382 3 9
-19.346169 -12.907171 -1.3544067 4 10
-15.739165 -12.886947 -0.94755977 2 12
-17.404696 -12.8835 -1.134853 3 11
-14.234848 -12.866688 -0.78174269 2 13
-19.357166 -12.914509 -0.8125999 4 14
-2.8336627 -2.0822937 -1.6397589 1 0
-4.498208 -3.6568987 -1.6228437 1 1
-6.5742664 -4.8310456 -1.631696 2 2
-8.0688877 -6.5597463 -1.6178277 1 3
-10.554951 -7.7562189 -1.6672456 2 4
-11.359178 -9.2346458 -1.5768971 2 5
-14.660984 -9.7075748 -1.6413925 1 6
-15.824599 -12.864891 -1.4261013 2 8
-16.075914 -11.813254 -1.6285914 2 7
-14.357322 -12.886613 -1.2364273 3 9
-19.480999 -12.899084 -1.3606857 4 10
-15.864663 -12.897461 -0.95239902 2 12
-17.523596 -12.87707 -1.1396679 3 11
-14.336186 -12.867642 -0.78483641 2 13
-19.498789 -12.910863 -0.81664824 4 14
-2.8438423 -2.074527 -1.6414495 0 0
-4.5139418 -3.643595 -1.623922 1 1
-6.5942569 -4.8103805 -1.6324805 2 2
-8.0886583 -6.5290599 -1.6172128 1 3
-10.585164 -7.7216687 -1.6677507 2 4
-48.624279 -35.470455 -0.3498075 22 19
-11.394435 -9.1974392 -1.5773255 2 5
-14.681464 -9.6475916 -1.6399053 1 6
-15.906667 -12.839654 -1.4294497 2 8
-16.142817 -11.775867 -1.6311951 2 7
-48.682316 -35.512791 1.0518216 22 23
-14.452874 -12.881574 -1.2407764 3 9
-19.642706 -12.907761 -1.3688252 4 10
-48.591255 -35.446365 2.4504156 30 26
-15.977985 -12.897222 -0.95649385 2 12
-17.684612 -12.900577 -1.1472043 3 11
-48.592712 -35.447426 4.9101834 44 28
-14.437701 -12.868051 -0.78793019 2 13
-19.677368 -12.930537 -0.82223219 4 14
-88.222672 -71.212189 -2.6382263 45 16
-2.8481307 -2.0624604 -1.6397589 1 0
-48.698856 -35.265049 -1.7498538 43 15
-4.5206227 -3.6229973 -1.6217654 1 1
-6.6141863 -4.7896323 -1.6332649 2 2
-8.1114025 -6.500783 -1.6172128 1 3
-10.631339 -7.6986341 -1.6707811 2 4
-11.454404 -9.1799908 -1.5811809 2 5
-14.70171 -9.5875797 -1.6384181 1 6
-16.029236 -12.846432 -1.4364253 2 8
-16.209661 -11.73815 -1.6337988 2 7
-14.515691 -12.846914 -1.2423114 3 9
-19.784647 -12.902369 -1.3755693 4 10
-16.029148 -12.846361 -0.95686603 2 12
-17.800716 -12.890306 -1.1518098 3 11
-14.542394 -12.870547 -0.79118681 2 13
-19.826189 -12.92946 -0.82655972 4 14
-2.8608406 -2.0572379 -1.64314 1 0
-4.5326118 -3.6079872 -1.6217654 1 1
-6.6364012 -4.7722535 -1.6348339 2 2
-85.052139 -67.702034 0 63 20
-17.425388 -11.281622 -0.24166889 2 18
-8.1236372 -6.466466 -1.615368 1 3
-10.666472 -7.6702886 -1.6722964 2 4
-11.453666 -9.1171894 -1.5768971 2 5
-14.746794 -9.5474348 -1.6399053 1 6
-17.489182 -11.322924 0.24255362 4 22
-16.143553 -12.850368 -1.442843 2 8
-16.216125 -11.661057 -1.6305442 2 7
-14.648149 -12.877779 -1.2499863 3 9
-19.991571 -12.943032 -1.3869646 4 10
-16.177948 -12.877747 -0.96319425 2 12
-17.973085 -12.924493 -1.1601835 3 11
-14.660031 -12.888226 -0.79525751 3 13
-17.442802 -11.292896 -0.72563034 3 14
-87.294319 -69.486816 -2.5962596 45 16
-2.8709552 -2.0493445 -1.6448303 0 0
-4.5451789 -3.5921423 -1.6217654 1 1
-6.6466351 -4.7444992 -1.6332649 2 2
-8.1492615 -6.4405184 -1.6159829 1 3
-10.696414 -7.6353116 -1.6728016 2 4
-11.45734 -9.0549564 -1.5730416 2 5
-14.783383 -9.4980507 -1.640277 1 6
-16.263445 -12.853312 -1.4495395 3 8
-16.263222 -11.60901 -1.6311951 2 7
-14.774208 -12.897445 -1.2568936 3 9
-16.332521 -12.907906 -0.96970862 2 12
-18.070112 -12.898803 -1.1635331 3 11
-14.777195 -12.900052 -0.79916543 3 13
-2.8932385 -2.0492859 -1.6532828 1 0
-4.5643754 -3.5802147 -1.623922 1 1
-6.6767821 -4.7291765 -1.6364028 2 2
-87.407074 -68.560555 0 63 20
-17.492182 -11.148044 -0.24148265 10 18
-8.1665926 -6.4057298 -1.6147531 0 3
-10.724326 -7.5960588 -1.6728016 2 4
-11.518614 -9.0349951 -1.5768971 2 5
-14.801302 -9.4331045 -1.6384181 1 6
-17.498926 -11.152344 0.24157576 8 22
-16.370096 -12.840412 -1.454841 3 8
-16.318674 -11.558545 -1.632497 2 7
-14.845511 -12.864125 -1.2589402 3 9
-16.46146 -12.912077 -0.97454786 2 12
-18.202015 -12.892519 -1.1689759 3 11
-14.860619 -12.877215 -0.80111933 3 13
-17.465855 -11.131266 -0.72325718 10 14
-2.8822267 -2.0271668 -1.64314 0 0
-4.5671062 -3.5579572 -1.6206871 1 1
-6.6828036 -4.7002406 -1.6340494 2 2
-17.502012 -11.072868 -0.24111013 17 18
-8.1815538 -6.3737555 -1.6135232 0 3
-10.707263 -7.5307775 -1.6662356 2 4
-11.545373 -8.9943047 -1.5764686 2 5
-14.819039 -9.375452 -1.6369311 1 6
-17.512154 -11.079284 0.24124981 12 22
-16.497576 -12.852267 -1.4623747 3 8
-16.356913 -11.504367 -1.632497 2 7
-14.933473 -12.853888 -1.2627778 3 9
-17.8043 -11.264114 -1.2269659 3 10
-16.519949 -12.869697 -0.97547847 2 12
-18.310013 -12.878048 -1.1731628 3 11
-14.933531 -12.853937 -0.80274767 3 13
-17.472267 -11.05405 -0.72200084 16 14
-2.8952303 -2.0212438 -1.6465209 0 0
-4.5855923 -3.5467064 -1.6228437 1 1
-6.7023859 -4.6791291 -1.6348339 2 2
-17.503294 -10.988314 -0.24059792 15 18
-8.1974993 -6.3403206 -1.6122936 0 3
-10.75626 -7.5092559 -1.6697711 2 4
-11.567263 -8.9466496 -1.5751835 2 5
-14.848303 -9.3215485 -1.6365594 1 6
-17.503294 -10.988314 0.24059792 11 22
-16.602308 -12.840984 -1.4676762 3 8
-16.400242 -11.449483 -1.6328224 2 7
-15.102663 -12.908016 -1.2732668 3 9
-17.610151 -11.055397 -1.2109196 3 10
-16.688036 -12.907289 -0.98273736 2 12
-18.479319 -12.900946 -1.181118 3 11
-15.081606 -12.890018 -0.80828387 3 13
-17.476889 -10.971737 -0.72060484 16 14
-2.8996391 -2.0085545 -1.6448303 0 0
-4.6016164 -3.5322211 -1.623922 1 1
-6.719491 -4.654532 -1.6348339 2 2
-17.502707 -10.898716 -0.24003914 15 18
-8.2175474 -6.307826 -1.6116785 0 3
-10.773926 -7.4630032 -1.6682559 2 4
-11.587357 -8.8945065 -1.5734699 2 5
-14.882369 -9.2670641 -1.6365594 1 6
-17.516291 -10.907174 0.24022542 11 22
-16.722065 -12.835932 -1.4740939 3 8
-16.442097 -11.389296 -1.6328224 2 7
-15.183357 -12.88098 -1.276081 3 9
-16.779606 -12.8801 -0.9853431 2 12
-18.605288 -12.887718 -1.1861422 3 11
-15.235419 -12.925148 -0.81398284 3 13
-17.479658 -10.884364 -0.71906918 16 14
-2.9092708 -2.000982 -1.6465209 0 0
-4.6163678 -3.5192771 -1.6250004 1 1
-6.734889 -4.6322236 -1.6348339 2 2
-87.023926 -66.342476 0 63 20
-17.514936 -10.825894 -0.23971319 12 18
-8.2604227 -6.2973137 -1.6159829 0 3
-10.785538 -7.4182396 -1.6662356 2 4
-11.613626 -8.8536196 -1.5730416 2 5
-14.909629 -9.2155666 -1.6361874 1 6
-87.025818 -66.343925 2.5463834 30 24
-17.511534 -10.823792 0.23966664 15 22
-16.872431 -12.862658 -1.4835807 3 8
-16.479774 -11.334708 -1.6328224 2 7
-15.250409 -12.851137 -1.2781276 4 9
-17.506876 -10.820912 -1.1985941 10 10
-16.930264 -12.906746 -0.99167126 2 12
-18.759823 -12.902913 -1.19326 3 11
-15.290424 -12.884857 -0.8146342 3 13
-17.474852 -10.801118 -0.71739411 16 14
-2.9252203 -1.9969463 -1.6515923 0 0
-4.6224818 -3.4984925 -1.6228437 1 1
-6.7510176 -4.6086855 -1.6348339 2 2
-87.372986 -66.127625 0 63 20
-17.508297 -10.737506 -0.23910786 15 18
-8.2729006 -6.2612863 -1.6141382 0 3
-10.808089 -7.3783073 -1.6657305 2 4
-11.660316 -8.8250284 -1.5751835 2 5
-14.928129 -9.155138 -1.6347004 1 6
-17.511705 -10.739596 0.23915443 7 22
-16.993589 -12.861477 -1.4902773 3 8
-16.522533 -11.279361 -1.6331478 5 7
-15.371713 -12.861865 -1.2845234 4 9
-17.503693 -10.734683 -1.1958034 10 10
-17.089914 -12.93438 -0.99837184 2 12
-18.893826 -12.898159 -1.1989121 3 11
-15.393547 -12.880135 -0.81772792 3 13
-17.474962 -10.717063 -0.71585846 16 14
-2.9351745 -1.9887568 -1.6532828 0 0
-4.6285062 -3.4777076 -1.6206871 1 1
-6.7768059 -4.5916929 -1.6371872 2 2
-17.514917 -10.657613 -0.2386888 16 18
-8.2947063 -6.2323699 -1.6141382 0 3
-10.856773 -7.3561158 -1.669266 2 4
-11.675153 -8.7723265 -1.5730416 2 5
-14.963397 -9.1050434 -1.6350722 1 6
-17.511503 -10.655535 0.23864223 7 22
-17.111753 -12.857209 -1.4966949 3 8
-16.558506 -11.219381 -1.6328224 5 7
-15.517838 -12.892309 -1.2929658 4 9
-17.496712 -10.646534 -1.1927803 10 10
-17.15093 -12.886646 -0.99930245 2 12
-19.037943 -12.899348 -1.2051926 3 11
-15.567527 -12.933591 -0.82456672 3 13
-17.481529 -10.637297 -0.71460211 16 14
-2.9210403 -1.9643387 -1.6414495 0 0
-4.6437044 -3.463834 -1.6217654 1 1
-6.7927914 -4.5680108 -1.6371872 2 2
-17.510921 -10.571606 -0.23813002 16 18
-8.313241 -6.2010159 -1.6135232 0 3
-10.872504 -7.3115325 -1.6677507 2 4
-11.696137 -8.7243881 -1.5717564 2 5
-14.984857 -9.0465822 -1.6339568 1 6
-17.514345 -10.573672 0.23817657 7 22
-17.220495 -12.845119 -1.5022755 3 8
-16.600872 -11.163741 -1.6331478 5 7
-15.61509 -12.881248 -1.2973148 4 9
-17.509834 -10.570949 -1.1911523 10 10
-17.266268 -12.879261 -1.0033972 2 12
-19.208807 -12.917522 -1.2131475 3 11
-15.634156 -12.896976 -0.82570654 3 13
-17.498018 -10.563816 -0.71376455 16 14
-2.9516578 -1.9707453 -1.6549731 0 0
-4.6613555 -3.4530013 -1.623922 1 1
-6.8111639 -4.5476375 -1.6379718 1 2
-17.511572 -10.492921 -0.23766436 16 18
-8.3305817 -6.171061 -1.6129084 0 3
-10.87359 -7.2600145 -1.6642152 2 4
-11.689852 -8.6595135 -1.5670441 2 5
-15.031855 -9.0070763 -1.6358156 1 6
-17.518435 -10.497033 0.2377575 7 22
-17.378424 -12.873448 -1.5123203 3 8
-16.644434 -11.113057 -1.6337988 5 7
-15.710213 -12.872405 -1.301664 4 9
-17.517391 -10.496408 -1.189292 10 10
-17.440519 -12.919446 -1.0110283 2 12
-19.331268 -12.906986 -1.2181718 3 11
-15.720119 -12.880523 -0.82798612 3 13
-17.498663 -10.485185 -0.71236855 16 14
-2.9464309 -1.95242 -1.6482112 0 0
-4.6764841 -3.4389915 -1.6250004 1 1
-6.8335357 -4.5281672 -1.6395407 1 2
-17.517151 -10.413336 -0.23724529 16 18
-8.3616257 -6.1489701 -1.6147531 0 3
-10.888944 -7.2154388 -1.6626999 2 4
-11.732824 -8.6280813 -1.5687577 5 5
-15.052936 -8.9484463 -1.6347004 1 6
-17.527464 -10.419466 0.23738497 3 22
-17.50362 -12.871808 -1.5192959 3 8
-16.676477 -11.050484 -1.6331478 5 7
-15.838656 -12.885506 -1.3085713 4 9
-17.519598 -10.41479 -1.1869663 9 10
-17.55633 -12.910569 -1.015123 2 12
-19.502739 -12.923275 -1.2261269 3 11
-15.845593 -12.89115 -0.83221972 3 13
-17.487049 -10.395442 -0.71041417 19 14
-2.9532287 -1.9421222 -1.6482112 0 0
-19.593002 -12.884883 -0.68246394 2 15
-4.6884608 -3.4226451 -1.6250004 1 1
-6.8493018 -4.5042844 -1.6395407 1 2
-17.52928 -10.337898 -0.23691934 16 18
-8.3766556 -6.1150813 -1.6135232 0 3
-10.910751 -7.1752019 -1.662195 2 4
-11.769297 -8.5917587 -1.5696145 5 5
-15.07379 -8.8897715 -1.633585 1 6
-17.632244 -12.871796 -1.5265507 3 8
-16.708288 -10.987818 -1.632497 2 7
-15.954963 -12.887826 -1.3144554 4 9
-17.518013 -10.331253 -1.1844083 9 10
-17.685202 -12.910456 -1.0199623 2 12
-19.651196 -12.923153 -1.2326167 3 11
-15.999318 -12.923655 -0.83791876 3 13
-17.492243 -10.316055 -0.70915782 16 14
-2.9660614 -1.9357651 -1.6515923 0 0
-19.721565 -12.871047 -0.68537301 2 15
-4.6941404 -3.4017389 -1.6228437 1 1
-6.8584123 -4.4760623 -1.6379718 0 2
-48.619698 -35.233608 0 44 20
-17.53764 -10.260493 -0.23654683 16 18
-8.3915482 -6.0811672 -1.6122936 0 3
-10.919115 -7.1262321 -1.6596696 2 4
-11.828197 -8.5716295 -1.5734699 7 5
-15.039412 -8.798892 -1.6265212 1 6
-48.687492 -35.282738 1.3991383 44 24
-17.534187 -10.258473 0.23650026 18 22
-17.783689 -12.887442 -1.5357585 3 8
-16.74988 -10.931612 -1.6328224 2 7
-16.065247 -12.884506 -1.3198279 4 9
-17.519501 -10.249882 -1.1820827 9 10
-17.814276 -12.909607 -1.0248015 2 12
-19.786503 -12.913429 -1.2382689 3 11
-16.119156 -12.927743 -0.84182662 3 13
-17.497089 -10.23677 -0.70790136 19 14
-2.9636722 -1.9194876 -1.6465209 0 0
-19.910675 -12.895588 -0.69037652 3 15
-4.7091131 -3.3875818 -1.623922 1 1
-6.8707037 -4.4499626 -1.6371872 0 2
-17.535295 -10.177125 -0.23603462 16 18
-8.4095144 -6.0495296 -1.6116785 0 3
-10.947254 -7.0902305 -1.6601747 2 4
-17.481382 -11.322203 -0.12105055 2 19
-11.835445 -8.5140324 -1.5704712 5 5
-15.06659 -8.744339 -1.6261495 1 6
-17.531836 -10.175117 0.23598805 18 22
-17.883633 -12.8649 -1.540502 3 8
-16.801321 -10.881746 -1.6341243 2 7
-16.181946 -12.88554 -1.325712 4 9
-17.541359 -10.180644 -1.1811525 13 10
-17.500734 -11.334737 0.84947968 2 26
-17.972757 -12.929013 -1.0313158 2 12
-19.932039 -12.909425 -1.2445492 3 11
-16.173565 -12.878867 -0.84231514 3 13
-17.508514 -10.161582 -0.7069242 16 14
-2.9764538 -1.9130508 -1.6499019 0 0
-87.757378 -69.381233 -1.9527149 45 17
-4.7271791 -3.3755999 -1.6260786 1 1
-17.522184 -10.087915 -0.23538272 16 18
-8.4305811 -6.0201373 -1.6116785 1 3
-10.958586 -7.0433917 -1.6581544 2 4
-11.858622 -8.4680443 -1.5696145 5 5
-15.062508 -8.6718235 -1.6224319 3 6
-17.549913 -10.103879 0.23575523 18 22
-17.999874 -12.85341 -1.5466405 3 8
-16.845911 -10.827342 -1.6347752 2 7
-16.305111 -12.890867 -1.3321078 4 9
-17.597551 -10.131305 -1.1825477 3 10
-18.095819 -12.921924 -1.0357828 3 12
-17.493185 -11.243363 1.6975884 2 28
-16.318748 -12.901649 -0.84752572 3 13
-17.516161 -10.084448 -0.70580745 19 14
-2.9922824 -1.9084984 -1.6549731 0 0
-17.482071 -11.150186 -0.60345405 12 15
-4.7357903 -3.3568523 -1.6250004 1 1
-6.9115224 -4.4082165 -1.6395407 1 2
-17.52603 -10.008842 -0.23496363 11 18
-8.4547682 -5.9929609 -1.6122936 1 3
-10.979757 -7.002965 -1.6576493 2 4
-87.221184 -68.463951 0.64444828 30 21
-17.522902 -11.176227 -0.12079482 6 19
-11.884862 -8.4243021 -1.5691861 5 5
-15.113436 -8.6310472 -1.6246625 4 6
-17.52603 -10.008842 0.23496363 11 22
-18.165079 -12.875883 -1.5569645 3 8
-16.900406 -10.779196 -1.6364025 2 7
-17.500296 -11.161809 0.36231196 10 23
-16.422224 -12.890566 -1.3379918 4 9
-19.793131 -11.303548 -1.3274302 4 10
-18.189711 -12.893344 -1.0385747 3 12
-17.475607 -11.146062 -1.0862852 11 11
-16.439133 -12.903838 -0.85143352 3 13
-17.48877 -9.9875631 -0.70329463 16 14
-2.9952013 -1.8971479 -1.6532828 0 0
-17.503506 -11.086646 -0.6029886 12 15
-4.7494631 -3.3441741 -1.6260786 1 1
-6.9220243 -4.3843808 -1.6387562 1 2
-17.55043 -9.9497824 -0.23487051 11 18
-11.018466 -6.9790502 -1.6601747 2 4
-17.514 -11.093294 -0.1204926 4 19
-11.90802 -8.3846302 -1.5687577 7 5
-15.15087 -8.5894117 -1.6257777 3 6
-17.557388 -9.9537277 0.23496363 15 22
-18.293533 -12.880774 -1.5644982 3 8
-16.961132 -10.74311 -1.639006 5 7
-17.508249 -11.089651 0.36175346 10 23
-16.585407 -12.934646 -1.3479692 4 9
-19.936235 -11.302356 -1.3346394 4 10
-17.729372 -11.22971 0.85501581 2 26
-18.351011 -12.921244 -1.0454613 3 12
-17.483543 -11.074002 -1.0846105 11 11
-16.570992 -12.923403 -0.85615563 3 13
-17.568748 -9.9601679 -0.70524901 13 14
-2.9898555 -1.8784434 -1.6465209 0 0
-17.510166 -11.001152 -0.601825 12 15
-4.7616873 -3.3267448 -1.6260786 1 1
-6.9380469 -4.3589826 -1.6387562 1 2
-17.673948 -9.934391 -0.23603462 7 18
-8.4953642 -5.9352717 -1.6122936 1 3
-17.52067 -11.007751 -0.12026013 4 19
-11.968011 -8.3614302 -1.5726132 7 5
-15.168365 -8.526022 -1.6242907 3 6
-17.670462 -9.9324312 0.23598805 7 22
-18.468187 -12.902767 -1.5753802 3 8
-17.000393 -10.680876 -1.639006 5 7
-17.494593 -10.991367 0.36063653 10 23
-16.673737 -12.905537 -1.351295 4 9
-23.12784 -12.999983 -1.5451028 5 10
-17.831326 -11.202928 0.85794669 2 26
-18.476852 -12.908822 -1.0499283 3 12
-17.47666 -10.980101 -1.0816797 14 11
-16.690935 -12.918848 -0.85990065 3 13
-17.667862 -9.9309711 -0.70776176 6 14
-2.9960685 -1.8685182 -1.6465209 0 0
-17.502447 -10.915519 -0.60031229 12 15
-4.7695284 -3.3087401 -1.6250004 1 1
-6.9491358 -4.3338752 -1.6379718 2 2
-20.312685 -11.329126 -0.27077159 6 18
-8.5117521 -5.9048138 -1.6116785 2 3
-11.080387 -6.910358 -1.662195 4 4
-86.847397 -66.760857 0.63666034 30 21
-17.526531 -10.930539 -0.12005089 2 19
-12.005475 -8.328496 -1.5738984 2 5
-15.179162 -8.4659729 -1.6224319 3 6
-20.312685 -11.329126 0.27077159 9 22
-18.583002 -12.891489 -1.5815188 3 8
-17.049252 -10.63288 -1.6403079 2 7
-17.503799 -10.916362 0.36007807 10 23
-16.789232 -12.906127 -1.3571792 4 9
-17.831076 -11.12047 0.85615563 2 26
-18.647598 -12.936302 -1.0571872 3 12
-17.475693 -10.898832 -1.0793768 14 11
-16.825575 -12.934065 -0.86462277 3 13
-20.298197 -11.321045 -0.81162268 12 14
-2.9905646 -1.8498958 -1.6397589 0 0
-17.504932 -10.828157 -0.59903228 12 15
-4.7847967 -3.2934206 -1.6260786 1 1
-6.9683089 -4.3104391 -1.6387562 1 2
-8.5398493 -5.8780584 -1.6129084 2 3
-11.11239 -6.8738742 -1.6632051 4 4
-88.633888 -67.618774 0.64793545 30 21
-17.539263 -10.849393 -0.11986492 2 19
-12.022817 -8.2754183 -1.5721848 5 5
-15.262369 -8.439189 -1.6280084 4 6
-20.403076 -11.281696 0.27142352 9 22
-18.67943 -12.857227 -1.5857041 3 8
-17.067764 -10.557734 -1.6383553 2 7
-17.509678 -10.831092 0.35937995 9 23
-16.890375 -12.885664 -1.3615282 4 9
-20.338491 -11.245985 -1.3534765 8 10
-17.88191 -11.061347 0.85664409 2 26
-18.780462 -12.92677 -1.0620264 3 12
-17.474754 -10.80949 -1.0768647 14 11
-16.93642 -12.920792 -0.86787933 3 13
-20.35005 -11.252376 -0.81204152 4 14
-3.0461128 -1.8703187 -1.6668066 0 0
-91.376663 -69.23307 -2.0010929 45 17
-17.506672 -10.749128 -0.59786862 14 15
-4.7925119 -3.275362 -1.6250004 2 1
-6.9825654 -4.2873077 -1.6387562 2 2
-20.584148 -11.292852 -0.27333266 6 18
-8.5527687 -5.8452468 -1.6116785 2 3
-11.12498 -6.8307576 -1.6616899 4 4
-86.469688 -65.515221 0.63052297 30 21
-17.537651 -10.768149 -0.1196092 2 19
-12.043627 -8.2310152 -1.571328 5 5
-15.297255 -8.3923626 -1.6287519 3 6
-20.601683 -11.302472 0.27356547 10 22
-18.758204 -12.81998 -1.5887735 3 8
-17.082298 -10.488562 -1.6364025 5 7
-17.508009 -10.749949 0.35861203 9 23
-17.073009 -12.935654 -1.3727847 4 9
-23.656088 -12.978176 -1.5713816 5 10
-17.979803 -11.039631 0.85957503 2 26
-18.918894 -12.929801 -1.0674239 3 12
-17.490082 -10.738942 -1.0756086 14 11
-17.087486 -12.946622 -0.87341553 3 13
-23.667715 -12.984555 -0.94270521 5 14
-3.0247588 -1.8426996 -1.6515923 0 0
-17.506527 -10.665072 -0.59658867 14 15
-4.8007278 -3.2564509 -1.623922 1 1
-6.997488 -4.262908 -1.6387562 1 2
-20.732357 -11.28019 -0.27477616 3 18
-8.5796614 -5.8197937 -1.6129084 2 3
-11.148755 -6.7918825 -1.6616899 4 4
-17.54097 -10.686055 -0.11937672 2 19
-12.068993 -8.1866922 -1.5708996 5 5
-15.308965 -8.3293972 -1.6268932 3 6
-20.78857 -11.310775 0.27552116 5 22
-18.868881 -12.799223 -1.5943539 3 8
-17.129019 -10.435092 -1.6373787 5 7
-17.507856 -10.665882 0.35784414 9 23
-17.181862 -12.923969 -1.3779013 4 9
-23.838045 -12.969952 -1.5804513 5 10
-18.083078 -11.016311 0.86266881 2 26
-19.07303 -12.937703 -1.0735661 3 12
-17.493347 -10.657043 -1.0735153 8 11
-17.225199 -12.956567 -0.87813753 3 13
-23.649691 -12.867471 -0.9401924 5 14
-92.289581 -68.890846 -2.0102379 45 17
-17.511274 -10.580162 -0.59542507 12 15
-4.8126302 -3.2388344 -1.623922 2 1
-7.0164218 -4.2392616 -1.6395407 2 2
-20.928455 -11.287672 -0.27682498 3 18
-8.6074924 -5.7927246 -1.6141382 2 3
-11.173573 -6.7509761 -1.6616899 4 4
-87.830574 -65.562363 0.63700902 30 21
-12.098915 -8.1424046 -1.5708996 5 5
-15.335882 -8.2713423 -1.6265212 3 6
-20.96718 -11.308558 0.27733719 5 22
-18.998425 -12.78568 -1.6013297 3 8
-17.1535 -10.363997 -1.636077 5 7
-17.51602 -10.583029 0.35721585 9 23
-17.325081 -12.932548 -1.3855762 4 9
-24.040062 -12.965905 -1.5906837 5 10
-18.205429 -10.999563 0.86657661 2 26
-19.233027 -12.943563 -1.0798943 3 12
-17.501518 -10.574266 -1.0716312 5 11
-17.339827 -12.943556 -0.88155693 3 13
-23.784651 -12.82815 -0.94368237 5 14
-17.517239 -10.500466 -0.59437782 14 15
-4.8303137 -3.2262928 -1.6260786 2 1
-7.0311775 -4.2147422 -1.6395407 2 2
-21.087646 -11.278681 -0.27840814 3 18
-8.6243744 -5.7604451 -1.6135232 2 3
-11.200475 -6.7139697 -1.662195 4 4
-17.541512 -10.515018 -0.11886527 6 19
-12.117345 -8.0934916 -1.5696145 5 5
-15.378712 -8.2252693 -1.6280084 3 6
-21.158186 -11.316408 0.27933943 5 22
-19.142487 -12.785768 -1.6097003 3 8
-17.196413 -10.308152 -1.6367279 2 7
-17.528845 -10.507424 0.35672718 5 23
-17.405397 -12.898129 -1.3883903 5 9
-24.240112 -12.96477 -1.6009161 5 10
-18.257427 -10.944163 0.86722797 2 26
-19.344547 -12.92073 -1.0836169 3 12
-17.473228 -10.474085 -1.0676537 8 11
-17.484449 -12.95671 -0.88660467 3 13
-24.181791 -12.933577 -0.9576422 5 14
-17.51416 -10.419835 -0.59309781 14 15
-4.8441954 -3.2123868 -1.627157 2 1
-7.0484853 -4.1934099 -1.6403252 2 2
-21.283924 -11.293054 -0.28050354 3 18
-8.6434288 -5.7318158 -1.6135232 1 3
-11.232905 -6.6828794 -1.6637102 4 4
-17.54878 -10.440432 -0.11867929 6 19
-12.134173 -8.0466728 -1.5683293 4 5
-15.405902 -8.1742296 -1.6280084 3 6
-21.340456 -11.32305 0.2812486 5 22
-19.267916 -12.777353 -1.616676 3 8
-17.220219 -10.244958 -1.6357514 5 7
-17.525784 -10.42675 0.3559593 11 23
-17.550953 -12.916056 -1.3965769 5 9
-24.424067 -12.959185 -1.6102184 5 10
-18.321095 -10.89991 0.86853063 2 26
-19.500507 -12.931594 -1.0899451 3 12
-17.497564 -10.409961 -1.0670255 14 11
-17.601355 -12.953147 -0.89034975 3 13
-24.489393 -12.993846 -0.96811205 5 14
-17.522886 -10.342373 -0.5921669 14 15
-4.8553801 -3.195457 -1.627157 2 1
-7.0597038 -4.1667848 -1.6395407 1 2
-21.489586 -11.306214 -0.28269207 3 18
-8.6600828 -5.6994348 -1.6129084 1 3
-11.256167 -6.6436253 -1.6637102 4 4
-12.165511 -8.0064516 -1.5687577 5 5
-15.423771 -8.1148357 -1.6268932 3 6
-21.514362 -11.31925 0.28301802 5 22
-19.359068 -12.740726 -1.6205823 3 8
-17.245583 -10.178702 -1.6347752 5 7
-17.520746 -10.34111 0.35512158 16 23
-17.653955 -12.897096 -1.4011819 5 9
-21.673796 -11.403132 -1.4262666 4 10
-18.345268 -10.827761 0.86787933 2 26
-19.64566 -12.92934 -1.0955287 3 12
-17.495958 -10.326481 -1.0647229 11 11
-17.672283 -12.910485 -0.89165235 3 13
-21.68668 -11.409911 -0.85573566 4 14
-17.529613 -10.259905 -0.59111971 14 15
-4.8702846 -3.1797459 -1.6282352 2 1
-7.081697 -4.1448455 -1.6411096 2 2
-8.6941519 -5.6763 -1.615368 1 3
-11.277017 -6.6003232 -1.6632051 4 4
-12.208094 -7.9705071 -1.5704712 7 5
-15.474597 -8.0693035 -1.6291238 3 6
-19.382246 -12.654419 -1.6186292 3 8
-17.262125 -10.103347 -1.6328224 5 7
-17.537817 -10.264707 0.35470271 18 23
-17.794828 -12.900253 -1.4086009 5 9
-21.708361 -11.31993 -1.4258015 9 10
-18.453814 -10.80083 0.87113589 2 26
-19.840128 -12.953364 -1.1037183 3 12
-17.513002 -10.250182 -1.0634668 13 11
-17.8295 -12.925388 -0.89718854 4 13
-17.534201 -10.180583 -0.59007239 12 15
-4.8813539 -3.1627262 -1.6282352 1 1
-7.0961223 -4.1201 -1.6411096 1 2
-21.839962 -11.291762 -0.28623098 10 18
-8.7105961 -5.6437683 -1.6147531 1 3
-11.303418 -6.5629106 -1.6637102 4 4
-17.548248 -10.18874 -0.11793537 4 19
-12.279231 -7.9559579 -1.5760403 7 5
-15.530972 -8.0298691 -1.632098 3 6
-21.839962 -11.291762 0.28623098 16 22
-17.443819 -11.302197 -1.4534459 3 8
-17.2766 -10.031017 -1.6308696 2 7
-17.542412 -10.18535 0.35407442 9 23
-17.969355 -12.931325 -1.4188342 5 9
-21.747744 -11.244083 -1.4258015 9 10
-18.543249 -10.766449 0.87357831 2 26
-19.95229 -12.927485 -1.1074407 3 12
-17.510675 -10.166924 -1.0611639 13 11
-17.975073 -12.935441 -0.90223628 4 13
-21.806831 -11.274633 -0.85727125 13 14
-17.568939 -11.383265 -0.48713017 2 16
-17.541916 -10.103348 -0.58914149 14 15
-4.892365 -3.1456666 -1.6282352 1 1
-7.1104617 -4.0953031 -1.6411096 1 2
-21.897045 -11.224577 -0.2864638 6 18
-8.7402182 -5.6197386 -1.6165979 1 3
-11.32626 -6.5234113 -1.6637102 4 4
-17.549047 -10.107454 -0.11770289 4 19
-12.350417 -7.9410048 -1.5816094 7 5
-15.629792 -8.01194 -1.6395335 3 6
-21.907721 -11.23005 0.28660348 10 22
-17.473099 -11.234758 -1.4526088 3 8
-17.308058 -9.9686556 -1.6305442 2 7
-17.543205 -10.10409 0.35337633 9 23
-18.115078 -12.940446 -1.4267648 5 9
-22.028503 -11.291964 -1.4416153 4 10
-17.543238 -11.279856 1.2146405 2 27
-18.629206 -10.729578 0.87585795 2 26
-17.507984 -10.083805 -1.0588611 13 11
-18.072155 -12.909784 -0.90484148 4 13
-21.934992 -11.244029 -0.86076123 4 14
-17.518034 -10.016439 -0.58727974 12 15
-4.8989768 -3.1282094 -1.627157 1 1
-7.126698 -4.074894 -1.6418941 2 2
-17.497118 -11.17267 0 15 20
-22.117579 -11.250029 -0.28888515 3 18
-8.7544975 -5.5901275 -1.6159829 1 3
-11.346697 -6.4877996 -1.6637102 4 4
-12.435638 -7.9406953 -1.5893204 5 5
-15.761377 -8.0169687 -1.6506867 3 6
-17.526087 -11.191169 0.48387334 15 24
-22.153229 -11.268162 0.28935078 5 22
-17.474674 -11.158339 -1.4498185 3 8
-17.328907 -9.9082994 -1.6295679 2 7
-17.519308 -10.017167 0.35225937 9 23
-18.25005 -12.95047 -1.4341841 5 9
-22.131493 -11.257105 -1.4460338 4 10
-18.652412 -10.665052 0.87536949 2 26
-17.48827 -11.16702 -0.96654451 12 12
-17.508368 -10.010912 -1.056977 11 11
-18.246256 -12.947778 -0.9115175 4 13
-22.176867 -11.280185 -0.86885792 4 14
-17.509235 -11.180408 -0.48340806 14 16
-17.552887 -9.9471283 -0.58716333 8 15
-4.914206 -3.1114361 -1.6282352 2 1
-7.1457047 -4.0494332 -1.6426785 1 2
-17.529751 -11.098984 0 7 20
-22.360643 -11.265799 -0.29149273 3 18
-8.7825766 -5.5606999 -1.6172128 1 3
-11.361168 -6.4383144 -1.662195 4 4
-17.626141 -9.9886417 -0.11774938 10 19
-12.526518 -7.931181 -1.5970314 5 5
-15.888078 -8.0047731 -1.6607246 3 6
-17.545279 -11.108816 0.48322198 15 24
-22.353502 -11.2622 0.29139963 5 22
-17.480307 -11.067678 -1.4467493 3 8
-17.359886 -9.8377562 -1.6289169 2 7
-17.627235 -9.9892616 0.35365558 9 23
-18.453062 -12.988286 -1.446208 5 9
-22.427755 -11.299611 -1.4625454 4 10
-18.804497 -10.65641 0.88058001 2 26
-17.510763 -11.086963 -0.96542776 15 12
-17.539726 -9.9396715 -1.0565584 8 11
-17.583576 -11.133063 2.5553565 4 29
-18.348131 -12.914429 -0.91412282 4 13
-22.373528 -11.27229 -0.87486058 4 14
-17.525005 -11.095981 -0.48266366 19 16
-3.0553265 -1.7187796 -1.6346875 0 0
-17.660713 -9.9350672 -0.58972335 6 15
-4.9206953 -3.0939329 -1.627157 1 1
-7.161808 -4.0288887 -1.643463 1 2
-17.534054 -11.0247 0 5 20
-22.549763 -11.272402 -0.293495 3 18
-8.8033476 -5.5351868 -1.6178277 1 3
-11.388255 -6.4064841 -1.6632051 4 4
-17.692295 -9.9528332 -0.11798186 4 19
-12.618706 -7.9341288 -1.605599 5 5
-16.023581 -8.0100279 -1.6722498 1 6
-17.542849 -11.03023 0.48219839 15 24
-22.549763 -11.272402 0.293495 5 22
-17.501476 -11.004216 -1.4456332 3 8
-17.380281 -9.7773104 -1.6279405 2 7
-18.539576 -12.962275 -1.4497896 5 9
-22.538149 -11.266596 -1.467429 4 10
-18.851812 -10.605123 0.88123131 2 26
-17.511677 -11.010631 -0.96356648 17 12
-17.675308 -9.9432774 -1.0628387 8 11
-18.486874 -12.925428 -0.9190076 4 13
-22.56616 -11.280599 -0.8810029 4 14
-17.519152 -11.01533 -0.481547 19 16
-3.0961316 -1.7275336 -1.6532828 0 0
-20.306984 -11.330589 -0.67676222 5 15
-4.9314656 -3.0767365 -1.627157 1 1
-7.1758289 -4.0038629 -1.643463 1 2
-17.545282 -10.946484 0 7 20
-22.725161 -11.261099 -0.29526445 7 18
-8.8393831 -5.5148821 -1.6209023 1 3
-11.407084 -6.3647556 -1.6626999 4 4
-20.346674 -11.352736 -0.1354176 8 19
-12.710436 -7.9300275 -1.6137384 2 5
-16.126383 -7.9911776 -1.680057 1 6
-17.533749 -10.939288 0.48089564 15 24
-22.757416 -11.277083 0.29568353 5 22
-17.50593 -10.921931 -1.442843 2 8
-17.407343 -9.7126923 -1.6272895 2 7
-18.633904 -12.931616 -1.4536271 5 9
-22.716883 -11.256997 -1.4764987 4 10
-18.930601 -10.562616 0.88318527 2 26
-17.512718 -10.926167 -0.96151918 17 12
-19.408695 -10.829376 -1.1647891 3 11
-18.640236 -12.936011 -0.92438096 4 13
-22.763002 -11.279851 -0.88714522 4 14
-17.516785 -10.928704 -0.48043036 14 16
-3.0957987 -1.7132047 -1.6499019 0 0
-4.9421759 -3.0595033 -1.627157 2 1
-7.1863298 -3.976891 -1.6426785 1 2
-17.545977 -10.862012 0 5 20
-8.8585806 -5.4839931 -1.6209023 1 3
-11.453534 -6.3383474 -1.6662356 2 4
-20.508671 -11.34943 -0.13623126 8 19
-12.751565 -7.8939838 -1.6154521 2 5
-16.161331 -7.9383488 -1.6808007 1 6
-17.537828 -10.856968 0.47996515 15 24
-22.929472 -11.262819 0.29740641 5 22
-17.496449 -10.831351 -1.4389365 2 8
-17.434164 -9.6480083 -1.6266387 2 7
-20.547884 -11.371131 0.40992212 5 23
-18.754539 -12.918573 -1.4595112 5 9
-22.910158 -11.253333 -1.4864986 4 10
-19.016312 -10.523563 0.88546485 2 26
-17.516777 -10.843937 -0.95965791 20 12
-19.505795 -10.794442 -1.1683481 3 11
-18.80377 -12.952483 -0.9302429 4 13
-22.974468 -11.284921 -0.89384592 10 14
-17.520828 -10.846444 -0.47949988 17 16
-4.9533553 -3.0413699 -1.627157 1 1
-7.2008572 -3.9505265 -1.6426785 1 2
-17.541353 -10.770425 0 2 20
-8.8718824 -5.4473534 -1.6196724 1 3
-11.459293 -6.2867851 -1.6637102 2 4
-20.644814 -11.326136 -0.13685896 5 19
-12.831247 -7.8784108 -1.6218779 2 5
-16.197477 -7.8825502 -1.6815442 1 6
-17.546829 -10.773787 0.47912765 17 24
-23.100069 -11.241716 0.29908273 5 22
-17.505423 -10.748364 -1.4364253 2 8
-17.486885 -9.5936365 -1.628266 2 7
-20.656044 -11.332297 0.41124851 5 23
-18.940178 -12.944351 -1.4702561 5 9
-23.055376 -11.219967 -1.4932427 4 10
-19.044243 -10.448032 0.88497639 2 26
-17.515541 -10.754577 -0.9574244 20 12
-19.664297 -10.788206 -1.1754657 3 11
-18.953403 -12.95339 -0.93529058 4 13
-17.533197 -10.765418 -0.47875544 19 16
-23.679939 -12.889288 -0.78462994 3 15
-4.9667029 -3.0269318 -1.6282352 2 1
-7.2139177 -3.9266255 -1.6426785 1 2
-17.559895 -10.701788 0 5 20
-8.8865232 -5.4158463 -1.6190575 1 3
-11.480077 -6.2487497 -1.6637102 2 4
-20.857918 -11.353226 -0.13802134 3 19
-12.83353 -7.8213301 -1.6188792 2 5
-16.259398 -7.8461018 -1.6852618 1 6
-17.548313 -10.694731 0.47819713 17 24
-23.220074 -11.205031 0.3001537 5 22
-17.500082 -10.665337 -1.433077 2 8
-17.53611 -9.5451241 -1.6298933 2 7
-20.886707 -11.368896 0.41508803 5 23
-19.049061 -12.926299 -1.4753727 5 9
-23.078072 -11.136507 -1.4923126 4 10
-19.092825 -10.392464 0.88562769 2 26
-17.520403 -10.67772 -0.95574927 17 12
-19.833284 -10.795506 -1.1834208 3 11
-19.105391 -12.964523 -0.94066393 4 13
-23.193102 -11.192016 -0.89929026 5 14
-17.531239 -10.684324 -0.47773185 19 16
-23.974594 -12.941395 -0.79289156 3 15
-4.9772387 -3.0095761 -1.6282352 1 1
-7.2310309 -3.9032829 -1.643463 1 2
-17.573183 -10.625938 0 2 20
-8.9019918 -5.3827481 -1.6184427 0 3
-11.491344 -6.2029839 -1.662195 2 4
-21.041737 -11.358249 -0.13897449 6 19
-12.850545 -7.7703109 -1.617594 2 5
-16.268721 -7.7807064 -1.6834031 1 6
-17.547895 -10.610648 0.47717354 20 24
-17.503059 -10.583537 -1.4302868 2 8
-17.523714 -9.4592342 -1.6256623 2 7
-21.07056 -11.373809 0.41795024 5 23
-19.219881 -12.944463 -1.4850942 5 9
-23.091587 -11.043822 -1.4906846 4 10
-19.220425 -10.375113 0.88986123 2 26
-17.530214 -10.599957 -0.95426029 20 12
-19.997389 -10.794515 -1.1909571 3 11
-19.256609 -12.969198 -0.94587451 4 13
-27.083595 -12.953046 -1.0483809 6 14
-17.523943 -10.596164 -0.47652218 18 16
-24.252277 -12.982166 -0.8005715 4 15
-4.9778047 -2.9862392 -1.6250004 2 1
-7.2376971 -3.8743162 -1.6418941 1 2
-8.9173384 -5.3496084 -1.6178277 0 3
-11.505932 -6.1590886 -1.6611849 2 4
-21.215263 -11.356462 -0.1398579 6 19
-12.918514 -7.7499576 -1.6227345 2 5
-16.310179 -7.7306933 -1.6848902 1 6
-17.543678 -10.524644 0.4760569 17 24
-17.502258 -10.499795 -1.4272175 2 8
-17.574202 -9.4074144 -1.6272895 2 7
-21.258228 -11.379461 0.42088223 5 23
-19.354555 -12.937186 -1.4920017 5 9
-23.08309 -10.940915 -1.4876614 4 10
-19.327 -10.345681 0.89311779 2 26
-17.525991 -10.514033 -0.95202678 20 12
-20.154686 -10.788739 -1.1980748 3 11
-19.35825 -12.939656 -0.94864255 4 13
-27.48988 -13.029644 -1.0623406 6 14
-17.523102 -10.5123 -0.47549859 16 16
-4.9976087 -2.9756289 -1.6282352 1 1
-7.2470388 -3.8484552 -1.6411096 1 2
-17.54887 -10.448782 0 5 20
-8.9180479 -5.3098998 -1.6147531 1 3
-11.515778 -6.1153188 -1.6596696 4 4
-21.394112 -11.361093 -0.14078781 3 19
-12.954394 -7.7131824 -1.6240197 2 5
-16.335722 -7.6765676 -1.6848902 1 6
-17.550993 -10.450046 0.4753125 16 24
-17.499264 -10.419246 -1.4241481 2 8
-17.58065 -9.3359985 -1.6250113 2 7
-21.433601 -11.382063 0.42360482 5 23
-19.513756 -12.950193 -1.5009556 6 9
-23.090328 -10.850727 -1.485801 4 10
-19.488274 -10.349019 0.89897972 2 26
-17.529863 -10.437465 -0.95035172 19 12
-20.299717 -10.779926 -1.2045645 3 11
-19.524265 -12.957167 -0.95466727 4 13
-27.713833 -13.023428 -1.0693206 6 14
-17.530378 -10.437771 -0.47475418 18 16
-24.516972 -12.909931 -0.80638963 4 15
-5.0046492 -2.9562051 -1.627157 1 1
-7.2569594 -3.8213055 -1.6403252 1 2
-17.540466 -10.36101 0 2 20
-8.9263201 -5.2727041 -1.6129084 1 3
-11.544076 -6.0787778 -1.6606797 4 4
-21.564592 -11.355293 -0.14164798 6 19
-12.98809 -7.671958 -1.6248766 2 5
-16.387695 -7.6312628 -1.6874926 1 6
-17.559822 -10.372442 0.4745681 19 24
-17.497738 -10.335771 -1.4210789 2 8
-17.595497 -9.2652817 -1.6233841 2 7
-21.618294 -11.38357 0.426467 8 23
-19.642187 -12.936884 -1.5073514 6 9
-23.073767 -10.744768 -1.4823126 4 10
-21.706221 -11.429871 0.99944526 3 26
-17.528347 -10.353851 -0.9483043 19 12
-20.467999 -10.777859 -1.2123102 3 11
-19.652821 -12.943887 -0.95873803 4 13
-27.936701 -13.009292 -1.0761609 7 14
-17.54949 -10.36634 -0.47428891 18 16
-5.0215845 -2.9426124 -1.6293135 1 1
-7.284162 -3.8032122 -1.643463 2 2
-17.559271 -10.289606 0 2 20
-8.9310312 -5.23352 -1.6104488 1 3
-11.558192 -6.0347719 -1.6596696 4 4
-13.001065 -7.6185308 -1.623163 2 5
-16.374454 -7.5556569 -1.6834031 1 6
-17.568317 -10.294908 0.47382364 16 24
-17.602997 -9.1908894 -1.6211059 2 7
-19.784126 -12.931578 -1.5147705 6 9
-23.085752 -10.652448 -1.4806846 4 10
-21.8381 -11.402125 1.0036788 3 26
-17.533356 -10.274421 -0.94662923 16 12
-20.643595 -10.778449 -1.2204746 3 11
-19.808283 -12.947368 -0.96411139 4 13
-28.163429 -12.995439 -1.0831407 7 14
-17.544167 -10.280756 -0.47317228 18 16
-21.804981 -11.288152 -0.71457988 12 15
-5.0284944 -2.923131 -1.6282352 1 1
-7.286942 -3.7723539 -1.6411096 1 2
-17.595078 -10.228253 0 2 20
-8.9492435 -5.2023149 -1.6104488 1 3
-11.568613 -5.9889188 -1.6581544 4 4
-17.537231 -11.375764 0.12149225 3 21
-21.860022 -11.316646 -0.14306608 9 19
-13.00351 -7.5591135 -1.6201643 2 5
-16.375374 -7.4868655 -1.6808007 1 6
-17.566116 -10.211418 0.47280008 16 24
-17.52807 -10.189301 -1.4177306 5 8
-17.65621 -9.1403875 -1.6230587 2 7
-17.543522 -11.379845 0.60857397 2 25
-21.860613 -11.316952 0.42967823 8 23
-17.531761 -11.372216 -1.3392709 4 9
-23.064688 -10.545238 -1.4769638 4 10
-21.913258 -11.344205 1.0053071 3 26
-17.541473 -10.197093 -0.94514018 19 12
-21.787863 -11.27929 -1.2857898 4 11
-17.48946 -11.344776 -0.84931678 3 13
-28.390398 -12.980167 -1.0901207 7 14
-17.548828 -10.201368 -0.4723348 18 16
-21.892456 -11.231878 -0.71609259 6 15
-5.0358381 -2.9027562 -1.627157 2 1
-7.3007202 -3.7456191 -1.6411096 1 2
-11.604609 -5.9537201 -1.6601747 4 4
-21.990328 -11.282091 -0.14364727 6 19
-13.020794 -7.5054417 -1.6188792 2 5
-16.438986 -7.4432187 -1.6845183 1 6
-17.572247 -10.128988 0.47196257 14 24
-17.534187 -10.10705 -1.4152193 5 8
-17.661217 -9.0610504 -1.6204549 2 7
-22.044283 -11.309772 0.43247062 5 23
-23.084995 -10.452389 -1.475801 4 10
-19.703749 -10.108967 0.90223628 2 26
-17.544117 -10.112775 -0.94327897 19 12
-17.544529 -10.113011 -0.47121817 16 16
-17.497822 -11.173123 -0.36238179 19 17
-22.116844 -11.249656 -0.72214341 6 15
-5.0492835 -2.887073 -1.6282352 2 1
-7.3102546 -3.7183352 -1.6403252 1 2
-17.577538 -10.050462 0 7 20
-23.133402 -10.377159 -0.29517132 3 18
-11.625319 -5.913178 -1.6601747 4 4
-17.506935 -11.178941 0.12072508 9 21
-22.243488 -11.314072 -0.14504214 6 19
-13.074532 -7.4757395 -1.6223062 2 5
-16.446699 -7.3776441 -1.6826595 1 6
-17.555422 -10.037817 0.47056681 7 24
-23.177195 -10.396803 0.29573008 5 22
-17.600536 -10.063612 -1.4177306 2 8
-17.703398 -9.0047712 -1.6214314 2 7
-17.509932 -11.180855 0.60461766 12 25
-22.265429 -11.325233 0.43603092 5 23
-23.084908 -10.355405 -1.4734755 4 10
-19.799473 -10.070932 0.90500432 2 26
-17.537685 -10.027676 -0.94104546 19 12
-22.156412 -11.269781 -1.3027468 8 11
-17.482613 -11.16341 -0.84508318 13 13
-23.259478 -10.433714 -0.89021635 5 14
-17.541536 -10.029878 -0.47019461 16 16
-17.517889 -11.104329 -0.36203274 18 17
-22.336088 -11.268097 -0.72807789 6 15
-5.0521293 -2.8665116 -1.6260786 2 1
-7.3225446 -3.6940732 -1.6403252 1 2
-17.551624 -9.95856 0 20 20
-23.229818 -10.328012 -0.29596293 3 18
-8.9722929 -5.0907602 -1.6049145 8 3
-11.659036 -5.8817439 -1.662195 4 4
-17.520262 -11.105833 0.12056235 9 21
-22.438019 -11.31952 -0.14606503 6 19
-13.075037 -7.4186034 -1.6193075 2 5
-16.456516 -7.3165922 -1.6811725 1 6
-17.57122 -9.9696789 0.47010154 14 24
-23.248093 -10.336137 0.29619575 5 22
-20.153421 -11.434785 -1.6203034 3 8
-17.708246 -8.9334459 -1.6191531 2 7
-17.51314 -11.101319 0.60345405 18 25
-22.456404 -11.328794 0.43903276 5 23
-20.45162 -12.963978 -1.5518659 6 9
-23.075331 -10.259327 -1.4706848 4 10
-19.839897 -10.008821 0.90533006 2 26
-17.543039 -9.9536886 -0.93955648 14 12
-22.350582 -11.27541 -1.3119578 8 11
-17.475653 -11.077556 -0.84296644 20 13
-23.173407 -10.302932 -0.88560963 4 14
-17.585135 -9.9775734 -0.47047377 16 16
-17.526073 -11.023947 -0.36140442 18 17
-22.518326 -11.261595 -0.73273242 6 15
-5.0755315 -2.856415 -1.6303918 2 1
-7.3318868 -3.6667352 -1.6395407 2 2
-17.676912 -9.9482384 0 12 20
-9.0175629 -5.0749173 -1.6098338 2 3
-11.697241 -5.8498836 -1.6647204 2 4
-17.514904 -11.016922 0.12026013 9 21
-22.620495 -11.312691 -0.14699493 6 19
-13.128579 -7.3885212 -1.6227345 2 5
-16.449152 -7.2446556 -1.6778264 1 6
-17.693039 -9.9573145 0.47242785 11 24
-20.151484 -11.340881 -1.616955 3 8
-17.70723 -8.8555269 -1.6162239 2 7
-17.514557 -11.016703 0.60217404 12 25
-22.649626 -11.327258 0.44203454 5 23
-17.523266 -11.022182 -1.3267354 4 9
-23.089077 -10.16906 -1.4692894 4 10
-22.70579 -11.355348 1.0342907 3 26
-17.68214 -9.9511805 -0.94514018 7 12
-22.547003 -11.275936 -1.321169 8 11
-17.48715 -10.999464 -0.84166378 20 13
-29.483473 -12.985327 -1.1250201 7 14
-17.6791 -9.9494696 -0.47205567 6 16
-17.527126 -10.939409 -0.36063653 18 17
-22.74736 -11.277045 -0.73889959 6 15
-5.0854716 -2.8386807 -1.6303918 1 1
-7.3446417 -3.6411197 -1.6395407 2 2
-9.035223 -5.0434089 -1.6098338 2 3
-11.7247 -5.8125415 -1.6657305 2 4
-17.51932 -10.934536 0.12002765 9 21
-22.81753 -11.311832 -0.14801782 6 19
-13.116092 -7.3213263 -1.6180223 2 5
-16.434185 -7.1696749 -1.6737369 1 6
-20.177013 -11.262691 -1.615839 3 8
-17.709459 -8.7794971 -1.6136203 2 7
-17.50881 -10.927977 0.60066134 12 25
-22.846689 -11.326288 0.44510618 6 23
-23.08783 -10.072433 -1.4669639 4 10
-20.016714 -9.9233227 0.91021484 2 26
-22.73654 -11.271681 -1.3299614 8 11
-17.491533 -10.917193 -0.84003556 20 13
-23.336372 -10.180863 -0.8890996 5 14
-17.258087 -8.555728 3.5120425 4 30
-20.339529 -11.353407 -0.54203117 22 16
-17.527803 -10.855002 -0.35986862 18 17
-22.926535 -11.266352 -0.74343771 7 15
-5.0818691 -2.8134501 -1.6260786 1 1
-7.364346 -3.618921 -1.6411096 1 2
-9.0562305 -5.0137558 -1.6104488 3 3
-11.727112 -5.7628322 -1.6632051 2 4
-17.516573 -10.848048 0.11974867 9 21
-23.004061 -11.30445 -0.14897099 6 19
-13.155484 -7.2832055 -1.6197358 2 5
-16.44083 -7.1043692 -1.671878 1 6
-20.205729 -11.186397 -1.6150018 3 8
-17.71137 -8.7035637 -1.6110168 5 7
-17.516256 -10.847851 0.59961408 12 25
-23.047607 -11.32585 0.44824761 6 23
-17.518335 -10.849139 -1.3205954 13 9
-23.093523 -9.9791126 -1.4651034 4 10
-20.094273 -9.874548 0.9121688 2 26
-20.096796 -11.126089 -1.0700297 3 12
-23.105566 -11.354331 -1.3492211 4 11
-17.505749 -10.841345 -0.83889574 20 13
-23.371765 -10.099346 -0.8890996 5 14
-20.368538 -11.276533 -0.54175204 8 16
-17.533396 -10.769751 -0.35917056 18 17
-5.0921474 -2.7948039 -1.6260786 2 1
-7.3705087 -3.5884695 -1.6395407 1 2
-20.576561 -11.29336 0 7 20
-9.0745459 -4.9805269 -1.6104488 2 3
-11.751722 -5.7215452 -1.6637102 2 4
-17.53236 -10.769114 0.11958594 9 21
-13.168145 -7.227282 -1.6180223 2 5
-16.452112 -7.0377922 -1.6703908 1 6
-20.606047 -11.309544 0.54696298 6 24
-20.299065 -11.141058 -1.6191874 3 8
-17.743155 -8.6385851 -1.6110168 5 7
-17.52183 -10.762647 0.59845048 14 25
-23.153692 -11.272806 0.44950417 3 23
-17.513767 -10.757694 -1.3172696 12 9
-23.126272 -9.892827 -1.4648709 4 10
-20.227354 -9.8480644 0.91656518 2 26
-20.214504 -11.094646 -1.0741245 3 12
-23.17576 -11.283551 -1.3508958 9 11
-17.501097 -10.749911 -0.836779 19 13
-23.353493 -9.9900265 -0.88700557 4 14
-17.53145 -10.688645 -0.35840264 21 17
-5.1149197 -2.7852707 -1.6303918 1 1
-7.3823686 -3.564008 -1.6395407 2 2
-20.69821 -11.270973 0 7 20
-9.0875425 -4.9485168 -1.6098338 2 3
-11.781352 -5.6877179 -1.6652254 2 4
-17.533825 -10.690093 0.11935347 9 21
-23.212099 -11.206174 -0.1498079 3 19
-13.167593 -7.1702614 -1.6150236 2 5
-16.460695 -6.9769793 -1.6689038 1 6
-20.720705 -11.283222 0.5490101 6 24
-20.335901 -11.073682 -1.6191874 3 8
-17.768114 -8.5779648 -1.6106913 5 7
-17.519873 -10.681587 0.59717053 14 25
-17.515265 -10.678778 -1.3147113 12 9
-23.269253 -9.862834 -1.4718477 4 10
-20.267099 -9.7844076 0.91689086 2 26
-20.314352 -11.061947 -1.0774747 3 12
-17.502525 -10.671011 -0.83515066 19 13
-23.342329 -9.8938074 -0.8853305 4 14
-17.52916 -10.607677 -0.35763472 21 17
-23.189192 -11.100451 -0.74820852 3 15
-5.1241269 -2.7682946 -1.6303918 1 1
-7.3976836 -3.5412028 -1.6403252 1 2
-20.925508 -11.304945 0 7 20
-9.107379 -4.9202347 -1.6104488 2 3
-11.792988 -5.6451941 -1.6642152 2 4
-17.521267 -10.602901 0.119028 6 21
-13.1773 -7.1189981 -1.6133101 2 5
-16.498426 -6.9285264 -1.6703908 1 6
-20.962067 -11.324696 0.55440718 3 24
-20.358465 -10.998602 -1.6180712 3 8
-17.814442 -8.5276079 -1.6123186 5 7
-17.517569 -10.600663 0.59589052 14 25
-17.51301 -10.597905 -1.3118972 12 9
-23.423328 -9.8366432 -1.479522 4 10
-20.310247 -9.7223282 0.91737938 2 26
-20.372011 -11.00592 -1.0785915 3 12
-17.5002 -10.590154 -0.83335948 19 13
-23.445038 -9.8457603 -0.88798285 5 14
-17.535221 -10.527897 -0.35700643 21 17
-27.360397 -12.979973 -0.88132685 4 15
-5.1269679 -2.746753 -1.6282352 1 1
-7.4135427 -3.5170388 -1.6411096 1 2
-21.095301 -11.301724 0 7 20
-9.131465 -4.8921466 -1.6116785 2 3
-11.826962 -5.6107974 -1.6662356 2 4
-17.530737 -10.525205 0.11884203 6 21
-13.198564 -7.0710788 -1.6128817 2 5
-16.500448 -6.8617187 -1.6681602 3 6
-21.15304 -11.332659 0.55840844 3 24
-20.421354 -10.94066 -1.6200243 3 8
-17.872915 -8.4790411 -1.6149222 5 7
-17.51333 -10.514753 0.59449416 11 25
-17.52252 -10.520271 -1.3098506 12 9
-23.575508 -9.8038855 -1.4869637 4 10
-20.351282 -9.6547976 0.917705 2 26
-20.413828 -10.936628 -1.0787777 3 12
-17.506222 -10.510486 -0.83189404 19 13
-23.479261 -9.7638617 -0.88798285 5 14
-17.537502 -10.446156 -0.35630831 21 17
-27.550274 -12.952433 -0.88598132 4 15
-5.1399269 -2.7306468 -1.6293135 1 1
-7.4257741 -3.4911392 -1.6411096 1 2
-21.293583 -11.312469 0 7 20
-9.1449966 -4.8583875 -1.6110637 2 3
-11.842885 -5.567791 -1.6657305 2 4
-17.522696 -10.437337 0.1185398 3 21
-13.219654 -7.0230975 -1.6124533 2 5
-16.53903 -6.8101444 -1.6696473 3 6
