# .PCD v0.7 - Point Cloud Data file format
VERSION 0.7
FIELDS x y z intensity ring
SIZE 4 4 4 4 2
TYPE F F F F U
COUNT 1 1 1 1 1
WIDTH 1308
HEIGHT 1
VIEWPOINT 0 0 0 1 0 0 0
POINTS 1308
DATA ascii
-24.502884 23.025839 1.3698815 5 26
-11.532032 9.8214712 -0.70559794 10 12
-13.70699 12.880727 1.5355105 2 28
-11.779497 9.0779858 -0.60588723 17 13
-19.703602 20.417934 -0.99086654 11 14
-27.085184 23.067606 9.5328236 11 31
-22.57983 21.218708 5.6494017 24 30
-11.538368 9.8268681 -0.35266921 10 16
-2.5330732 2.3970826 -1.6262352 1 0
-11.743057 9.1154118 -0.25948238 15 17
-17.793484 16.838223 -0.71295083 6 15
-5.9314499 5.6130142 -1.6332649 1 2
-11.561763 9.9166269 0 1 20
-12.162625 12.691928 -0.20465024 20 18
-7.7432246 6.6414328 -1.5870821 1 3
-9.4762974 8.9675531 -1.6606797 2 4
-11.845757 9.1951313 0.087155461 1 21
-17.710651 16.759838 -0.14171772 25 19
-11.226601 9.6291561 -1.5931758 2 5
-10.686162 11.15121 -1.4417485 2 6
-11.576846 9.9295645 0.35490248 1 24
-11.503312 9.8664932 -1.0597403 8 8
-12.570264 11.895416 -1.4128128 2 7
-11.828311 9.1815891 0.4357762 1 25
-11.799632 9.1593266 -0.95731652 150 9
-12.394298 12.933681 -1.0432466 11 10
-11.639199 9.9830456 0.89301544 1 27
-24.512354 23.196384 1.3749292 5 26
-11.515879 9.8772717 -0.70671469 9 12
-17.918787 16.956799 -1.2929076 4 11
-26.458935 22.694065 4.2800517 14 29
-13.644571 12.912049 1.5335578 2 28
-11.757211 9.1263981 -0.60637569 17 13
-12.147743 12.676398 -0.61311436 8 14
-26.086561 22.374678 9.2087822 10 31
-22.34557 21.145926 5.6092229 24 30
-11.519175 9.8800993 -0.35313445 11 16
-2.5273142 2.4084117 -1.6279256 1 0
-11.723767 9.1662025 -0.25976163 15 17
-17.70565 16.872652 -0.71178716 9 15
-4.3550153 3.7618022 -1.6109824 14 1
-5.9118195 5.6336865 -1.6332649 1 2
-11.530102 9.9595423 0 1 20
-7.7110195 6.6606717 -1.5852374 2 3
-9.4535532 9.0087929 -1.662195 2 4
-11.810435 9.233964 0.087132215 1 21
-17.666517 16.835361 -0.14183395 21 19
-11.223014 9.6942835 -1.5974597 2 5
-10.644423 11.18556 -1.4413767 2 6
-11.560269 9.9856014 0.35546079 1 24
-12.159605 12.777771 0.20534873 9 22
-11.486917 9.9222393 -1.0614145 7 8
-12.514233 11.925476 -1.4111856 2 7
-11.793037 9.2203608 0.43565986 1 25
-11.758151 9.1930857 -0.95654905 116 9
-12.365589 12.994226 -1.044642 11 10
-11.502493 9.9356947 -0.70801759 9 12
-18.047449 17.198372 -1.3065149 4 11
-13.59364 12.954102 1.5329068 2 28
-11.731577 9.1723089 -0.60670137 17 13
-12.07586 12.689769 -0.61171842 24 14
-22.112085 21.071779 5.5690446 24 30
-11.502771 9.935935 -0.3536928 10 16
-2.5110447 2.4096887 -1.6228542 1 0
-11.704268 9.2169685 -0.26004085 15 17
-17.643761 16.931585 -0.71167082 9 15
-4.3476701 3.7820375 -1.613139 15 1
-5.8949494 5.6570048 -1.6340494 1 2
-12.057239 12.75909 -0.20437087 26 18
-7.6877227 6.6875482 -1.5852374 1 3
-9.4249125 9.0444832 -1.6626999 2 4
-11.793843 9.287508 0.087248459 1 21
-17.62496 16.913544 -0.14197344 21 19
-11.171103 9.717741 -1.5948894 2 5
-10.605313 11.222649 -1.4413767 2 6
-11.537412 10.036392 0.35583299 1 24
-12.12317 12.828859 0.20548841 18 22
-11.470275 9.9779902 -1.0630887 7 8
-12.472528 11.969086 -1.4111856 2 7
-11.804758 9.2961025 0.43728891 1 25
-23.618921 22.665564 0.57139182 31 23
-11.760488 9.261241 -0.95936322 155 9
-15.241118 16.128304 -1.2923142 3 10
-11.56018 10.056198 0.89231777 3 27
-23.4328 22.486956 1.3231496 10 26
-11.4798 9.9862757 -0.70876205 7 12
-25.757677 22.406599 4.1918182 26 29
-13.585735 13.037358 1.5371376 2 28
-11.721468 9.2305136 -0.60784119 15 13
-12.020508 12.720222 -0.61115998 22 14
-25.676105 22.33564 9.1187134 20 31
-21.720398 20.843674 5.4886875 23 30
-11.486121 9.9917746 -0.35425112 8 16
-2.5078325 2.4234769 -1.6262352 1 0
-11.681425 9.2652206 -0.2602503 15 17
-17.601807 17.009737 -0.71236902 6 15
-4.3315454 3.7946517 -1.6120608 6 1
-5.8751678 5.677546 -1.6340494 1 2
-11.472327 10.050336 0 19 20
-12.009892 12.798181 -0.20432429 20 18
-7.6643329 6.7143412 -1.5852374 1 3
-9.3818722 9.0662956 -1.6606797 2 4
-11.777022 9.3410444 0.087364696 1 21
-17.626219 17.033329 -0.14246164 15 19
-11.176004 9.7907419 -1.6004584 2 5
-10.563351 11.256694 -1.441005 2 6
-11.529381 10.100318 0.35667047 1 24
-12.070107 12.862348 0.20534873 15 22
-11.46239 10.04163 -1.0655999 5 8
-12.419209 12.001465 -1.4098837 4 7
-14.043358 11.138608 0.52165145 1 25
-23.657579 22.861814 0.57425404 9 23
-11.756237 9.3245583 -0.96166563 166 9
-11.543031 10.112276 0.89371312 3 27
-23.190351 22.410301 1.3138683 10 26
-11.471922 10.049981 -0.71043718 6 12
-25.667364 22.485903 4.1898685 40 29
-13.557347 13.101321 1.5390904 2 28
-11.704834 9.2837877 -0.60865533 15 13
-11.986978 12.773763 -0.61171842 19 14
-25.571829 22.402208 9.109396 20 31
-21.534323 20.809977 5.4599881 23 30
-11.466214 10.044981 -0.35471639 7 16
-2.5019555 2.4347446 -1.6279256 1 0
-11.664637 9.3184233 -0.26059934 15 17
-23.069788 22.450056 -0.93683159 5 15
-4.3096075 3.8021033 -1.6088258 13 1
-5.8553133 5.69802 -1.6340494 1 2
-11.443174 10.095613 0 14 20
-11.981506 12.857584 -0.20460369 16 18
-7.6467767 6.7462831 -1.5864673 2 3
-9.3501663 9.0989904 -1.6606797 2 4
-11.769346 9.402072 0.087550677 1 21
-17.649784 17.175653 -0.14313582 6 19
-11.117903 9.8086452 -1.5970314 2 5
-10.513133 11.281844 -1.4395179 2 6
-11.563025 10.201349 0.35881069 1 24
-12.022408 12.901477 0.20530216 9 22
-11.454198 10.105338 -1.0681111 5 8
-12.388667 12.055866 -1.4111856 4 7
-13.976275 11.165101 0.52060419 1 25
-23.05884 22.439404 0.56161845 4 23
-11.73921 9.3779974 -0.96294481 166 9
-11.902158 12.772434 -1.0167353 11 10
-11.513652 10.15779 0.89417821 3 27
-22.93726 22.321089 1.3039358 10 26
-11.463738 10.113755 -0.71211231 4 12
-17.946522 17.464418 -1.3123766 4 11
-25.597652 22.583242 4.1913309 26 29
-13.557247 13.193054 1.5442978 2 28
-11.684846 9.334568 -0.60930663 14 13
-11.99137 12.86817 -0.61423111 16 14
-24.986446 22.044014 8.9282227 19 31
-21.427708 20.852089 5.4513783 34 30
-11.449074 10.100818 -0.35527468 5 16
-2.4934418 2.4434633 -1.6279256 1 0
-11.65385 9.3766327 -0.26108801 15 17
-22.380163 21.931576 -0.91193008 5 15
-5.8297849 5.7129326 -1.6324805 2 2
-11.425805 10.151437 0 16 20
-11.977301 12.943363 -0.20530216 14 18
-7.6202264 6.7703104 -1.5858524 2 3
-9.3211842 9.1343508 -1.6611849 2 4
-11.742687 9.4481115 0.087597169 1 21
-25.280407 24.773687 -0.2057185 6 19
-11.116299 9.8764505 -1.6017436 2 5
-10.479097 11.324319 -1.4402614 2 6
-11.485492 10.204466 0.35750794 1 24
-12.329424 12.082294 -1.4092329 2 7
-31.403912 25.267441 1.1730467 7 25
-26.499559 25.968405 0.6476239 5 23
-11.721954 9.4314299 -0.96422398 166 9
-11.895471 12.854934 -1.019991 11 10
-11.513946 10.229747 0.89696884 1 27
-22.699352 22.244368 1.2948173 10 26
-11.485119 10.204134 -0.71564871 4 12
-17.894009 17.535343 -1.3130046 4 11
-25.631449 22.772665 4.2098551 13 29
-13.528198 13.257039 1.5462506 2 28
-11.667762 9.387826 -0.61012077 15 13
-21.290148 20.863409 5.4348764 23 30
-11.452608 10.17525 -0.35648435 6 16
-11.639688 9.4323673 -0.26150686 15 17
-4.3001819 3.8475094 -1.6152955 34 1
-5.8042216 5.7277393 -1.6309115 1 2
-11.414146 10.2126 0 8 20
-12.099833 13.167696 -0.20818914 22 18
-7.6024361 6.8021412 -1.5870821 2 3
-9.3061848 9.1835575 -1.6642152 2 4
-11.728279 9.5041571 0.087736659 1 21
-11.07879 9.9125452 -1.6013151 2 5
-10.423333 11.343237 -1.4380307 2 6
-18.402788 20.026913 0.31663749 12 22
-12.261631 12.10006 -1.4063036 2 7
-31.36832 25.41971 1.1750249 7 25
-11.463285 10.256566 0.89580613 1 27
-22.448029 22.152231 1.2848847 15 26
-11.470271 10.262815 -0.71695155 9 12
-17.81847 17.583675 -1.3119578 4 11
-24.900867 22.279598 4.1026101 12 29
-13.515887 13.337789 1.550156 2 28
-11.647338 9.4385653 -0.61077207 14 13
-18.387415 20.010183 -0.94898713 16 14
-24.472012 21.895885 8.7988129 18 31
-20.752228 20.478775 5.3157754 33 30
-11.46172 10.255165 -0.35788015 3 16
-2.4686077 2.453145 -1.6228542 1 0
-11.625284 9.4881077 -0.26192573 15 17
-22.348455 22.208473 -0.91693366 16 15
-4.2838645 3.8599172 -1.6142174 39 1
-5.7925406 5.756258 -1.6332649 1 2
-11.399231 10.27112 0 4 20
-12.075363 13.233484 -0.20856166 26 18
-7.5845203 6.8339276 -1.588312 1 3
-9.2459269 9.188014 -1.6591645 2 4
-11.716725 9.5627384 0.087899387 1 21
-22.380239 22.240057 -0.18337752 10 19
-11.035259 9.9431686 -1.6000301 2 5
-10.386359 11.382491 -1.4384025 2 6
-11.411 10.281724 0.35741487 6 24
-18.257282 20.008297 0.31533366 19 22
-11.439645 10.307534 -1.0767609 63 8
-12.205181 12.128732 -1.4046763 2 7
-11.711966 9.5588541 0.43996525 1 25
-22.371532 22.231405 0.55051869 80 23
-11.692935 9.5433216 -0.96729392 8 9
-14.887337 16.315147 -1.2862678 3 10
-22.364901 22.224813 1.2845591 5 26
-11.461095 10.326861 -0.71862668 18 12
-17.765486 17.654207 -1.3125859 4 11
-13.480561 13.396123 1.5514579 2 28
-11.635996 9.496851 -0.61191189 14 13
-24.214602 21.818233 8.7335911 18 31
-20.532682 20.404072 5.2777495 10 30
-11.440709 10.308493 -0.35834542 2 16
-2.4604592 2.461318 -1.6228542 1 0
-11.599938 9.5316868 -0.26206535 13 17
-13.588124 13.592869 -0.55935282 1 15
-4.2738938 3.8766892 -1.6152955 43 1
-5.7761941 5.7782106 -1.6340494 1 2
-11.38881 10.330363 0 3 20
-7.5676713 6.8643513 -1.5895418 1 3
-9.2350445 9.2382689 -1.6626999 2 4
-11.694222 9.6091604 0.087969132 1 21
-13.587993 13.592736 -0.11170499 2 19
-11.031683 10.006427 -1.6043139 2 5
-10.343207 11.41097 -1.4376589 2 6
-18.094131 19.962046 0.31365737 18 22
-12.176168 12.180419 -1.4059782 2 7
-11.68947 9.6052551 0.44031432 1 25
-13.557878 13.562611 0.33473715 12 23
-11.682813 9.5997849 -0.96908468 10 9
-14.833152 16.364426 -1.2862678 3 10
-13.560005 13.564739 0.78141701 1 26
-11.426787 10.364811 -0.71862668 7 12
-17.698372 17.70455 -1.3119578 4 11
-24.007599 21.776394 3.9797657 12 29
-13.452974 13.457671 1.5534106 2 28
-11.622968 9.5506105 -0.61288887 14 13
-18.052116 19.915695 -0.93865687 16 14
-23.961823 21.734873 8.6683674 18 31
-24.788544 22.48476 -0.77875692 11 16
-2.4522841 2.4694631 -1.6228542 1 0
-11.589838 9.587944 -0.26255399 13 17
-4.2524824 3.8830485 -1.6120608 45 1
-5.7514734 5.7917647 -1.6324805 1 2
-17.928814 19.911957 -0.31193447 11 18
-7.5536232 6.8974032 -1.5913866 1 3
-9.2071571 9.271657 -1.6632051 2 4
-11.686951 9.6682825 0.088155113 1 21
-10.969072 10.016136 -1.6000301 2 5
-10.291987 11.430406 -1.4358001 2 6
-17.92346 19.906012 0.31184137 12 22
-12.118856 12.203753 -1.4040254 2 7
-11.685282 9.6669016 0.44136161 1 25
-11.666296 9.6511946 -0.97036391 8 9
-14.749416 16.38088 -1.2837098 3 10
-23.608299 21.557331 1.8618442 12 27
-11.609712 9.6043844 -0.61386585 14 13
-23.701307 21.64226 8.6000395 17 31
-20.355318 20.497915 5.2669873 21 30
-24.309282 22.197418 -0.76600868 16 16
-2.4487395 2.4831712 -1.6262352 1 0
-11.574734 9.6437044 -0.26297286 11 17
-13.455982 13.645187 -0.5577237 7 15
-4.2445722 3.903084 -1.6142174 44 1
-5.7312202 5.8118072 -1.6324805 1 2
-24.673975 22.688885 0 40 20
-17.765884 19.870064 -0.31030473 11 18
-7.5324097 6.9264064 -1.5920016 1 3
-9.1858797 9.3150415 -1.6652254 2 4
-11.665421 9.7192612 0.088248104 2 21
-13.497964 13.687758 -0.11172824 4 19
-10.989662 10.105513 -1.6081694 2 5
-10.244059 11.457357 -1.4346848 2 6
-24.69379 22.707106 0.78061789 27 24
-17.757887 19.861116 0.31016505 18 22
-14.342427 13.188539 -1.3624835 2 8
-11.676039 9.7281084 0.44229248 1 25
-11.650934 9.7071924 -0.97189885 11 9
-14.68948 16.429291 -1.2834771 3 10
-23.356537 21.477438 1.8478909 12 27
-13.46736 13.656724 0.78141701 3 26
-19.267796 17.717648 -1.2193016 4 12
-13.479692 13.66923 -1.0061065 7 11
-23.598715 21.700132 3.9363804 23 29
-11.588395 9.6550865 -0.61451715 12 13
-11.822412 13.22265 -0.61939627 5 14
-23.446438 21.560106 8.5348177 17 31
-20.164825 20.448364 5.236136 21 30
-2.4421582 2.4947197 -1.6279256 1 0
-11.557691 9.7014885 -0.26339173 11 17
-20.132599 20.565905 -0.83757466 8 15
-4.2302384 3.9186139 -1.6142174 42 1
-5.7016501 5.8243647 -1.6301271 1 2
-24.640541 22.825371 0 24 20
-17.687634 19.929056 -0.3102116 27 18
-7.5127726 6.9593368 -1.5932312 1 3
-9.1738834 9.3713293 -1.669266 2 4
-11.638912 9.7696657 0.088317849 2 21
-20.118397 20.551397 -0.16715066 8 19
-10.993399 10.183558 -1.6141669 2 5
-10.204643 11.497803 -1.4350564 4 6
-24.651478 22.835501 0.78192073 34 24
-14.285213 13.232879 -1.3616463 2 8
-12.00054 12.258822 -1.4004453 4 7
-11.637245 9.7682667 0.44217613 1 25
-14.637121 16.491976 -1.2841748 3 10
-23.113613 21.410925 1.8348676 12 27
-20.096468 20.528996 1.1704159 4 26
-19.226183 17.809866 -1.2207906 4 12
-17.464502 17.840385 -1.3083991 4 11
-23.527763 21.794567 3.9378424 35 29
-19.639277 20.061964 2.2918746 9 28
-11.568237 9.7103415 -0.61533135 14 13
-17.701939 19.945175 -0.9312582 21 14
-23.197195 21.48835 8.4727001 17 31
-19.960367 20.389967 5.2024145 21 30
-24.170355 22.389822 -0.76666003 11 16
-2.4329977 2.5036545 -1.6279256 1 0
-11.537323 9.7566996 -0.26374078 9 17
-12.305095 12.662448 -0.51385522 3 15
-4.215847 3.9340935 -1.6142174 41 1
-5.6911974 5.8564758 -1.6332649 1 2
-24.562559 22.920994 0 48 20
-7.495882 6.9949174 -1.595076 1 3
-9.1228809 9.3878193 -1.6662356 2 4
-11.624405 9.8303413 0.088480584 2 21
-12.179078 12.532772 -0.10156902 4 19
-10.944366 10.212933 -1.6124533 2 5
-10.151899 11.523177 -1.4335694 2 6
-14.219108 13.268817 -1.3599721 2 8
-11.955526 12.302728 -1.4004453 4 7
-11.625787 9.8315105 0.44310701 1 25
-19.867409 20.44438 0.497603 7 23
-11.591657 9.8026476 -0.97292221 11 9
-14.550177 16.515554 -1.2818491 3 10
-22.871487 21.342939 1.8218446 12 27
-19.884605 20.462076 1.1624372 4 26
-19.166616 17.885674 -1.2211628 4 12
-17.401777 17.907145 -1.3086084 4 11
-23.450623 21.883369 3.9383302 23 29
-19.454473 20.019453 2.2788563 13 28
-11.547827 9.7655821 -0.61614543 14 13
-17.615499 19.99493 -0.93056017 5 14
-22.951611 21.417709 8.4116192 16 31
-19.786766 20.361397 5.1765852 10 30
-17.91918 16.721605 -0.57031918 6 16
-2.4166918 2.5043056 -1.6228542 1 0
-11.512332 9.8046904 -0.2639502 11 17
-4.2105103 3.9566979 -1.6174523 44 1
-5.6679969 5.8734822 -1.6324805 1 2
-17.737284 16.668068 0 11 20
-17.539303 20.049097 -0.31011847 3 18
-7.4743009 7.0237446 -1.5956908 1 3
-9.0983229 9.4281702 -1.6677507 2 4
-11.614382 9.8916035 0.088666558 2 21
-10.899957 10.2429 -1.6111681 2 5
-10.103749 11.549549 -1.4324541 2 6
-24.487438 23.01132 0.78192073 82 24
-17.544571 20.055117 0.3102116 12 22
-14.15526 13.301971 -1.3582981 2 8
-11.89867 12.33004 -1.3988181 2 7
-11.609663 9.8875847 0.44380519 1 25
-19.64596 20.358196 0.4938333 7 23
-11.545214 9.832696 -0.97189885 6 9
-14.476665 16.548208 -1.2804538 3 10
-22.63389 21.269505 1.8088213 11 27
-19.674295 20.38756 1.1542958 4 26
-17.330843 17.95915 -1.3079803 4 11
-23.4146 22.003153 3.9451547 11 29
-19.268204 19.966747 2.2651873 13 28
-11.531926 9.8213787 -0.61712241 12 13
-22.733118 21.362751 8.35882 24 31
-19.58168 20.291588 5.1414289 10 30
-2.4104435 2.5153437 -1.6245446 1 0
-11.49625 9.8604393 -0.26436904 11 17
-12.072544 12.59793 -0.50780439 17 15
-4.185482 3.9607809 -1.613139 47 1
-5.6393189 5.8847365 -1.6301271 1 2
-17.327572 19.947144 -0.30760401 3 18
-7.449738 7.0497928 -1.5956908 1 3
-9.0626116 9.4570074 -1.6672456 2 4
-11.616217 9.963335 0.088945538 2 21
-12.055312 12.579947 -0.10126679 17 19
-10.806365 10.226216 -1.6026003 5 5
-10.052926 11.572721 -1.430967 2 6
-17.372164 19.998476 0.30839559 6 22
-14.088455 13.332105 -1.3563448 2 8
-11.85004 12.365742 -1.3981671 2 7
-11.590252 9.9410658 0.44438702 1 25
-11.504761 9.8677387 -0.97138721 9 9
-14.421433 16.601658 -1.2806865 3 10
-22.423189 21.219381 1.7978913 17 27
-17.894922 16.934219 -1.1476437 10 12
-19.077021 19.907232 2.2508669 13 28
-11.524876 9.8849916 -0.61858791 12 13
-17.323433 19.942379 -0.92246348 10 14
-22.473192 21.266701 8.2904921 16 31
-19.396378 20.240488 5.1112952 10 30
-17.735205 16.783075 -0.56817895 27 16
-2.4066467 2.5289948 -1.6279256 1 0
-11.482947 9.9188089 -0.26485771 11 17
-12.017468 12.628407 -0.50733894 22 15
-4.1772075 3.9806814 -1.6152955 46 1
-5.6160383 5.9015441 -1.6293426 1 2
-17.623381 16.79425 0 27 20
-17.142885 19.874241 -0.30555516 3 18
-7.4336677 7.0839343 -1.5975356 1 3
-9.0787821 9.5403252 -1.676337 2 4
-11.617691 10.035198 0.08922451 2 21
-12.011325 12.621952 -0.10126679 13 19
-10.007264 11.601709 -1.4302233 2 6
-23.712461 22.596857 0.7621935 6 24
-17.187298 19.92573 0.30634677 6 22
-14.050495 13.389459 -1.357182 2 8
-11.804054 12.404143 -1.3978417 2 7
-11.600867 10.020666 0.44613242 1 25
-19.406857 20.393454 0.49138996 10 23
-11.488371 9.9234934 -0.97292221 6 9
-14.342525 16.627703 -1.278826 3 10
-22.213112 21.168047 1.7869611 11 27
-19.396479 20.382549 1.1463171 28 26
-18.908848 18.019239 -1.2166958 4 12
-12.306233 12.931852 -0.93555766 14 11
-18.891983 19.852406 2.2371979 13 28
-11.505422 9.9382219 -0.61940205 10 13
-17.164938 19.899807 -0.91771716 10 14
-22.244982 21.198418 8.233552 16 31
-19.21438 20.191195 5.0818787 10 30
-17.66493 16.833845 -0.56780672 30 16
-2.397804 2.5373802 -1.6279256 1 0
-11.463341 9.9719572 -0.26520678 9 17
-11.967821 12.664468 -0.50710618 21 15
-4.1660662 3.997906 -1.6163739 48 1
-5.5927105 5.918262 -1.6285582 1 2
-17.584854 16.875053 0 23 20
-17.003159 19.851944 -0.30429792 3 18
-7.408895 7.1098399 -1.5975356 0 3
-9.0454245 9.5719585 -1.676337 2 4
-11.972687 12.669617 -0.10131329 14 19
-10.579757 10.152713 -1.5794674 5 5
-9.9563417 11.624473 -1.4287363 2 6
-17.029177 19.882322 0.30476356 6 22
-14.000793 13.43566 -1.356903 2 8
-11.755207 12.439478 -1.3971908 4 7
-11.595984 10.087343 0.44729605 1 25
-12.116652 12.821961 0.30793026 4 23
-11.465708 9.9740162 -0.9739455 6 9
-14.279202 16.671604 -1.2783608 3 10
-22.018076 21.129332 1.7771937 11 27
-19.355406 20.482084 1.1481082 32 26
-12.090915 12.794726 -0.92257828 9 11
-22.544106 21.634129 3.8364472 11 29
-18.69935 19.787838 2.2225521 13 28
-11.485739 9.9914408 -0.62021619 8 13
-17.001753 19.850304 -0.91269159 10 14
-21.596575 20.724844 8.0202847 7 31
-19.01405 20.120857 5.0474396 10 30
-17.606062 16.895405 -0.56780672 30 16
-2.3893774 2.5453172 -1.6279256 1 0
-11.45729 10.033628 -0.26583505 9 17
-11.933971 12.712829 -0.50745529 22 15
-4.1472454 4.0063462 -1.6142174 47 1
-5.5757394 5.9396334 -1.6293426 1 2
-17.563322 16.966621 0 23 20
-16.8543 19.81073 -0.30280787 3 18
-7.3994918 7.1481004 -1.6006103 0 3
-9.0136356 9.6019001 -1.676337 2 4
-11.461851 10.037621 0.088550329 6 21
-11.944299 12.72383 -0.10142953 11 19
-10.480245 10.124187 -1.5696145 5 5
-9.9125795 11.651356 -1.4279927 4 6
-23.592617 22.791077 0.76331013 13 24
-16.864666 19.822916 0.30299413 5 22
-13.953293 13.479241 -1.356624 2 8
-11.689337 12.452229 -1.3942617 4 7
-11.601573 10.159983 0.44880876 1 25
-11.456595 10.03302 -0.97599214 6 9
-14.200553 16.691486 -1.2762679 3 10
-21.810032 21.069054 1.766031 10 27
-19.33662 20.598604 1.1510391 32 26
-17.573034 16.976006 -1.1381513 3 12
-11.974606 12.756115 -0.91692603 19 11
-21.864037 21.121223 3.7326148 10 29
-18.527216 19.736374 2.2098594 12 28
-11.473591 10.047903 -0.62135601 7 13
-16.855536 19.812183 -0.90836412 10 14
-17.567196 16.970366 -0.56836504 24 16
-2.3833959 2.5558782 -1.6296161 1 0
-11.438954 10.08479 -0.26618412 7 17
-11.913565 12.775728 -0.50838619 16 15
-4.1422219 4.0281329 -1.6174523 45 1
-5.5613618 5.9638276 -1.6309115 1 2
-17.578653 17.094484 0 11 20
-16.713646 19.77792 -0.30145752 3 18
-7.3814144 7.1781082 -1.6018399 0 3
-8.9546824 9.6027174 -1.6712863 4 4
-11.443504 10.088801 0.088666558 8 21
-11.937502 12.801398 -0.10173175 4 19
-10.378186 10.09234 -1.5593331 7 5
-9.8790293 11.690248 -1.4287363 2 6
-23.594318 22.944462 0.76582259 6 24
-16.698156 19.75959 0.30117813 5 22
-13.888494 13.505963 -1.3546706 2 8
-11.653418 12.496755 -1.3949126 4 7
-11.558821 10.190467 0.44845966 1 25
-12.014985 12.884488 0.30751142 4 23
-11.450211 10.094714 -0.97829461 6 9
-14.137392 16.729338 -1.2755702 3 10
-21.591183 20.996498 1.7539381 10 27
-19.306368 20.703535 1.1533188 32 26
-18.68251 18.16794 -1.213904 4 12
-11.945861 12.810362 -0.91797274 14 11
-18.350191 19.678162 2.1965156 12 28
-11.46719 10.109683 -0.62282145 8 13
-16.689114 19.748892 -0.90291983 10 14
-21.225979 20.641354 7.933322 14 31
-18.657438 20.007645 4.9878893 19 30
-2.3666234 2.5566158 -1.6245446 1 0
-11.422844 10.145242 -0.26667276 5 17
-11.967151 12.927873 -0.51269156 11 15
-4.1164222 4.0325069 -1.613139 42 1
-5.5368004 5.9812942 -1.6301271 1 2
-25.36516 24.848078 0 28 20
-16.556213 19.737923 -0.29992089 3 18
-7.3691711 7.2189465 -1.6049145 0 3
-11.421401 10.14396 0.088782802 6 21
-11.99647 12.959547 -0.10263841 7 19
-10.272941 10.06352 -1.5490519 7 5
-9.8284349 11.717226 -1.427621 2 6
-23.010145 22.541071 0.74953836 6 24
-16.530508 19.707277 0.29945523 5 22
-13.824643 13.542821 -1.3532757 2 8
-11.602117 12.533534 -1.3942617 4 7
-11.506444 10.219491 0.44787788 1 25
-18.539711 20.028078 0.47638088 6 23
-11.434024 10.155171 -0.98008537 4 9
-14.052881 16.75351 -1.2734772 3 10
-21.371447 20.935778 1.7423104 10 27
-19.246641 20.791759 1.1542958 28 26
-18.598665 18.219522 -1.2127873 4 12
-11.928674 12.886307 -0.92027557 4 11
-21.449451 21.012192 3.6867917 20 29
-18.169607 19.628263 2.1834972 12 28
-11.498785 10.212689 -0.62656653 10 13
-16.524128 19.699671 -0.89789426 10 14
-20.998373 20.570311 7.8763814 14 31
-18.479723 19.963274 4.9599075 19 30
-22.393114 21.936617 -0.72943902 10 16
-2.3576853 2.5648608 -1.6245446 1 0
-11.417172 10.211713 -0.26737088 6 17
-18.388924 20.004805 -0.79079711 7 15
-4.1050649 4.0495553 -1.6142174 39 1
-5.5132346 5.9976964 -1.6293426 1 2
-16.369471 19.654217 -0.29777893 3 18
-7.332674 7.233521 -1.602455 0 3
-8.7917509 9.5643044 -1.6536087 4 4
-11.418718 10.213096 0.089038521 6 21
-12.091923 13.154469 -0.10384728 12 19
-10.183959 10.04625 -1.5409124 7 5
-9.7849283 11.7484 -1.4272492 2 6
-26.353233 25.996881 0.86138755 8 24
-16.366911 19.651144 0.29773238 5 22
-13.78297 13.596596 -1.3538337 2 8
-11.555599 12.571018 -1.3939362 2 7
-18.369547 19.983725 0.47379792 10 23
-11.431237 10.224293 -0.98289955 4 9
-14.004539 16.814732 -1.2744075 3 10
-21.195902 20.909288 1.7339383 10 27
-18.386869 20.002569 1.1069125 7 26
-18.526426 18.275909 -1.2122289 4 12
-16.765747 18.238995 -1.2983505 4 11
-21.384459 21.095295 3.6882541 30 29
-17.990366 19.571224 2.1701534 12 28
-11.474984 10.263421 -0.62721783 15 13
-16.37084 19.655861 -0.89328754 10 14
-20.827425 20.545795 7.8391118 14 31
-18.298079 19.905977 4.9297738 19 30
-22.464447 22.160679 -0.73427778 10 16
-2.3540559 2.5780194 -1.6279256 1 0
-11.401079 10.265575 -0.26778972 6 17
-18.246992 19.983 -0.78753895 11 15
-4.0970793 4.0685749 -1.6163739 42 1
-5.4959602 6.0188422 -1.6301271 1 2
-16.240467 19.631346 -0.29661483 3 18
-7.305841 7.255012 -1.6018399 0 3
-8.7064743 9.5348024 -1.6435072 6 4
-11.396678 10.261613 0.089131512 4 21
-18.224743 19.958633 -0.15708442 11 19
-10.077216 10.007106 -1.5297743 6 5
-9.7306833 11.762371 -1.4250185 2 6
-16.243017 19.634428 0.29666138 5 22
-13.729312 13.633793 -1.3529966 2 8
-11.503097 12.597494 -1.3926344 2 7
-11.412846 10.276171 0.44694695 2 25
-18.206093 19.93821 0.47128481 13 23
-11.435833 10.296868 -0.98622537 2 9
-13.918159 16.824158 -1.2716168 3 10
-21.01594 20.869724 1.7248685 10 27
-18.223417 19.957182 1.1010506 10 26
-18.445871 18.317539 -1.2109261 4 12
-16.705172 18.294491 -1.2983505 4 11
-21.32847 21.180082 3.6906917 20 29
-17.801706 19.49535 2.1551824 12 28
-16.213837 19.599154 -0.88826203 10 14
-20.726278 20.582081 7.8266883 14 31
-18.123177 19.847404 4.9003572 19 30
-22.373808 22.218147 -0.73371947 15 16
-2.3470259 2.5893161 -1.6296161 1 0
-11.395963 10.336849 -0.26855764 4 17
-18.130667 20.002348 -0.78567713 7 15
-4.0848632 4.086288 -1.6174523 41 1
-5.4712286 6.0360394 -1.6293426 1 2
-16.051645 19.548542 -0.29447287 3 18
-7.3099384 7.3124886 -1.6086041 0 3
-8.6181717 9.5078506 -1.6334058 6 4
-24.785946 22.482401 0.1944899 17 21
-18.065504 19.93046 -0.15634049 11 19
-9.9898605 9.9933462 -1.5220634 6 5
-9.6849775 11.794878 -1.4246469 2 6
-16.071951 19.573273 0.29484537 5 22
-13.651038 13.655801 -1.3502063 2 8
-11.454169 12.636617 -1.3923091 2 7
-24.772915 22.470581 0.9733693 16 25
-18.036198 19.898127 0.46877164 13 23
-15.504851 14.063868 -1.3415735 4 9
-13.846263 16.862711 -1.2706865 3 10
-20.848967 20.856239 1.7174268 5 27
-18.061571 19.926119 1.0956773 10 26
-13.644127 13.648888 -0.89898133 2 12
-16.619228 18.334879 -1.2968851 4 11
-17.593582 19.409819 2.1385839 12 28
-16.055639 19.553408 -0.88351572 4 14
-20.64797 20.655174 7.8256531 14 31
-17.941956 19.794155 4.8709412 19 30
-13.593026 13.597768 -0.4473967 1 16
-2.3306971 2.5894098 -1.6245446 1 0
-4.0678606 4.0977888 -1.6163739 35 1
-5.4553728 6.0609317 -1.6309115 1 2
-15.856938 19.449455 -0.29214463 3 18
-7.2927227 7.3463769 -1.6104488 0 3
-8.5477657 9.4965868 -1.6263349 6 4
-17.896812 19.883398 -0.15548033 10 19
-9.8876734 9.9604187 -1.5117821 6 5
-9.6437464 11.828614 -1.4246469 2 6
-15.892322 19.492855 0.29279652 5 22
-11.407323 12.67356 -1.3919836 4 7
-24.738605 22.597366 0.9751147 16 25
-17.87031 19.853954 0.4662585 9 23
-15.467453 14.128675 -1.3425968 4 9
-13.772176 16.892372 -1.2692912 3 10
-17.884954 19.870224 1.089164 10 26
-16.539091 18.374968 -1.295629 4 11
-17.427038 19.361477 2.1265421 12 28
-21.326176 19.480299 -1.1767662 6 13
-15.873614 19.469908 -0.8772338 4 14
-20.48864 20.63938 7.7925243 14 31
-17.764814 19.736748 4.8415241 18 30
-2.32406 2.6002326 -1.6262352 1 0
-17.753441 19.863117 -0.77532089 15 15
-4.0481234 4.1064773 -1.6142174 38 1
-5.4263425 6.0711651 -1.6285582 1 2
-15.751203 19.458055 -0.29144618 3 18
-7.2559342 7.3605294 -1.6079891 0 3
-8.464323 9.4701548 -1.6167384 6 4
-24.375217 22.42201 0.19249061 17 21
-17.773985 19.886103 -0.15501538 25 19
-9.7942123 9.9353962 -1.5027859 6 5
-9.5973864 11.856014 -1.4239032 2 6
-15.758753 19.467382 0.29158586 5 22
-13.476934 13.671206 -1.3423936 7 8
-11.355042 12.704384 -1.3910071 4 7
-24.712545 22.732309 0.97720927 16 25
-17.755587 19.865519 0.46507171 22 23
-15.409228 14.174474 -1.3418293 4 9
-13.698052 16.921722 -1.2678958 3 10
-13.458957 13.652968 1.1165018 6 27
-17.754227 19.863997 1.0854191 25 26
-13.475575 13.669827 -0.89414209 6 12
-16.474848 18.432587 -1.295629 4 11
-20.572206 20.868755 3.5980709 19 29
-17.261045 19.31221 2.1145 12 28
-21.210983 19.51133 -1.174161 6 13
-15.709978 19.407129 -0.87192905 4 14
-20.278135 20.570446 7.7397251 20 31
-17.596161 19.687145 4.8142605 18 30
-13.486537 13.680946 -0.44702452 5 16
-2.3154244 2.6079252 -1.6262352 1 0
-17.692785 19.927862 -0.77555364 33 15
-4.0398736 4.1253824 -1.6163739 39 1
-5.413991 6.0979247 -1.6309115 1 2
-7.2397828 7.3930221 -1.6098338 0 3
-8.3933554 9.4536629 -1.6091623 6 4
-24.620625 22.798948 0.19502458 26 21
-17.710598 19.947926 -0.15503863 18 19
-9.7055607 9.9109907 -1.4942181 6 5
-9.5455399 11.872256 -1.4220444 2 6
-13.470611 13.755733 -1.3463 2 8
-11.315497 12.74495 -1.3913325 4 7
-17.70289 19.939243 0.46542078 16 23
-15.359208 14.222782 -1.3415735 4 9
-13.636859 16.960831 -1.2674308 3 10
-20.102253 20.527742 1.6732411 9 27
-17.696217 19.931728 1.0859075 21 26
-16.405678 18.478159 -1.295001 4 11
-20.158443 20.585121 3.5376236 28 29
-17.104267 19.264999 2.1031091 12 28
-21.125637 19.562553 -1.1730211 6 13
-20.071941 20.49679 7.6869259 20 31
-16.125181 18.162228 4.4282584 7 30
-20.144854 20.571245 -0.66997844 12 16
-2.3111017 2.6214302 -1.6296161 1 0
-24.575592 22.917109 -0.58654046 25 17
-17.631046 19.998495 -0.77590275 7 15
-4.0281339 4.1422205 -1.6174523 13 1
-5.3900785 6.1138439 -1.6301271 0 2
-20.022583 20.589672 0 5 20
-15.518579 19.439785 -0.28958359 17 18
-7.2056651 7.4097471 -1.6079891 0 3
-8.3156948 9.4323034 -1.600576 5 4
-24.573071 22.914757 0.19528031 61 21
-9.6182251 9.8906364 -1.4860787 6 5
-9.5090094 11.911729 -1.4227879 2 6
-19.966984 20.532497 0.66644245 9 24
-15.508596 19.427282 0.28939733 11 22
-12.587951 12.944472 -1.2625922 2 8
-11.255121 12.766428 -1.3893797 4 7
-24.50168 22.848185 0.97499835 16 25
-17.646404 20.015917 0.46576983 6 23
-15.291951 14.259974 -1.3400385 4 9
-13.562623 16.989603 -1.2660354 3 10
-19.757647 20.31723 1.6504506 9 27
-18.045376 18.556465 -1.2057145 4 12
-16.325226 18.517334 -1.2937449 4 11
-19.931463 20.49597 3.5103247 18 29
-16.934092 19.207956 2.0904162 11 28
-21.048452 19.627998 -1.1725326 6 13
-15.530128 19.454254 -0.86927664 14 14
-19.879057 20.44208 7.6403384 20 31
-15.999227 18.14756 4.4110389 7 30
-12.308605 12.657215 -0.4108271 4 16
-2.2967041 2.6244268 -1.6262352 1 0
-17.833683 16.752796 -0.42709532 13 17
-17.547104 20.050945 -0.7754373 3 15
-5.3857174 6.1542196 -1.6356183 0 2
-15.481999 19.540421 -0.29023549 10 18
-7.1839504 7.4417939 -1.609219 0 3
-8.2366467 9.4119558 -1.5919899 5 4
-17.530527 20.032005 -0.15471315 3 19
-9.5266676 9.8685951 -1.4775109 6 5
-9.4702349 11.952744 -1.4235315 4 6
-19.755505 20.464561 0.66188288 9 24
-15.454677 19.505936 0.28972328 11 22
-11.210882 12.810593 -1.3897052 4 7
-24.199213 22.732513 0.96627122 10 25
-17.567661 20.074438 0.46563023 22 23
-15.230857 14.307724 -1.3392709 4 9
-13.490343 17.026674 -1.2651051 3 10
-19.555471 20.257349 1.639753 13 27
-17.495235 19.991678 1.0823253 10 26
-17.991121 18.636852 -1.2066451 4 12
-16.246727 18.565016 -1.2929076 4 11
-19.767973 20.477476 3.4947255 18 29
-16.766439 19.158886 2.0783741 11 28
-17.952698 16.864597 -1.003516 10 13
-15.46617 19.520441 -0.86969548 9 14
-19.710081 20.417507 7.6041036 13 31
-2.292284 2.6379011 -1.6296161 1 0
-17.731512 16.773724 -0.42604813 35 17
-17.353737 19.97023 -0.76996821 3 15
-3.9983897 4.1709399 -1.6174523 1 1
-5.3616276 6.170022 -1.6348339 0 2
-12.090924 12.612706 0 20 20
-15.19113 19.31142 -0.28604472 3 18
-7.1606636 7.4696808 -1.6098338 0 3
-8.1673021 9.3987198 -1.5849189 5 4
-17.321436 19.933058 -0.15348102 3 19
-9.4288607 9.835762 -1.467658 6 5
-9.4407635 12.001382 -1.4253904 2 6
-19.559418 20.4035 0.65769553 13 24
-15.900858 20.213646 0.29940867 5 22
-12.425967 12.962208 -1.2556164 18 8
-11.147788 12.828585 -1.3874271 2 7
-23.933813 22.641001 0.95882404 10 25
-15.166317 14.347091 -1.3379918 4 9
-13.423418 17.064251 -1.2644075 3 10
-19.357523 20.192894 1.6290554 13 27
-17.315237 19.925924 1.0754865 7 26
-16.184443 18.624636 -1.2931169 4 11
-19.558998 20.403065 3.4703517 9 29
-16.605316 19.108965 2.0666578 11 28
-17.905331 16.938154 -1.0041673 10 13
-15.091458 19.184713 -0.85238534 4 14
-19.47559 20.316055 7.5409522 6 31
-15.912838 18.31208 4.4232364 23 30
-12.095955 12.617954 -0.40673277 19 16
-2.2783253 2.6403973 -1.6262352 1 0
-17.632311 16.796894 -0.42507082 26 17
-17.155931 19.882355 -0.76426649 3 15
-3.9864616 4.1876602 -1.6185305 1 1
-5.3503065 6.2005782 -1.6379718 0 2
-12.077162 12.686703 0 18 20
-15.000532 19.206717 -0.2837165 3 18
-7.1427212 7.5032182 -1.6116785 0 3
-8.0903759 9.3760996 -1.5763326 5 4
-17.652077 16.815723 0.14169447 27 21
-17.157679 19.88438 -0.15264411 3 19
-9.3451118 9.8167648 -1.4599471 6 5
-9.3865566 12.018569 -1.4235315 2 6
-15.010379 19.219324 0.28390273 5 22
-12.394401 13.019953 -1.2570117 6 8
-11.115963 12.882513 -1.3890544 2 7
-17.095261 19.812042 0.45676437 3 23
-15.121926 14.405451 -1.3385035 4 9
-13.346565 17.088972 -1.2627796 3 10
-19.174032 20.141756 1.6195207 13 27
-17.146358 19.87126 1.069299 3 26
-12.306519 12.927635 -0.8314181 18 12
-16.072357 18.626577 -1.2893487 4 11
-19.397324 20.376318 3.4542651 9 29
-16.447353 19.061169 2.0552669 11 28
-17.718769 16.879257 -0.99700278 10 13
-15.420554 19.744513 -0.87486058 4 14
-19.319305 20.294361 7.507823 6 31
-15.892521 18.418163 4.4354329 23 30
-12.032536 12.639824 -0.40608141 25 16
-2.2723792 2.6502934 -1.6279256 1 0
-17.591007 16.863274 -0.42535007 30 17
-16.955454 19.775276 -0.75809932 3 15
-3.9732864 4.2001634 -1.6185305 1 1
-5.3333549 6.2203326 -1.6387562 0 2
-12.045495 12.733299 0 18 20
-14.844494 19.130505 -0.2819005 3 18
-7.1435604 7.5514612 -1.6172128 0 3
-8.0143919 9.3472471 -1.5672413 5 4
-17.602051 16.873859 0.14171772 27 21
-16.977966 19.801533 -0.15159798 3 19
-9.2486334 9.7767353 -1.4496657 6 5
-9.3316641 12.02597 -1.4209291 2 6
-19.360462 20.465954 0.65555531 37 24
-13.145923 13.896562 -1.3376502 2 8
-11.057273 12.896182 -1.3867762 4 7
-23.54357 22.569578 0.949166 15 25
-16.973066 19.795816 0.45515877 3 23
-15.053545 14.430784 -1.3364569 4 9
-13.28792 17.124506 -1.2623146 3 10
-18.995407 20.080055 1.6097534 13 27
-16.984993 19.809727 1.0631114 3 26
-12.13679 12.829807 -0.82267028 13 12
-15.951362 18.604197 -1.2843245 4 11
-19.21044 20.307365 3.4323285 8 29
-16.293974 19.003786 2.0435503 11 28
-19.112076 20.203386 7.4519181 6 31
-15.873004 18.512806 4.4461956 24 30
-12.001013 12.686277 -0.40636054 16 16
-2.2598374 2.6562381 -1.6262352 1 0
-17.537634 16.941807 -0.42562929 26 17
-16.778357 19.721468 -0.7535612 3 15
-3.95713 4.2153883 -1.6185305 1 1
-5.2967238 6.2258286 -1.6348339 0 2
-12.012939 12.796953 0 16 20
-7.1091022 7.5730715 -1.6159829 0 3
-7.9450169 9.3386621 -1.5606753 5 4
-17.548641 16.95244 0.1418107 9 21
-16.80332 19.750811 -0.15071456 3 19
-9.1729193 9.7715816 -1.4436684 6 5
-9.2927074 12.071181 -1.4220444 2 6
-19.311844 20.572212 0.6565789 23 24
-15.363815 19.957521 0.29321563 39 22
-13.103392 13.958572 -1.3387663 2 8
-23.292826 22.501471 0.94253331 10 25
-16.79327 19.738997 0.45236638 3 23
-14.977928 14.469066 -1.3346661 4 9
-13.200146 17.146925 -1.2602215 3 10
-18.808846 20.036386 1.6004511 13 27
-16.833702 19.786522 1.0583894 3 26
-11.994459 12.777266 -0.81634206 16 12
-15.804749 18.57708 -1.2782536 4 11
-19.00733 20.247826 3.4099045 8 29
-16.125301 18.953859 2.0315082 11 28
-17.612003 17.013649 -0.99765414 5 13
-15.350619 19.940378 -0.87876934 9 14
-15.832403 18.609585 4.4548049 16 30
-11.94674 12.726433 -0.40617445 24 16
-2.2528913 2.6668789 -1.6279256 1 0
-17.527126 17.050325 -0.42681605 13 17
-16.647491 19.706606 -0.75076848 3 15
-3.9476454 4.2348094 -1.6206871 1 1
-5.2850847 6.2562633 -1.6379718 0 2
-11.998202 12.87099 0 16 20
-7.0799313 7.5949478 -1.615368 0 3
-7.8816442 9.3299627 -1.5546144 5 4
-23.091692 22.463518 0.18723664 7 21
-16.651676 19.711561 -0.14997064 3 19
-9.1143503 9.7773571 -1.4398128 4 5
-9.2335873 12.081391 -1.4194418 2 6
-19.275368 20.677517 0.65778857 23 24
-15.279489 19.991957 0.29293624 11 22
-10.954728 12.967752 -1.3857999 4 7
-23.062244 22.43487 0.93636608 15 25
-16.631355 19.687506 0.44985324 3 23
-14.913026 14.507339 -1.3333869 4 9
-13.130516 17.180202 -1.2592913 3 10
-18.621712 19.976315 1.5904511 13 27
-11.949788 12.819053 -0.81634206 16 12
-15.791365 18.693159 -1.2824404 4 11
-15.97929 18.915617 2.021419 11 28
-20.423018 19.867439 -1.1608089 6 13
-14.487144 18.955238 -0.83312082 4 14
-18.742168 20.105534 7.3649549 18 31
-15.802904 18.70682 4.4648499 16 30
-11.932241 12.80023 -0.40719804 19 16
-2.2435677 2.6747277 -1.6279256 1 0
-16.473244 19.639006 -0.74599767 3 15
-3.932838 4.2485652 -1.6206871 1 1
-5.2606921 6.2716708 -1.6371872 0 2
-12.023846 12.989117 0 14 20
-14.406935 18.987314 -0.27747688 3 18
-7.0533743 7.6196175 -1.615368 0 3
-7.8133254 9.3148594 -1.5475434 5 4
-22.975986 22.507603 0.18693441 7 21
-16.523642 19.699089 -0.14943594 3 19
-9.0639524 9.791604 -1.4372425 4 5
-9.1985779 12.123071 -1.4205573 2 6
-19.251963 20.797506 0.65946352 33 24
-14.426278 19.012806 0.27784941 5 22
-11.831919 12.781781 -1.2179481 14 8
-10.906829 13.002859 -1.3854743 4 7
-22.835264 22.369749 0.93031532 10 25
-16.490561 19.659651 0.44789857 3 23
-14.853736 14.550931 -1.3326194 4 9
-13.055978 17.20685 -1.2578959 3 10
-18.435217 19.915192 1.5804513 13 27
-16.541046 19.719837 1.0486197 6 26
-11.910393 12.866556 -0.81671429 3 12
-15.710608 18.729811 -1.2811843 4 11
-18.746841 20.251833 3.3884554 17 29
-15.820924 18.861326 2.0097027 10 28
-20.327843 19.913445 -1.1593435 6 13
-14.374971 18.945189 -0.83046842 4 14
-18.585255 20.077274 7.330791 18 31
-15.775436 18.807096 4.4756117 24 30
-12.001577 12.96506 -0.41110623 11 16
-2.2328327 2.6789777 -1.6262352 1 0
-22.477682 22.158266 -0.55093753 7 17
-16.329548 19.592377 -0.74227405 3 15
-3.9064322 4.2467251 -1.6152955 2 1
-5.240963 6.2881665 -1.6371872 0 2
-12.05068 13.100426 0 14 20
-14.313504 18.987766 -0.27682498 3 18
-7.0401049 7.6533747 -1.6178277 0 3
-7.7764015 9.3302145 -1.5460281 5 4
-16.364355 19.63414 -0.14855252 3 19
-9.0304537 9.8171043 -1.4368141 4 5
-9.150856 12.139187 -1.4190701 2 6
-18.423075 20.027925 0.6332227 13 24
-14.323135 19.000542 0.27701125 5 22
-11.764689 12.789521 -1.2151577 10 8
-10.858268 13.027872 -1.384498 4 7
-22.471592 22.152264 0.91832995 14 25
-16.349337 19.616119 0.44573447 3 23
-14.759622 14.549882 -1.3282703 4 9
-12.985028 17.22546 -1.2562681 3 10
-18.259014 19.849573 1.5706838 13 27
-16.358744 19.627405 1.0409666 3 26
-17.439682 18.958868 -1.1999446 4 12
-15.672148 18.803619 -1.2828591 4 11
-15.69012 18.825184 2.0005898 10 28
-20.231026 19.943537 -1.1573895 6 13
-14.257628 18.913643 -0.8271181 4 14
-18.425304 20.030348 7.2924857 18 31
-15.751545 18.898882 4.4856567 16 30
-18.406832 20.010267 -0.63266438 7 16
-2.2276201 2.6927302 -1.6296161 1 0
-16.183718 19.562754 -0.73889959 3 15
-3.8960357 4.2667036 -1.6174523 2 1
-5.2153802 6.3043113 -1.6364028 0 2
-18.287081 20.026911 0 14 20
-14.193501 18.972845 -0.27584711 3 18
-7.0279961 7.6966386 -1.6215171 0 3
-7.7446814 9.3617115 -1.5465332 5 4
-16.167351 19.542969 -0.14741339 3 19
-8.9863653 9.8413267 -1.4355289 4 5
-9.0943747 12.156701 -1.4172113 2 6
-18.284828 20.024443 0.63098943 13 24
-14.799673 19.783131 0.28762791 5 22
-10.810445 13.067583 -1.384498 4 7
-16.198301 19.580383 0.44357035 3 23
-14.703364 14.601072 -1.3280145 4 9
-12.890711 17.231369 -1.2532449 3 10
-18.091896 19.813156 1.5625445 12 27
-16.212816 19.597929 1.0362446 3 26
-17.378159 19.031513 -1.200503 4 12
-15.554747 18.802458 -1.2788815 4 11
-15.539698 18.784267 1.9901751 10 28
-20.157795 20.017557 -1.1573895 6 13
-18.320499 20.063509 7.2800627 6 31
-15.714781 18.995907 4.4949837 16 30
-12.093711 13.244305 -0.41734073 3 16
-2.2136052 2.6948874 -1.6262352 1 0
-22.324203 22.324207 -0.55107719 7 17
-16.008743 19.489365 -0.73401237 3 15
-3.8837054 4.2831306 -1.6185305 2 1
-5.1958318 6.3255095 -1.6371872 0 2
-18.120335 19.983946 0 13 20
-7.0090528 7.7299085 -1.6233618 0 3
-7.7169933 9.3948221 -1.5475434 3 4
-16.015251 19.497286 -0.14664622 3 19
-8.9305868 9.8490658 -1.4321018 6 5
-9.0590067 12.197965 -1.4183266 2 6
-18.120804 19.984463 0.62773257 17 24
-12.822735 14.141506 -1.33486 2 8
-10.759705 13.099079 -1.3838471 2 7
-16.010544 19.491556 0.44028932 2 23
-12.832864 17.279469 -1.2534775 3 10
-17.909967 19.751944 1.5527772 12 27
-16.052982 19.543221 1.0303828 3 26
-17.295515 19.074297 -1.1993862 4 12
-15.43831 18.794907 -1.2746947 4 11
-15.380404 18.724411 1.9781332 10 28
-14.729699 19.833559 -0.8627156 14 14
-18.172495 20.04147 7.2490039 6 31
-15.675852 19.084095 4.5028763 16 30
-2.2060044 2.7057917 -1.6279256 1 0
-15.8412 19.430147 -0.72959059 3 15
-3.8705592 4.3001986 -1.6196089 1 1
-5.1750917 6.347549 -1.6379718 0 2
-17.958666 19.952112 0 13 20
-6.9806757 7.7555447 -1.6233618 0 3
-7.677494 9.4168901 -1.5465332 3 4
-15.847639 19.438046 -0.14576282 3 19
-8.8917704 9.8787737 -1.4316735 6 5
-9.0095158 12.224671 -1.417583 2 6
-17.940428 19.93185 0.6240105 12 24
-14.676717 19.914282 0.28800043 16 22
-12.760141 14.176542 -1.3337438 2 8
-10.699028 13.122975 -1.3822198 2 7
-15.860658 19.454012 0.43812522 2 23
-12.743389 17.291023 -1.2509192 3 10
-17.741283 19.710602 1.5444051 12 27
-15.872653 19.468725 1.0233811 3 26
-17.201437 19.110828 -1.1977111 4 12
-15.344082 18.820402 -1.2726012 4 11
-15.233582 18.684868 1.968044 10 28
-13.509759 13.60915 -0.78125423 25 13
-13.798368 18.722485 -0.81218112 4 14
-18.000698 19.99881 7.2096634 6 31
-15.536179 19.056021 4.4827867 16 30
-11.939775 13.265114 -0.4152936 4 16
-2.1988261 2.7162938 -1.6296161 1 0
-13.454437 13.648387 -0.33452773 13 17
-15.725476 19.426281 -0.72737974 3 15
-3.8580904 4.3165565 -1.6206871 1 1
-5.1578374 6.3716736 -1.6395407 0 2
-17.790276 19.904335 0 13 20
-13.742725 18.783936 -0.27095786 3 18
-6.9509254 7.7769203 -1.6227469 0 3
-7.6470709 9.4467192 -1.5470383 3 4
-13.456258 13.650234 0.11140277 13 21
-15.704185 19.399979 -0.14506538 3 19
-8.8519287 9.9038239 -1.4308167 6 5
-8.9738407 12.265692 -1.4186984 2 6
-17.777468 19.890005 0.62075365 17 24
-14.626001 19.99122 0.28837293 5 22
-12.699938 14.209101 -1.3326277 2 8
-10.650642 13.157145 -1.3818944 2 7
-13.462018 13.656078 0.55807281 5 25
-15.702058 19.397352 0.43561205 2 23
-13.479379 13.673689 -1.2305433 7 9
-12.664086 17.309622 -1.2490588 3 10
-17.563261 19.650345 1.5348703 12 27
-15.704007 19.399759 1.016868 3 26
-17.121302 19.155867 -1.1967806 4 12
-15.263207 18.855223 -1.2713453 4 11
-17.734398 19.841818 3.2675612 8 29
-15.098024 18.651167 1.9589311 10 28
-13.702239 18.728598 -0.81036633 4 14
-15.380427 19.000029 4.4569573 16 30
-17.764143 19.875097 -0.62028837 25 16
-2.1847894 2.7183006 -1.6262352 1 0
-3.8378863 4.324234 -1.6185305 2 1
-5.1380234 6.392695 -1.6403252 0 2
-17.686174 19.927418 0 37 20
-6.9447269 7.8247824 -1.6276662 0 3
-7.6140513 9.4733524 -1.5470383 3 4
-8.812027 9.9287109 -1.4299599 4 5
-8.9239511 12.287271 -1.417583 1 6
-17.686699 19.928007 0.62000918 42 24
-13.639471 18.780008 0.27021286 4 22
-12.639669 14.241405 -1.3315116 2 8
-10.599659 13.188025 -1.3812435 2 7
-20.087843 20.520187 0.83571285 8 25
-14.389372 14.699069 -1.318293 4 9
-12.589511 17.334333 -1.2476635 3 10
-17.388538 19.592064 1.525568 12 27
-17.014551 19.170683 -1.1939887 3 12
-15.17478 18.88036 -1.269461 4 11
-14.940424 18.588778 1.9468893 10 28
-19.844843 20.271955 -1.1557612 6 13
-13.56866 18.68251 -0.80631799 4 14
-17.568264 19.794563 7.0916424 11 31
-15.242524 18.964647 4.4361506 23 30
-17.692009 19.933989 -0.62019533 32 16
-2.1830258 2.7336488 -1.6313065 1 0
-12.32343 12.668028 -0.30848873 4 17
-15.521449 19.436413 -0.72388887 16 15
-3.8344753 4.3478251 -1.6228437 1 1
-5.1081257 6.3965445 -1.6371872 0 2
-17.639364 20.000879 0 18 20
-13.147466 18.222692 -0.26159844 2 18
-6.9148846 7.840632 -1.6264365 0 3
-7.5916824 9.506526 -1.5485536 3 4
-12.260949 12.6038 0.1021967 2 21
-15.537744 19.456816 -0.14471667 13 19
-8.7755327 9.9503794 -1.4291031 2 5
-8.8806486 12.308784 -1.4168395 1 6
-17.631947 19.992468 0.62028837 12 24
-13.531264 18.754646 0.26923499 4 22
-12.584313 14.26907 -1.3303955 2 8
-10.558177 13.221258 -1.3812435 4 7
-19.883884 20.439894 0.82989478 8 25
-15.535639 19.454182 0.43456492 11 23
-12.530324 17.367319 -1.2471983 3 10
-17.22654 19.532785 1.5167309 12 27
-15.525126 19.441015 1.0136114 15 26
-16.935745 19.203062 -1.1926858 3 12
-15.09296 18.899845 -1.2675769 4 11
-17.447485 19.78331 3.2388 16 29
-14.802345 18.535929 1.9364746 10 28
-19.789423 20.342791 -1.1562498 6 13
-13.06784 18.112329 -0.77993399 4 14
-16.028849 18.174749 6.4932523 4 31
-15.111661 18.923264 4.4153438 23 30
-17.645172 20.007463 -0.62075365 7 16
-2.1734698 2.7412531 -1.6313065 1 0
-15.460957 19.499878 -0.72423798 9 15
-3.8141983 4.3553891 -1.6206871 1 1
-5.0930753 6.4235578 -1.6395407 0 2
-17.566801 20.059328 0 9 20
-13.165283 18.382292 -0.26322818 5 18
-6.8926787 7.8706703 -1.6276662 0 3
-7.560915 9.5360804 -1.5490587 3 4
-15.492091 19.539146 -0.14492589 6 19
-8.7538433 9.9959135 -1.4312451 4 5
-8.8376245 12.339712 -1.4168395 2 6
-17.583124 20.077967 0.62103277 29 24
-12.521279 14.297905 -1.3290002 2 8
-10.507005 13.251787 -1.3805925 4 7
-19.684622 20.376904 0.82454211 8 25
-15.472601 19.514563 0.43470454 5 23
-12.472187 12.910816 -1.1504683 26 9
-12.437068 17.365507 -1.2439426 3 10
-17.07406 19.496674 1.509289 12 27
-16.834385 19.222992 -1.1902661 3 12
-14.99463 18.91173 -1.2648555 4 11
-17.278921 19.730602 3.2202759 15 29
-14.660765 18.490648 1.9263854 10 28
-19.698849 20.39163 -1.1551099 6 13
-12.948667 18.079836 -0.77658361 3 14
-14.962385 18.871063 4.3909497 23 30
-17.548874 20.038857 -0.6198231 7 16
-2.156683 2.7406538 -1.6262352 1 0
-12.141113 12.66063 -0.30618501 19 17
-15.100094 19.188786 -0.71062356 3 15
-3.8007371 4.3722458 -1.6217654 1 1
-5.0743499 6.4483447 -1.6411096 0 2
-17.411812 20.029987 0 4 20
-13.153429 18.508663 -0.26434574 3 18
-6.8793445 7.9137759 -1.6313556 0 3
-7.5234609 9.5606079 -1.5485536 3 4
-12.134453 12.653685 0.10189448 21 21
-15.200229 19.316034 -0.14285685 3 19
-8.7275867 10.039934 -1.4329587 4 5
-8.7946472 12.375265 -1.4172113 2 6
-14.015342 19.721491 0.28166765 10 22
-12.44785 14.319606 -1.3267682 2 8
-10.453436 13.28394 -1.3799416 4 7
-15.109133 19.200272 0.426467 2 23
-12.422022 12.953559 -1.1502125 12 9
-12.380278 17.420734 -1.2446402 3 10
-16.902935 19.444593 1.5004519 12 27
-15.187885 19.300348 1.0005851 3 26
-16.74547 19.263449 -1.1889633 3 12
-14.920277 18.960279 -1.2644368 4 11
-17.125746 19.700907 3.205164 15 29
-14.51647 18.447132 1.9162962 10 28
-13.190306 18.560555 -0.7951501 4 14
-15.855288 18.239412 6.4756527 14 31
-14.839587 18.85774 4.3751655 23 30
-17.328396 19.934027 -0.61461222 3 16
-2.151566 2.7538793 -1.6296161 1 0
-12.066504 12.671079 -0.30541709 19 17
-14.966551 19.156313 -0.7074818 3 15
-3.782934 4.3825707 -1.6206871 1 1
-5.046979 6.4598389 -1.6395407 0 2
-17.245079 19.978615 0 4 20
-13.123323 18.603495 -0.26504421 3 18
-6.856842 7.943727 -1.6325855 0 3
-7.494925 9.5930672 -1.5495636 3 4
-12.112274 12.719142 0.10208046 11 21
-14.955397 19.142036 -0.14118302 3 19
-8.679491 10.055286 -1.4308167 4 5
-8.7490978 12.402637 -1.4168395 2 6
-17.237797 19.970179 0.61386776 4 24
-13.155601 18.649252 0.26569611 4 22
-12.403003 14.369016 -1.3273263 2 8
-10.40209 13.314069 -1.3792907 4 7
-19.40044 20.372469 0.81872398 27 25
-14.958296 19.145746 0.42409348 2 23
-12.303277 17.441006 -1.2430123 3 10
-16.727976 19.379545 1.4909172 11 27
-15.021992 19.227274 0.9940719 3 26
-16.641567 19.27944 -1.1863575 3 12
-14.819568 18.968184 -1.2615061 4 11
-16.927158 19.6103 3.1807899 7 29
-14.380803 18.40659 1.9068578 10 28
-12.160318 12.769593 -0.71840215 9 13
-12.971045 18.387627 -0.78579706 4 14
-15.829391 18.338524 6.4911819 14 31
-14.705828 18.822603 4.3550758 22 30
-17.167248 19.888447 -0.6113553 3 16
-2.1330533 2.7499144 -1.6228542 1 0
-12.024951 12.716024 -0.30548695 23 17
-14.826079 19.113657 -0.70399094 3 15
-3.7701211 4.3986735 -1.6217654 1 1
-5.0219965 6.4743161 -1.6387562 0 2
-17.02426 19.862535 0 4 20
-6.8187838 7.9556079 -1.6301258 0 3
-7.4638281 9.6223049 -1.5500689 3 4
-12.092539 12.787496 0.10228968 16 21
-8.649518 10.091561 -1.4316735 4 5
-8.7011852 12.426575 -1.416096 2 6
-17.035267 19.87538 0.6091221 4 24
-12.334595 14.391012 -1.3253729 2 8
-10.343338 13.334545 -1.3776634 4 7
-19.362179 20.474922 0.82012033 32 25
-14.108572 14.919391 -1.3159904 4 9
-12.226292 17.460947 -1.2413845 3 10
-16.571875 19.33473 1.4830103 11 27
-14.802915 19.083794 0.98397648 3 26
-16.561172 19.322243 -1.185427 3 12
-14.731235 18.991385 -1.2596219 4 11
-16.109335 18.795076 3.0394216 7 29
-14.243165 18.362169 1.8970942 9 28
-12.025052 12.716131 -0.71302879 19 13
-15.805514 18.440601 6.5077462 14 31
-14.584567 18.802301 4.3385739 15 30
-16.988424 19.820724 -0.60744715 3 16
-2.1278644 2.7630885 -1.6262352 1 0
-11.977749 12.755009 -0.30541709 19 17
-3.7522452 4.408874 -1.6206871 1 1
-4.9993644 6.4918079 -1.6387562 0 2
-16.882225 19.83655 0 4 20
-12.952036 18.635542 -0.26420605 9 18
-6.8037777 7.9944129 -1.6332004 0 3
-7.4398756 9.6608763 -1.5520891 3 4
-12.066991 12.850042 0.10245242 19 21
-8.6219683 10.13078 -1.4329587 4 5
-8.6532049 12.450334 -1.4153523 2 6
-16.856922 19.80682 0.60521388 4 24
-12.945188 18.625689 0.26406637 32 22
-12.273935 14.421828 -1.3242569 2 8
-10.294292 13.367413 -1.3773379 4 7
-19.323427 20.577362 0.82151669 32 25
-15.358674 19.943647 0.43938178 17 23
-12.149309 17.480568 -1.2397566 3 10
-16.424044 19.298191 1.475801 15 27
-16.483257 19.367765 -1.1846824 3 12
-14.647787 19.020542 -1.2581565 4 11
-15.909819 18.693977 3.0140727 13 29
-14.106001 18.317019 1.8873304 9 28
-11.983322 12.760944 -0.71319163 19 13
-15.766084 18.525089 6.5180993 14 31
-14.490027 18.815687 4.3299642 7 30
-16.841372 19.788548 -0.60465556 3 16
-2.1226108 2.7762585 -1.6296161 1 0
-11.941339 12.805514 -0.30562654 19 17
-3.7293758 4.4131188 -1.6174523 2 1
-4.9814396 6.5154505 -1.6403252 0 2
-16.709614 19.773151 0 4 20
-12.777894 18.522604 -0.26197097 2 18
-6.7477713 7.9849062 -1.6264365 0 3
-7.4085202 9.6899385 -1.5525942 3 4
-12.07117 12.94474 0.10287088 14 21
-8.5865564 10.160814 -1.4329587 4 5
-8.6096973 12.480461 -1.4153523 2 6
-16.681862 19.740311 0.60139871 4 24
