# .PCD v0.7 - Point Cloud Data file format
VERSION 0.7
FIELDS x y z intensity ring
SIZE 4 4 4 4 2
TYPE F F F F U
COUNT 1 1 1 1 1
WIDTH 1360
HEIGHT 1
VIEWPOINT 0 0 0 1 0 0 0
POINTS 1360
DATA ascii
0.25079817 19.957478 -1.2791508 4 9
3.200762 19.938507 -1.1760362 3 10
0.25060219 19.941881 -0.8125174 9 13
0.3425332 5.2968783 -1.4858994 8 1
0.61585444 5.4052901 -1.0880588 5 2
0.83149737 12.858141 -2.004606 3 3
1.8960234 16.641199 -2.1319127 7 4
1.0802156 16.704279 -1.803086 6 5
3.2612059 19.915012 -1.8837906 2 6
1.2887877 19.929605 -1.3965245 2 8
2.2719002 19.940231 -1.6383553 2 7
0.31450424 20.020451 -1.2832443 4 9
3.2879126 20.0781 -1.1848733 3 10
0.31325606 19.940994 -0.8125174 9 13
0.057099223 0.4860639 -0.22821388 10 0
0.36075753 5.2918077 -1.4848212 8 1
0.63334459 5.3914204 -1.0857054 6 2
0.87475973 12.8315 -2.0009165 3 3
1.9540968 16.63448 -2.1319127 7 4
1.138514 16.700407 -1.803086 6 5
3.3431878 19.978144 -1.8908544 2 6
2.3447425 19.959898 -1.6406333 2 7
0.38284969 19.939411 -1.2781276 4 9
3.3362248 19.936533 -1.177199 3 10
2.3493183 19.99885 -1.0553024 2 11
0.38262665 19.927794 -0.81202894 9 13
0.059666738 0.49305958 -0.23159483 10 0
0.37950402 5.2943578 -1.4858994 11 1
0.6540466 5.4047523 -1.0888432 4 2
0.9189831 12.820484 -1.9996866 3 3
2.0183518 16.678768 -2.1384788 3 4
1.1973755 16.704264 -1.8039427 6 5
3.4169352 19.989901 -1.8930849 2 6
1.4307442 19.959925 -1.3993149 2 8
2.4124904 19.935757 -1.6393315 2 7
0.45508087 20.053686 -1.2855467 4 9
3.4232945 20.027103 -1.1832454 3 10
0.45237225 19.934328 -0.81235456 9 13
0.061922096 0.49643496 -0.23328531 10 0
0.39832613 5.2852497 -1.4837428 10 1
0.67336506 5.3984275 -1.0880588 5 2
0.96536934 12.809148 -1.9984568 3 3
2.0843768 16.710634 -2.1435297 3 4
1.2582892 16.695799 -1.8035144 6 5
3.4901745 19.977245 -1.8930849 2 6
2.4919534 19.97821 -1.6435624 2 7
0.52594393 19.952124 -1.2791508 4 9
3.4973571 20.018356 -1.183478 3 10
0.52584887 19.948517 -0.81300586 6 13
0.062732197 0.48902422 -0.22990435 10 0
0.41828853 5.3030272 -1.4891343 12 1
0.69270545 5.3999343 -1.0888432 5 2
2.1426995 16.703257 -2.1435297 3 4
1.3175035 16.703197 -1.8047997 6 5
3.5647864 19.992386 -1.8956875 2 6
1.5760475 19.980999 -1.4015471 2 8
0.59940374 20.077845 -1.2873374 4 9
3.5714242 20.029613 -1.1848733 3 10
1.58007 20.031996 -0.93602014 2 12
0.59548432 19.946558 -0.81300586 9 13
0.43524194 5.2939324 -1.4869777 10 1
0.71163392 5.4053845 -1.0904123 5 2
1.0528663 12.806218 -1.9990717 7 3
2.1944566 16.668516 -2.1399939 3 4
1.3735423 16.706663 -1.8056563 6 5
3.6296449 19.972616 -1.8949437 2 6
2.6252909 19.941021 -1.6419351 2 7
0.66214842 19.960049 -1.2799184 4 9
3.6342604 19.998014 -1.1837106 3 10
1.6402748 19.950981 -0.93248373 2 12
0.66202939 19.956459 -0.81349438 6 13
0.45371494 5.2923813 -1.4869777 10 1
0.73049414 5.4028683 -1.0904123 4 2
1.0978907 12.806403 -1.9996866 8 3
2.2526157 16.660757 -2.1399939 7 4
1.4321793 16.705729 -1.8060848 6 5
3.7007785 19.967659 -1.8956875 2 6
1.7116673 19.965832 -1.4012681 2 8
3.7105803 20.020546 -1.1858037 3 10
0.73167276 19.954027 -0.81349438 6 13
0.47345388 5.2945189 -1.4880561 11 1
0.75083286 5.4040389 -1.0911967 5 2
1.1434163 12.786546 -1.9972271 10 3
2.3142159 16.656321 -2.1404991 7 4
1.4934036 16.700367 -1.8060848 6 5
3.7680228 19.922655 -1.8927131 2 6
1.791592 20.034937 -1.4065696 2 8
2.7712004 19.945419 -1.6438879 2 7
0.80527455 19.962776 -1.2804301 4 9
3.7831972 20.002886 -1.185571 3 10
0.80480802 19.951212 -0.81349438 6 13
0.49100745 5.2929206 -1.4880561 12 1
0.7687481 5.4015193 -1.0911967 6 2
1.1858091 12.782684 -1.9972271 10 3
2.3694344 16.648556 -2.1404991 7 4
1.5502418 16.711166 -1.8077984 6 5
3.8498793 19.992178 -1.9005206 2 6
1.8569105 20.016966 -1.4057324 2 8
3.8555455 20.021603 -1.1874315 3 10
0.87078571 19.944439 -0.81333154 9 13
0.51077485 5.2949195 -1.4891343 10 1
0.78854191 5.3986654 -1.0911967 4 2
1.2330347 12.782187 -1.9978418 12 3
2.43331 16.659389 -2.1430242 7 4
1.6095757 16.685577 -1.8056563 6 5
3.9346452 20.036554 -1.9060972 2 6
1.9237556 19.942507 -1.4009891 2 8
2.9155645 19.961092 -1.6468171 2 7
0.94443268 19.952682 -1.2801743 4 9
3.9396801 20.062193 -1.1906873 3 10
0.94445199 19.953091 -0.81382 9 13
0.52887011 5.2892718 -1.4880561 10 1
0.80738074 5.3958807 -1.0911967 6 2
1.2784293 12.785671 -1.9990717 15 3
2.4908562 16.64687 -2.1425192 7 4
1.6697844 16.699646 -1.8077984 6 5
3.9951844 19.975832 -1.9016358 2 6
2.0028801 20.030962 -1.4076856 2 8
3.9979346 19.989584 -1.1871989 3 10
1.0140913 19.949671 -0.81382 6 13
0.54548579 5.2875834 -1.4880561 9 1
0.82432997 5.3933167 -1.0911967 5 2
1.3181884 12.777658 -1.9984568 17 3
2.5449452 16.65073 -2.1440346 7 4
1.7218364 16.690359 -1.8073699 6 5
4.007946 19.7173 -1.8782138 2 6
2.0600724 19.968998 -1.4037793 2 8
3.053911 19.980724 -1.6500716 2 7
1.0784651 19.977865 -1.2822208 4 9
4.0639014 19.992577 -1.1881291 3 10
3.0610778 20.027613 -1.0617919 2 11
1.0769812 19.950377 -0.81398284 6 13
0.53670508 3.4312503 -1.6194733 0 0
0.56434709 5.2894773 -1.4891343 12 1
0.84436232 5.3981571 -1.0927656 4 2
1.3619413 12.76512 -1.9972271 16 3
2.6055007 16.657427 -2.1460547 7 4
1.7830362 16.711931 -1.8103687 6 5
4.1324234 19.972296 -1.9038664 2 6
2.1356871 20.017237 -1.4076856 2 8
4.1449871 20.033016 -1.1913849 3 10
1.1468395 19.950487 -0.81414568 6 13
0.55271703 3.450738 -1.6296161 0 0
0.58415169 5.2912021 -1.4902127 12 1
0.86538142 5.4027724 -1.0943346 3 2
1.4095832 12.7679 -1.9984568 18 3
2.6652772 16.639931 -2.1450446 7 4
1.8438363 16.70133 -1.8099403 6 5
2.2059698 19.981508 -1.4057324 2 8
3.1993244 19.974108 -1.6513735 2 7
1.2223611 19.985575 -1.2832443 4 9
4.203558 19.947355 -1.1871989 3 10
1.2199497 19.94615 -0.81414568 6 13
0.56419051 3.4415338 -1.6262352 0 0
0.60398161 5.2928524 -1.4912909 12 1
0.88327813 5.3879519 -1.0919812 5 2
1.4563799 12.762647 -1.9984568 18 3
2.7294695 16.649628 -2.1475701 7 4
1.9059514 16.702362 -1.8107971 6 5
4.289588 19.99209 -1.9086995 2 6
2.2805629 19.985184 -1.4065696 2 8
1.29536 19.976976 -1.2829884 4 9
4.296761 20.02552 -1.1927803 3 10
2.292263 20.087715 -0.94178998 2 12
1.2938383 19.95351 -0.8146342 6 13
0.57739413 3.4503703 -1.6313065 1 0
0.62152886 5.2908206 -1.4912909 10 1
0.90243387 5.3927302 -1.0935501 5 2
1.4982303 12.753821 -1.9978418 21 3
2.7872822 16.656136 -2.1495903 7 4
1.9617881 16.699898 -1.8112254 6 5
2.3477504 19.985437 -1.4071276 2 8
3.3406749 19.963079 -1.6523498 2 7
1.3640382 20.008415 -1.2852908 4 9
4.3767509 20.073587 -1.1965011 3 10
2.3458064 19.968887 -0.93657845 2 12
1.3605387 19.957083 -0.81495982 6 13
0.5912587 3.4553776 -1.6346875 1 0
0.64045197 5.2846832 -1.4902127 9 1
0.92285359 5.3932528 -1.0943346 5 2
1.5459138 12.756093 -1.9990717 21 3
2.8483078 16.645809 -2.1495903 7 4
2.0248935 16.708389 -1.812939 6 5
4.4324951 19.977209 -1.9101865 2 6
1.4382174 20.015226 -1.2860584 4 9
4.4390459 20.006731 -1.193478 3 10
1.4339579 19.955948 -0.81512266 6 13
0.60273319 3.4570746 -1.636378 1 0
0.65800101 5.2902904 -1.4923693 9 1
0.94046503 5.3941908 -1.095119 4 2
1.5850025 12.743328 -1.9978418 21 3
2.9033113 16.652416 -2.1516106 7 4
2.0773716 16.701946 -1.812939 6 5
2.4817536 19.953156 -1.4060115 2 8
3.4778426 19.947735 -1.6530008 2 7
1.502878 20.034494 -1.2875934 4 9
4.5352073 20.140722 -1.202315 3 10
1.4966406 19.951345 -0.81512266 6 13
0.61664009 3.4583037 -1.6380684 1 0
0.67733037 5.2800837 -1.4902127 10 1
0.96667969 5.4214315 -1.1013948 8 2
1.6344274 12.741069 -1.9984568 21 3
2.967931 16.645054 -2.1521156 7 4
2.1425025 16.701736 -1.8137958 6 5
4.5816426 19.988482 -1.9142761 2 6
1.5750901 19.968884 -1.2837558 4 9
4.5875325 20.014175 -1.1958034 3 10
1.574499 19.961391 -0.81577396 6 13
0.62741131 3.4489963 -1.6346875 1 0
0.69726896 5.2891426 -1.4934475 11 1
0.98138773 5.3948703 -1.096688 6 2
1.6794122 12.739203 -1.9990717 21 3
3.0274394 16.642395 -2.1531258 7 4
2.2018337 16.702038 -1.8146524 6 5
2.6316106 19.962118 -1.4079646 2 8
3.6332579 19.972692 -1.6572317 2 7
1.6513457 20.04283 -1.2888724 4 9
1.6448294 19.963737 -0.81609964 6 13
0.63890302 3.4505734 -1.636378 1 0
0.71388078 5.2869267 -1.4934475 10 1
0.99904448 5.3956175 -1.0974724 5 2
1.7204807 12.7417 -2.0003016 22 3
3.0833175 16.652313 -2.1556511 7 4
2.2564194 16.710806 -1.8163661 6 5
4.7177734 19.97316 -1.9157633 2 6
3.6792884 19.871019 -1.6497462 2 7
1.7064738 19.946066 -1.2829884 4 9
4.7357769 20.049377 -1.199757 3 10
1.706854 19.950508 -0.81577396 6 13
0.65094471 3.4483218 -1.636378 1 0
0.7312752 5.2767715 -1.4912909 8 1
1.0193291 5.3998051 -1.0990413 5 2
1.7649504 12.735617 -2.0003016 23 3
3.1429019 16.649244 -2.1566613 7 4
2.3147418 16.702827 -1.8163661 6 5
2.766686 19.963989 -1.4093598 2 8
3.7715588 19.979498 -1.6598355 2 7
1.7845931 20.035412 -1.2891282 4 9
1.7768438 19.94841 -0.8159368 6 13
0.66426384 3.4494729 -1.6380684 1 0
0.75169498 5.281683 -1.4934475 8 1
1.0383707 5.3921819 -1.0982569 4 2
1.8127279 12.736888 -2.0015314 23 3
3.2076519 16.657099 -2.1591866 7 4
2.3781829 16.709982 -1.8180797 6 5
4.8681231 19.969843 -1.9187375 2 6
1.8535855 19.981041 -1.2860584 4 9
4.8819623 20.026613 -1.2004546 3 10
3.8575485 20.031963 -1.0691191 2 11
1.85068 19.949722 -0.81626242 3 13
0.67569834 3.4472511 -1.6380684 1 0
0.76975977 5.2829728 -1.4945258 7 1
1.0577539 5.3964067 -1.0998259 8 2
1.8555222 12.734717 -2.0021462 23 3
3.2666841 16.66584 -2.1617122 7 4
2.4352989 16.713808 -1.8193648 6 5
2.9082854 19.959984 -1.410476 2 8
3.9209099 20.003542 -1.6640664 2 7
4.9080806 19.847504 -1.1906873 3 10
1.917969 19.955412 -0.81675094 3 13
0.68832952 3.4447515 -1.6380684 1 0
0.78968835 5.2839255 -1.4956042 8 1
1.0790641 5.4001865 -1.1013948 6 2
1.9039408 12.739558 -2.0039909 23 3
3.3285272 16.657646 -2.1622171 7 4
2.4977214 16.712637 -1.8202215 6 5
5.0268254 20.012625 -1.926173 2 6
3.9988925 20.012495 -1.6660191 2 7
1.9954131 19.991446 -1.2875934 4 9
5.0343022 20.042391 -1.2034779 3 10
1.9918951 19.9562 -0.81707662 3 13
0.70047039 3.4460022 -1.6397589 1 0
0.80604118 5.2736621 -1.4934475 7 1
1.097746 5.4004216 -1.1021793 5 2
1.9479651 12.744895 -2.0058358 25 3
3.385325 16.654291 -2.1632271 7 4
2.5537264 16.708193 -1.8206499 6 5
3.050576 19.958914 -1.4118711 2 8
4.0453768 19.901451 -1.6578827 2 7
3.0601459 20.021528 -0.94346505 2 12
2.0592883 19.961414 -0.81756514 3 13
0.71249586 3.4435363 -1.6397589 0 0
0.82563668 5.2784281 -1.4956042 7 1
1.1157972 5.3927164 -1.1013948 8 2
1.9930555 12.741923 -2.0064507 23 3
3.4466593 16.657917 -2.1652477 7 4
2.6132672 16.707037 -1.8215069 6 5
5.1619339 19.974089 -1.9258013 2 6
2.1335618 19.997246 -1.2888724 4 9
5.1746068 20.023127 -1.204408 3 10
2.1272626 19.938206 -0.81691378 3 13
0.7230171 3.4339335 -1.636378 1 0
0.84527284 5.2831211 -1.4977608 8 1
1.1362294 5.3964648 -1.1029637 5 2
2.0381427 12.738792 -2.0070655 20 3
3.5080519 16.661316 -2.167268 7 4
2.6721947 16.70174 -1.8219352 6 5
3.1967754 19.980474 -1.4149402 2 8
4.2195363 20.040476 -1.6718773 2 7
5.2353511 19.970177 -1.202315 3 10
2.1990328 19.950525 -0.81772792 3 13
0.73727816 3.442023 -1.6414495 0 0
0.86246699 5.2725353 -1.4956042 7 1
1.1550611 5.3924651 -1.1029637 6 2
2.0838766 12.739401 -2.0082955 18 3
3.5645316 16.641209 -2.1662576 7 4
2.7336931 16.711935 -1.8240771 6 5
5.3125119 19.979904 -1.9298909 2 6
2.2704098 19.958065 -1.2873374 4 9
5.3224778 20.017385 -1.2062685 3 10
2.2695682 19.950666 -0.8180536 3 13
0.74851453 3.4358864 -1.6397589 0 0
0.88213283 5.2770915 -1.4977608 7 1
1.1738735 5.388401 -1.1029637 6 2
2.1296272 12.739847 -2.0095253 15 3
3.6268101 16.64805 -2.1687832 7 4
2.7913442 16.698368 -1.8236486 6 5
3.3467042 20.020641 -1.4194047 2 8
4.344058 19.940414 -1.6660191 2 7
2.3424406 19.970409 -0.81919336 3 13
0.75972039 3.4297135 -1.6380684 0 0
0.89990097 5.2701831 -1.4966824 7 1
1.1960701 5.3995891 -1.1061016 4 2
2.174088 12.732335 -2.0095253 13 3
3.6857631 16.639164 -2.1692882 7 4
2.853636 16.712044 -1.826219 6 5
5.4592099 19.969221 -1.9324933 2 6
3.4192607 20.024569 -1.4205208 2 8
4.4007087 19.866745 -1.6611371 2 7
2.4139888 19.977398 -1.2896399 4 9
5.47051 20.010555 -1.2081289 3 10
2.4111826 19.954174 -0.81886774 3 13
0.77168858 3.4270403 -1.6380684 0 0
0.91895491 5.2708039 -1.4977608 6 1
1.2140507 5.3915539 -1.1053171 4 2
2.2185223 12.724668 -2.0095253 12 3
3.7473135 16.64168 -2.1713085 7 4
2.9119592 16.701979 -1.826219 6 5
3.4959979 20.051821 -1.4233111 2 8
4.4989362 19.979607 -1.6718773 2 7
5.5403318 19.991337 -1.2081289 3 10
2.4823065 19.957535 -0.8193562 3 13
0.78283709 3.4207921 -1.636378 0 0
0.93802166 5.2713571 -1.4988391 6 1
1.2363622 5.4025774 -1.1084551 5 2
2.2629235 12.716847 -2.0095253 12 3
3.8053775 16.628498 -2.1713085 3 4
2.9723291 16.703463 -1.8275042 6 5
5.6211066 20.011143 -1.9403006 2 6
3.5589752 20.00021 -1.4205208 2 8
4.5748715 19.990986 -1.6741555 2 7
2.5564373 19.983816 -1.291175 4 9
5.6262751 20.029543 -1.2116172 3 10
4.580236 20.014425 -1.0760274 2 11
2.5509374 19.940823 -0.81903058 3 13
0.7945472 3.4143691 -1.6346875 0 0
0.95664591 5.2640934 -1.4977608 6 1
1.2570431 5.4018302 -1.1092395 6 2
2.3109286 12.716245 -2.0107551 12 3
3.8689923 16.626034 -2.1728237 7 4
3.03566 16.704193 -1.8287892 6 5
5.7304153 20.116806 -1.9525691 2 6
3.6372457 20.014513 -1.4224739 2 8
4.6481071 19.974085 -1.6741555 2 7
5.672296 19.912779 -1.2058034 3 10
2.629741 19.974924 -0.8208217 3 13
0.81026733 3.4330256 -1.6448303 0 0
0.97458148 5.2686372 -1.4999173 6 1
1.2749099 5.4016714 -1.110024 7 2
2.3530266 12.720582 -2.0125997 10 3
3.922122 16.617659 -2.1733286 7 4
3.0895743 16.702396 -1.8296462 6 5
5.7549825 19.964766 -1.9395571 2 6
3.7066431 20.038301 -1.4249853 2 8
4.7337356 20.056389 -1.682292 2 7
2.695605 19.989687 -1.2927099 4 9
5.7768607 20.040663 -1.2146405 3 10
2.6935551 19.974487 -0.82114732 3 13
0.82562542 3.444278 -1.6515923 0 0
0.99082392 5.2538476 -1.4966824 6 1
1.2955848 5.4048171 -1.1115929 6 2
2.3988776 12.720058 -2.0138295 6 3
3.9838009 16.619301 -2.175349 7 4
3.1485915 16.695417 -1.8300745 6 5
5.8078852 19.887209 -1.9339802 2 6
3.7780421 20.033083 -1.4255433 2 8
4.8037124 20.039743 -1.682292 2 7
5.8434181 20.008881 -1.2139429 3 10
3.7816842 20.052395 -0.9505378 2 12
2.7627108 19.961004 -0.82098454 3 13
0.83764398 3.4413748 -1.6515923 0 0
1.0098857 5.2541394 -1.4977608 6 1
1.3125894 5.3926396 -1.110024 5 2
4.0446086 16.616861 -2.1768644 7 4
3.2113583 16.707758 -1.8326449 6 5
5.9066496 19.966108 -1.9436464 2 6
3.8381612 19.96883 -1.421916 2 8
4.8651543 19.987989 -1.6793629 2 7
2.8440707 20.033617 -1.2968032 4 9
5.9234266 20.02282 -1.2160358 3 10
3.8350699 19.952745 -0.94644302 2 12
2.836308 19.978937 -0.8221243 3 13
1.031358 5.2617435 -1.5009956 6 1
1.3370525 5.4068308 -1.1139463 5 2
2.4776747 12.640509 -2.0039909 2 3
4.1083393 16.613482 -2.1783795 3 4
3.2748649 16.707584 -1.83393 6 5
6.035831 20.131256 -1.9618636 2 6
3.9343467 20.072104 -1.4302868 2 8
4.9469905 20.004854 -1.682292 2 7
2.9163229 20.015158 -1.2962916 4 9
6.0151191 20.062176 -1.2197567 3 10
2.9100873 19.972363 -0.82228714 3 13
1.0504739 5.2618876 -1.5020739 7 1
1.3549641 5.3983259 -1.1131618 6 2
2.523334 12.639534 -2.0052209 2 3
4.1672764 16.602886 -2.1788845 3 4
3.3370628 16.715549 -1.836072 6 5
6.0759859 20.010983 -1.9521974 2 6
3.9895499 19.983898 -1.4249853 2 8
2.9885337 20.020647 -1.2973148 4 9
6.0723557 19.999025 -1.2171986 3 10
2.9803815 19.966034 -0.82244998 3 13
1.0696012 5.2619638 -1.5031523 7 1
1.3776711 5.4087677 -1.1162997 12 2
2.5650744 12.61903 -2.003376 2 3
4.2291203 16.603621 -2.1809049 3 4
3.3945949 16.699903 -1.8356436 6 5
6.1282401 19.932547 -1.9466206 2 6
4.0759702 20.051966 -1.4308448 2 8
5.1042428 20.039371 -1.6881502 2 7
3.0469372 19.93512 -1.292454 4 9
6.1550336 20.019693 -1.2197567 3 10
3.052469 19.971313 -0.82310128 3 13
1.0854841 5.2508445 -1.5009956 7 1
1.3955986 5.4041696 -1.1162997 5 2
2.6029036 12.591103 -2.0003016 2 3
4.2861376 16.597189 -2.181915 3 4
3.4571979 16.723606 -1.839499 6 5
6.2096801 19.961555 -1.9514537 2 6
4.1408234 20.030527 -1.4302868 2 8
5.1776419 20.049356 -1.6904284 2 7
3.1370554 20.078722 -1.3024315 4 9
6.242734 20.067808 -1.2239428 3 10
3.1186757 19.961082 -0.82310128 3 13
1.1030146 5.2432532 -1.4999173 6 1
1.4154494 5.4030585 -1.1170841 6 2
2.6476555 12.585807 -2.0009165 2 3
4.3470674 16.593643 -2.1834304 3 4
3.5155573 16.711435 -1.839499 6 5
6.2900939 19.973948 -1.9547999 2 6
4.2312579 20.113567 -1.4372623 2 8
5.2354765 19.98488 -1.6865228 2 7
3.1983099 20.012463 -1.2988498 4 9
6.3019552 20.011614 -1.2218497 3 10
3.1921237 19.973755 -0.82407826 3 13
1.1229213 5.2469049 -1.5020739 6 1
1.4353071 5.4018764 -1.1178687 6 2
2.6923964 12.580354 -2.0015314 2 3
4.4039412 16.574532 -2.182925 3 4
3.5763631 16.710732 -1.8407843 6 5
6.3754973 20.0012 -1.9596329 2 6
4.2822313 20.008934 -1.4308448 2 8
5.3103194 19.98575 -1.6881502 2 7
3.2874544 20.119366 -1.3065248 4 9
6.4129992 20.118851 -1.2297566 3 10
5.3206835 20.024754 -1.0858666 2 11
3.2598879 19.950657 -0.82358974 3 13
1.1420503 5.2467165 -1.5031523 6 1
1.4582378 5.4119816 -1.1210065 5 2
2.7337751 12.559292 -1.9996866 2 3
4.4607415 16.555225 -2.18242 3 4
3.6380606 16.713688 -1.8424977 6 5
6.4636226 20.035675 -1.9652095 2 6
4.3630877 20.044548 -1.4344721 2 8
5.3800559 19.967091 -1.6881502 2 7
3.3346581 19.969961 -1.2975706 4 9
6.4611263 20.027937 -1.2255707 3 10
3.3341219 19.966749 -0.82472956 3 13
1.1603594 5.2426977 -1.5031523 5 1
1.4771218 5.406858 -1.1210065 5 2
2.7776022 12.549672 -1.9996866 2 3
4.518508 16.539551 -2.18242 3 4
3.6963849 16.700886 -1.8424977 6 5
6.5149865 19.9562 -1.9596329 2 6
4.4175138 19.959066 -1.4294497 2 8
5.4833484 20.071253 -1.6985649 2 7
3.4311998 20.115599 -1.307804 4 9
6.5310025 20.005259 -1.2255707 3 10
3.406492 19.970749 -0.82538092 3 13
1.1786515 5.238615 -1.5031523 7 1
1.4970319 5.4054494 -1.121791 6 2
2.8222568 12.543756 -2.0003016 2 3
4.5836244 16.550447 -2.1859555 3 4
3.7590206 16.707283 -1.8446398 6 5
6.6020908 19.98628 -1.9648378 2 6
5.5342188 19.982832 -1.6927066 2 7
3.483583 20.001253 -1.3011523 4 9
6.6258397 20.058176 -1.2302219 3 10
4.5142875 20.064131 -0.95798278 2 12
3.4802926 19.982361 -0.8263579 3 13
1.1960708 5.2307148 -1.5020739 7 1
1.51483 5.3964152 -1.1210065 6 2
2.8660228 12.53383 -2.0003016 2 3
4.6435094 16.54199 -2.1869659 3 4
3.8199725 16.705688 -1.8459249 6 5
6.6301527 19.838465 -1.9525691 2 6
4.5700788 19.986092 -1.433635 2 8
3.5750327 20.110806 -1.309083 4 9
6.6704969 19.959181 -1.2255707 3 10
4.5762763 20.013193 -0.95630765 2 12
3.5528164 19.985832 -0.82700926 3 13
1.2169806 5.233799 -1.5042306 6 1
1.537822 5.4021435 -1.1233599 5 2
2.9065747 12.500141 -1.9966122 2 3
4.7051992 16.528675 -2.1874709 3 4
3.8829827 16.699324 -1.8467817 6 5
6.7577033 19.976252 -1.9685555 2 6
5.6967192 20.01174 -1.6985649 2 7
3.6337502 20.015087 -1.3037106 4 9
6.7679238 20.006464 -1.2299892 3 10
3.62605 19.972675 -0.82700926 3 13
1.2343286 5.2297349 -1.5042306 7 1
1.5546402 5.3932457 -1.1225755 5 2
2.9470999 12.486588 -1.9959972 2 3
4.7632771 16.524418 -2.1889861 3 4
3.9429023 16.705708 -1.8489234 6 5
6.7684894 19.791693 -1.9525691 2 6
4.7204962 20.000299 -1.4369833 2 8
3.7226069 20.124611 -1.3116413 4 9
3.6980736 19.991983 -0.82831186 3 13
1.2543855 5.2289214 -1.5053089 7 1
1.5787965 5.4025712 -1.1257133 4 2
2.9928429 12.475702 -1.9959972 2 3
4.8249192 16.51066 -2.189491 3 4
4.0068851 16.702749 -1.8502088 6 5
6.9113173 19.969992 -1.972645 2 6
5.8564076 20.040367 -1.7044232 2 7
3.7719016 19.981388 -1.3031989 4 9
6.9257045 20.011564 -1.233245 3 10
3.7698348 19.970438 -0.82798612 3 13
1.2717198 5.2247324 -1.5053089 7 1
1.596705 5.397305 -1.1257133 5 2
3.0370052 12.477229 -1.9978418 2 3
4.8841519 16.509787 -2.1915114 3 4
4.0669589 16.708691 -1.8523507 6 5
4.8666148 19.993998 -1.4389365 2 8
3.8405712 19.981377 -0.8289631 3 13
1.2908753 5.2240014 -1.5063872 7 1
1.6155366 5.3916984 -1.1257133 5 2
3.0767512 12.451204 -1.9953823 2 3
4.9406171 16.488836 -2.1910064 3 4
4.1262164 16.69825 -1.8527792 6 5
7.0816302 20.020105 -1.9823112 2 6
5.9915471 19.996214 -1.7040976 2 7
3.9139709 19.986588 -1.3052456 4 9
7.0990548 20.069366 -1.2397566 3 10
3.9141414 19.987457 -0.8297773 3 13
1.3100362 5.2232008 -1.5074655 7 1
1.6354827 5.389781 -1.1264979 5 2
3.1201868 12.440391 -1.9953823 2 3
5.0050459 16.494276 -2.1940367 3 4
4.1912403 16.710752 -1.8557779 6 5
5.0177207 20.005983 -1.4422848 2 8
6.0557275 19.956829 -1.0929842 3 11
3.9862185 19.985435 -0.83026582 3 13
1.3301622 5.2260609 -1.5096221 7 1
1.6588961 5.3990359 -1.1296357 5 2
3.1635962 12.429421 -1.9953823 2 3
5.0672569 16.491873 -2.1960568 3 4
4.2534747 16.711435 -1.8574915 6 5
7.2401752 20.022615 -1.987516 2 6
6.1579237 20.041552 -1.7115833 2 7
4.0637269 20.009632 -1.3085713 4 9
7.2444143 20.03434 -1.2406868 3 10
4.0599389 19.99098 -0.8310799 3 13
1.3474346 5.2176561 -1.5085437 8 1
1.675403 5.3857217 -1.1280668 6 2
3.2119081 12.437436 -1.9984568 2 3
5.1247969 16.474083 -2.1960568 3 4
4.3117871 16.696486 -1.8574915 6 5
5.1572757 19.970461 -1.4422848 2 8
4.1337457 19.996254 -0.83189404 3 13
1.3656384 5.2129216 -1.5085437 6 1
1.6977264 5.3910646 -1.1304202 4 2
3.255301 12.42615 -1.9984568 2 3
5.1870365 16.471235 -2.1980774 3 4
4.3760853 16.704414 -1.8600616 6 5
7.3770227 19.964111 -1.9867725 2 6
6.2929001 19.982864 -1.7102813 2 7
4.2057867 19.992493 -1.3093388 4 9
7.403482 20.035717 -1.2439426 3 10
5.2634039 20.09149 -0.96747518 2 12
4.2051625 19.989527 -0.83221972 3 13
1.3838279 5.2081223 -1.5085437 7 1
1.7177267 5.3888421 -1.1312046 5 2
3.2966297 12.40707 -1.9972271 2 3
5.244504 16.453028 -2.1980774 3 4
4.4405003 16.712099 -1.8626319 6 5
7.457818 19.968082 -1.9897468 2 6
5.3006692 19.949398 -1.443401 2 8
7.4761744 20.017231 -1.2444077 3 10
5.314014 19.99962 -0.96393877 2 12
4.2765918 19.982542 -0.8325454 3 13
1.4040945 5.214663 -1.5117787 7 1
1.7379936 5.3905826 -1.1327736 6 2
3.3326142 12.376987 -1.9941525 2 3
5.3087735 16.465759 -2.2021179 3 4
4.5010619 16.716484 -1.864774 6 5
7.5408592 19.987959 -1.9942081 2 6
6.4532409 20.015453 -1.7167904 2 7
4.3511057 20.00631 -1.312153 4 9
7.5481462 20.007275 -1.2453378 3 10
4.3479252 19.991684 -0.83352238 3 13
1.4222875 5.2097301 -1.5117787 6 1
1.7592317 5.3919415 -1.1343426 5 2
3.377877 12.372906 -1.9953823 2 3
5.3674445 16.450901 -2.2026229 3 4
4.5625253 16.712183 -1.8660592 6 5
7.6205125 19.987568 -1.9968106 2 6
5.4510407 19.966747 -1.4473073 3 8
7.6136665 19.969612 -1.2446402 3 10
4.4202671 19.988094 -0.83401084 3 13
1.4404655 5.2047338 -1.5117787 7 1
1.7780436 5.385767 -1.1343426 6 2
3.4210491 12.36104 -1.9953823 2 3
5.4285722 16.443369 -2.2041383 3 4
4.6240196 16.707651 -1.8673443 6 5
7.7059908 20.001722 -2.0009 2 6
6.5978165 19.985058 -1.7180923 2 7
4.5003009 20.018288 -1.3149672 4 9
7.7278361 20.058424 -1.2518495 3 10
4.495276 19.995935 -0.83498782 3 13
1.4565452 5.192256 -1.5096221 6 1
1.8005623 5.3906889 -1.136696 5 2
3.4631124 12.345217 -1.9947674 2 3
5.4834275 16.416788 -2.2031279 3 4
4.6833911 16.695236 -1.8677727 6 5
7.7743235 19.970989 -2.0005281 2 6
5.6032453 19.974308 -1.4506557 3 8
7.8079524 20.057377 -1.2534775 3 10
4.566834 19.987915 -0.83531344 3 13
1.4767663 5.1945505 -1.5117787 7 1
1.8206227 5.3880868 -1.1374804 4 2
3.502939 12.321647 -1.9929227 2 3
5.544507 16.408827 -2.2046432 3 4
4.7448993 16.690264 -1.8690579 7 5
7.8206592 19.884428 -1.9945798 2 6
6.7575979 19.99894 -1.7232996 2 7
4.6489725 20.025263 -1.3175254 4 9
7.8121414 19.862772 -1.2430123 3 10
6.7771792 20.056889 -1.1095223 3 11
4.6419954 19.995209 -0.83629042 3 13
1.4959573 5.1930656 -1.5128571 7 1
1.8419579 5.3891211 -1.1390493 3 2
3.5404606 12.290354 -1.989848 2 3
5.6017547 16.389372 -2.2046432 3 4
4.8097396 16.696529 -1.8716283 7 5
7.9385591 19.979149 -2.0068486 2 6
5.7524958 19.969212 -1.4531668 3 8
7.9684324 20.054331 -1.2567332 3 10
4.7117686 19.978884 -0.83629042 3 13
1.5151509 5.1915102 -1.5139352 6 1
1.8620361 5.3863668 -1.1398338 5 2
3.5866544 12.289305 -1.9916928 2 3
5.6654015 16.388474 -2.2071688 3 4
4.872438 16.69491 -1.8733417 7 5
8.0141706 19.966105 -2.0083356 2 6
5.8389215 20.006468 -1.4573522 3 8
6.9061604 19.977652 -1.7255778 2 7
4.7867928 19.984558 -1.3170137 4 9
4.7870517 19.98564 -0.8372674 3 13
1.5343568 5.1898832 -1.5150136 6 1
1.8847115 5.3909421 -1.1421872 5 2
3.6295333 12.27671 -1.9916928 2 3
5.7278156 16.383579 -2.2091889 3 4
4.9374533 16.700682 -1.8759121 7 5
8.101778 19.982296 -2.0127969 2 6
5.9121208 19.997446 -1.4581894 3 8
8.1247377 20.038923 -1.2592913 3 10
4.8624573 19.992107 -0.83824438 3 13
1.5502553 5.1771154 -1.5128571 7 1
1.9074414 5.3954239 -1.1445407 5 2
3.6701007 12.256391 -1.990463 2 3
5.7902641 16.378448 -2.2112093 3 4
5.0025697 16.706203 -1.8784823 7 5
5.999064 20.034021 -1.4623747 3 8
7.0640755 19.981575 -1.7301344 2 7
4.9415145 20.012657 -1.321107 4 9
6.006053 20.057362 -0.97529238 2 12
4.9389253 20.002171 -0.8393842 3 13
1.5705518 5.1790447 -1.5150136 7 1
1.9289027 5.3961196 -1.1461096 4 2
3.7151525 12.251071 -1.9916928 2 3
5.8460612 16.354401 -2.2107043 3 4
5.0654678 16.703865 -1.880196 7 5
8.2745724 20.006216 -2.0209761 2 6
6.0747452 20.032053 -1.4637699 3 8
7.1579313 20.024366 -1.7359924 3 7
8.282752 20.025991 -1.2620819 3 10
6.0771852 20.0401 -0.97547847 2 12
5.0096836 19.988688 -0.83954704 3 13
1.5874912 5.1698484 -1.5139352 5 1
1.9503946 5.3967309 -1.1476785 3 2
3.7578976 12.238028 -1.9916928 2 3
5.9071636 16.345087 -2.2122192 3 4
5.1307526 16.708889 -1.8827661 7 5
8.3689222 20.036005 -2.0269244 2 6
6.1610365 20.064127 -1.4676762 3 8
7.2250814 19.991758 -1.7353417 3 7
5.0919323 20.020226 -1.3239212 4 9
5.0882988 20.005939 -0.84101254 3 13
1.6089571 5.1753106 -1.5171702 7 1
1.9692198 5.3898902 -1.1476785 6 2
3.7970705 12.213513 -1.989848 2 3
5.9669027 16.331825 -2.2132297 3 4
5.1902237 16.694677 -1.8831947 7 5
8.4326153 19.991997 -2.0254374 2 6
6.2262931 20.02726 -1.46656 3 8
7.3112354 20.011356 -1.7392471 3 7
8.4502935 20.033909 -1.2662679 3 10
5.1560993 19.980314 -0.8406868 3 13
1.6270114 5.169663 -1.5171702 6 1
1.9934562 5.3977013 -1.1508164 4 2
3.8396778 12.200185 -1.989848 2 3
6.0224967 16.307175 -2.2127244 3 4
5.2544336 16.695427 -1.8853365 7 5
8.5085859 19.977097 -2.0269244 2 6
6.2961593 20.005404 -1.46656 3 8
7.3810391 19.985712 -1.7392471 3 7
5.2335882 19.991917 -1.3244328 4 9
8.5279932 20.022661 -1.2674308 3 10
5.2379546 20.008595 -0.84264076 3 13
1.6450483 5.1639519 -1.5171702 6 1
2.0136588 5.3943839 -1.1516008 5 2
3.8774455 12.171643 -1.9873885 2 3
6.0821633 16.293488 -2.2137346 3 4
5.3175125 16.692141 -1.8870502 7 5
8.5908594 19.976542 -2.0298984 2 6
6.4083495 20.116373 -1.476326 3 8
7.4688873 20.008379 -1.7434781 3 7
8.6009932 20.000105 -1.2678958 3 10
5.3098216 19.997911 -0.84296644 3 13
1.6630629 5.1581783 -1.5171702 7 1
2.0352445 5.3946629 -1.1531698 4 2
3.9235451 12.16932 -1.9892331 2 3
6.1474013 16.294436 -2.2167652 3 4
5.381845 16.692404 -1.8891921 7 5
8.6906719 20.015844 -2.0369623 2 6
6.4601593 20.036917 -1.4721406 3 8
5.3906741 20.020418 -1.328782 4 9
8.699378 20.035894 -1.2720819 3 10
7.5477524 20.006235 -1.1206176 3 11
5.3816695 19.986977 -0.84329212 3 13
1.6822543 5.1560035 -1.5182486 7 1
2.0582561 5.39852 -1.1555232 5 2
3.9574213 12.129247 -1.9849288 2 3
6.2070727 16.280289 -2.2177751 3 4
5.4474854 16.696199 -1.8917625 7 5
8.7572947 19.978088 -2.0362189 2 6
7.6254334 20.000452 -1.7473836 3 7
8.769268 20.005404 -1.2720819 3 10
5.466145 20.022043 -0.84557176 3 13
1.7014482 5.153758 -1.5193268 6 1
2.0799072 5.3986225 -1.1570921 5 2
4.0046902 12.130373 -1.9873885 2 3
6.2667141 16.26593 -2.2187853 3 4
5.5144563 16.70352 -1.8947612 7 5
8.8592081 20.020243 -2.0436542 2 6
6.6186495 20.048166 -1.476326 3 8
5.5335054 19.993837 -1.3295494 4 9
8.8729763 20.051357 -1.2769655 3 10
5.539196 20.014399 -0.84606016 3 13
1.7188514 5.1520414 -1.5204051 7 1
2.0997019 5.3993726 -1.1586611 4 2
4.0390296 12.106483 -1.9855437 2 3
6.3278551 16.272047 -2.2223208 3 4
5.5706849 16.69743 -1.8960463 7 5
7.7795887 20.005173 -1.7522655 3 7
5.5977397 19.981503 -0.84540892 3 13
1.7364894 5.1420569 -1.5193268 6 1
2.1209111 5.3952913 -1.1594455 5 2
4.0833721 12.091599 -1.9855437 2 3
6.3918042 16.259827 -2.2238362 3 4
5.638206 16.69574 -1.8981882 7 5
9.0198221 20.013939 -2.0492308 2 6
6.7473001 19.979967 -1.4746519 3 8
5.6858363 20.013308 -1.3333869 4 9
9.0305853 20.037823 -1.2799888 3 10
6.7641201 20.029774 -0.98478472 2 12
5.6884089 20.022364 -0.84801412 3 13
1.7565691 5.1393037 -1.5204051 6 1
2.1421189 5.3911271 -1.16023 5 2
4.1276598 12.076551 -1.9855437 2 3
6.4586792 16.254728 -2.2263613 3 4
5.7070751 16.697544 -1.9007586 7 5
8.9941292 19.76325 -2.0269244 2 6
7.9436812 19.992071 -1.756171 3 7
9.1304283 20.062746 -1.2837098 3 10
5.7617521 20.001383 -0.84801412 3 13
1.7739621 5.1374006 -1.5214833 6 1
2.1648834 5.3989339 -1.1633679 4 2
4.1578364 12.041109 -1.9818542 2 3
6.5185704 16.256456 -2.2293918 4 4
5.7685866 16.705847 -1.9037573 7 5
9.1824121 20.010002 -2.0551794 2 6
6.9156933 20.027872 -1.4816276 3 8
5.82974 20.000973 -1.3351778 4 9
9.1817503 20.00856 -1.2820818 3 10
5.8301477 20.002371 -0.84882832 3 13
1.7927835 5.1308627 -1.5214833 7 1
2.1861339 5.3945966 -1.1641524 6 2
4.2045584 12.03325 -1.9830841 2 3
6.5855722 16.250839 -2.2319171 4 4
5.838973 16.710869 -1.906756 7 5
9.2757978 20.019569 -2.0596409 2 6
8.0975561 19.981874 -1.7600765 3 7
9.2785416 20.025492 -1.2853376 3 10
5.9068327 19.992361 -0.84931678 3 13
1.8119625 5.1282072 -1.5225617 6 1
2.2064331 5.3905635 -1.1649368 5 2
4.2504783 12.029682 -1.9849288 2 3
6.6542721 16.257133 -2.2359576 4 4
5.8999076 16.697889 -1.9076127 7 5
9.3658514 20.030367 -2.0641019 2 6
7.0694671 20.007971 -1.4838598 3 8
5.9898801 20.016106 -1.3390151 4 9
9.311162 19.913404 -1.2802213 3 10
5.9845896 19.998426 -0.85045654 3 13
1.8285575 5.1182227 -1.5214833 5 1
2.2297332 5.393703 -1.1672902 4 2
4.2857981 11.996161 -1.9818542 2 3
6.7185645 16.252142 -2.2384832 4 4
5.9621763 16.688427 -1.908898 7 5
9.4272213 19.979542 -2.0622432 2 6
8.253603 19.965385 -1.7636564 3 7
9.4385576 20.003567 -1.2881281 3 10
8.2803926 20.03019 -1.1358997 3 11
6.0590034 19.992714 -0.8511079 3 13
1.8468297 5.1157541 -1.5225617 6 1
2.246098 5.382659 -1.1665058 5 2
4.326901 11.9856 -1.9824692 2 3
6.77701 16.240757 -2.2399986 4 4
6.0269423 16.694748 -1.9118967 7 5
7.9360065 16.675615 -1.7239267 1 6
7.2190518 19.996914 -1.4866499 3 8
8.3581533 20.029886 -1.7717929 3 7
6.1470642 20.043562 -1.3436202 4 9
6.1393356 20.018362 -0.85306185 3 13
1.870851 5.1234231 -1.5268748 6 1
2.2703817 5.3852339 -1.1688592 5 2
4.3680873 11.962234 -1.9812393 2 3
6.8503599 16.248716 -2.244544 4 4
6.1003642 16.706165 -1.9157522 7 5
8.0591555 16.775656 -1.7373106 1 6
8.4315062 19.999117 -1.7717929 3 7
9.6246672 20.03437 -1.2944072 3 10
6.2174039 20.010992 -0.85371315 3 13
1.8873912 5.1132483 -1.5257967 5 1
2.2922399 5.3844929 -1.1704282 5 2
4.4098191 11.946914 -1.9812393 2 3
6.9163661 16.246609 -2.2475746 4 4
6.1655326 16.703424 -1.9178941 7 5
8.1333027 16.779675 -1.7406566 1 6
7.3799243 19.993408 -1.4902773 3 8
8.5012703 19.969563 -1.7717929 3 7
6.304708 20.044756 -1.3466901 4 9
9.7450562 20.104855 -1.3011514 3 10
6.2968168 20.019667 -0.85501581 3 13
1.9029901 5.1033521 -1.5247183 5 1
2.31163 5.3804665 -1.1712126 5 2
4.4507909 11.935928 -1.9818542 2 3
6.9795985 16.245461 -2.2506049 4 4
6.2208862 16.682888 -1.9178941 7 5
8.2098866 16.795551 -1.7451179 1 6
7.4712758 20.036125 -1.4952998 3 8
9.7941332 20.036556 -1.2988257 3 10
7.4814072 20.063295 -0.99744117 2 12
6.3704371 20.02153 -0.85599279 3 13
1.9216832 5.0963426 -1.5247183 6 1
2.3375823 5.3863492 -1.1743505 5 2
4.4945111 11.919534 -1.9818542 2 3
7.0564752 16.259808 -2.2561605 4 4
6.2932196 16.689745 -1.9213212 7 5
8.2749176 16.772488 -1.7458614 1 6
7.5474811 20.016071 -1.4958577 3 8
8.6801558 20.001156 -1.7799294 3 7
6.4444933 20.000254 -1.3466901 4 9
9.9134464 20.093634 -1.3048723 3 10
7.5408001 19.998354 -0.99557996 2 12
6.4486847 20.01326 -0.85664409 3 13
1.9408295 5.0932045 -1.5257967 4 1
2.3579402 5.3817506 -1.1751349 4 2
4.5290465 11.885309 -1.9787798 2 3
7.0956616 16.195101 -2.2506049 4 4
6.3556767 16.678827 -1.9226065 7 5
8.3422766 16.761333 -1.7477204 1 6
7.6599178 20.101471 -1.5042286 3 8
9.999526 20.091085 -1.3069654 3 10
6.5296426 20.024832 -0.85810959 3 13
1.9585977 5.0863981 -1.5257967 6 1
2.38306 5.3878355 -1.1782728 9 2
4.57335 11.876804 -1.9800097 2 3
7.1585751 16.184748 -2.2526252 4 4
6.4238663 16.68252 -1.9256052 3 5
8.4114599 16.753466 -1.749951 1 6
7.7300439 20.07461 -1.5042286 3 8
8.8437586 19.994762 -1.7848111 3 7
6.6102204 20.034386 -1.3520626 4 9
10.069602 20.056057 -1.3069654 3 10
6.6057687 20.020893 -0.85892367 3 13
1.9749448 5.0759397 -1.5247183 7 1
2.4050517 5.3866467 -1.1798418 7 2
4.6061835 11.838665 -1.9763201 2 3
7.2101779 16.148792 -2.2511101 4 4
6.5022526 16.71188 -1.9316026 7 5
8.4860878 16.755978 -1.753297 3 6
7.8000746 20.047501 -1.5042286 3 8
6.716774 20.120993 -1.3594816 4 9
6.6895409 20.039412 -0.86071485 3 13
1.9945853 5.0765324 -1.5268748 6 1
2.4293466 5.3929453 -1.1829796 6 2
4.6439748 11.819645 -1.9757051 2 3
7.2669535 16.132025 -2.25212 4 4
6.5547323 16.682821 -1.9307458 7 5
8.5579128 16.759665 -1.7566431 3 6
9.0009499 19.981352 -1.7890421 3 7
10.225871 20.026165 -1.3095233 3 10
9.0201559 20.023989 -1.1509725 3 11
6.7470164 19.990608 -0.85957503 3 13
2.0151324 5.0767012 -1.5290315 6 1
2.4513998 5.3915758 -1.1845486 9 2
4.6851969 11.803366 -1.9757051 2 3
7.3215666 16.102955 -2.251615 4 4
6.6275873 16.69681 -1.9350296 7 5
8.6272936 16.75094 -1.7588737 3 6
7.955483 20.042162 -1.5078559 3 8
6.8535686 20.07481 -1.3594816 4 9
10.35238 20.100407 -1.3167326 4 10
6.84515 20.050152 -0.86315721 3 13
2.0314088 5.0660605 -1.5279531 7 1
2.4685705 5.3794203 -1.1837641 13 2
4.7234311 11.779602 -1.9744754 2 3
7.399251 16.124182 -2.2581811 4 4
6.6947145 16.695719 -1.9376 7 5
8.7040749 16.756063 -1.7625915 3 6
9.1352291 19.907164 -1.7880658 3 7
10.345173 19.915314 -1.3069654 3 10
6.9229288 20.0488 -0.86413425 3 13
2.0496442 5.0628657 -1.5290315 7 1
2.4946361 5.3890009 -1.1876864 6 2
4.7595043 11.756543 -1.9732455 2 3
7.4360156 16.063543 -2.2531304 4 4
6.7575097 16.691856 -1.939742 7 5
8.7706823 16.748274 -1.7648221 3 6
8.0947247 19.994936 -1.5084139 3 8
9.2564669 19.996145 -1.798806 3 7
7.0019031 20.061611 -1.3617841 4 9
10.511199 20.071918 -1.3195233 4 10
6.9893794 20.025728 -0.86413425 3 13
2.070219 5.0628114 -1.5311881 6 1
2.5184112 5.3909216 -1.1900399 8 2
4.7975192 11.732543 -1.9720157 2 3
7.5021152 16.059061 -2.2561605 4 4
6.8277721 16.697617 -1.943169 7 5
8.8514071 16.759819 -1.7692834 3 6
8.2511549 20.17856 -1.0154953 2 12
7.0712075 20.035131 -0.86559975 3 13
2.0878778 5.0555544 -1.5311881 7 1
2.5405574 5.3891945 -1.1916088 7 2
4.8384414 11.715726 -1.9720157 2 3
7.5547385 16.025599 -2.2551506 4 4
6.8905663 16.68471 -1.9444541 3 5
8.9210863 16.749914 -1.7715141 3 6
8.2584801 19.996954 -1.5128784 3 8
9.4434299 20.032015 -1.8079188 3 7
7.1511703 20.038561 -1.3635749 4 9
10.660447 20.015676 -1.3206861 4 10
8.2788305 20.046228 -1.0102838 2 12
7.1370654 19.999037 -0.86511123 3 13
2.1049111 5.0443134 -1.5301098 6 1
2.5636654 5.3869295 -1.1931777 9 2
4.8813519 11.697913 -1.9720157 2 3
7.598083 15.965553 -2.2506049 4 4
6.9623976 16.685034 -1.9474528 3 5
9.0012722 16.752184 -1.7752318 3 6
10.779103 20.060888 -1.3262674 4 10
7.2225366 20.006573 -0.86657661 3 13
2.1254992 5.0440335 -1.5322665 6 1
2.5858507 5.3850188 -1.1947466 8 2
4.9221587 11.6808 -1.9720157 2 3
7.6486182 15.928202 -2.2490897 4 4
7.0283232 16.678951 -1.9495947 3 5
9.0748768 16.748672 -1.778206 3 6
8.4168673 19.974112 -1.5156686 3 8
9.5882692 19.967514 -1.8082442 3 7
7.3039699 20.013121 -1.3653657 4 9
10.879507 20.079315 -1.3299884 4 10
7.3375516 20.105135 -0.87194997 3 13
2.1422133 5.0369582 -1.5322665 7 1
2.6105311 5.3905349 -1.1978846 9 2
4.9500356 11.638955 -1.9677113 2 3
7.7065806 15.913465 -2.2506049 4 4
7.0960422 16.684832 -1.9530219 7 5
9.1399078 16.735966 -1.7800649 3 6
8.4971094 19.979143 -1.51818 3 8
9.6996059 20.0289 -1.8167061 3 7
10.953683 20.057146 -1.3309186 4 10
7.4027948 20.076942 -0.87178719 3 13
2.1613011 5.032989 -1.5333447 7 1
2.6327741 5.3884382 -1.1994535 9 2
4.9921904 11.625237 -1.9683263 2 3
7.7254992 15.811601 -2.2399986 4 4
7.166791 16.689198 -1.9564492 7 5
9.2251635 16.752802 -1.7852697 4 6
9.7029505 19.858805 -1.8043387 3 7
7.4567451 20.00783 -1.3684357 4 9
11.064076 20.092249 -1.3358023 4 10
9.7587109 19.972929 -1.1649984 3 11
7.4616623 20.021023 -0.87048459 3 13
2.1828005 5.0321007 -1.5355012 8 1
2.6577122 5.3893056 -1.2018069 8 2
5.0316229 11.599609 -1.9670964 2 3
7.7693629 15.754705 -2.2359576 4 4
7.237412 16.684708 -1.9590194 3 5
9.3077812 16.757175 -1.7893593 4 6
8.6843204 20.020325 -1.5259926 3 8
9.8514986 19.976856 -1.8183334 3 7
11.127954 20.034105 -1.3346394 4 10
2.1979325 5.0213051 -1.534423 7 1
2.6755705 5.3804622 -1.2018069 9 2
5.0684795 11.579238 -1.9664816 2 3
7.3038692 16.686115 -1.9620181 3 5
9.3730307 16.743591 -1.7912183 4 6
9.8857422 19.87982 -1.8124751 3 7
7.6118751 19.996317 -1.3712498 4 9
11.21579 20.035419 -1.3371977 4 10
7.6197476 20.016998 -0.87260133 3 13
2.220114 5.0241742 -1.537658 7 1
2.7013667 5.3851156 -1.2049447 7 2
5.1056647 11.554248 -1.9652517 2 3
7.8835316 15.715649 -2.237978 8 4
7.3733096 16.685987 -1.9650168 3 5
9.4490261 16.741993 -1.7945641 4 6
8.8332863 19.98995 -1.5282248 3 8
10.026566 19.98774 -1.8254935 3 7
11.126663 19.71447 -1.3183604 4 10
2.2376392 5.0163937 -1.537658 7 1
2.723691 5.3826518 -1.2065136 8 2
5.1395273 11.521916 -1.962792 2 3
7.938345 15.688031 -2.237978 8 4
7.4444747 16.689203 -1.968444 3 5
9.5271091 16.743521 -1.798282 4 6
7.7859879 20.031986 -1.3773897 4 9
11.418574 20.067698 -1.3446393 4 10
8.9932194 20.161215 -1.0283378 2 12
2.2591734 5.015183 -1.5398146 8 1
2.7469673 5.3796201 -1.2080826 6 2
5.1833439 11.506605 -1.9634069 2 3
8.0048103 15.676502 -2.2405035 8 4
7.5153909 16.683561 -1.9710143 3 5
9.604269 16.736126 -1.8012562 4 6
9.0121593 20.006268 -1.5343634 3 8
11.515897 20.067274 -1.34743 4 10
9.0260229 20.037045 -1.0236847 2 12
2.2750726 5.0037589 -1.5387362 7 1
2.7711184 5.3804593 -1.210436 8 2
5.2169375 11.47405 -1.9609473 2 3
8.0558538 15.641407 -2.2394931 4 4
7.5818167 16.675327 -1.9731562 3 5
9.6825781 16.736969 -1.8049738 4 6
10.317292 20.032263 -1.8394881 3 7
11.58588 20.026953 -1.34743 4 10
2.2900491 4.9926853 -1.537658 8 1
2.7925618 5.3782015 -1.2120049 9 2
5.2516656 11.449498 -1.9597175 2 3
8.1223106 15.642777 -2.2435341 4 4
7.6470256 16.67178 -1.9757264 3 5
9.7600946 16.742615 -1.8090634 4 6
9.1897297 20.03513 -1.541339 3 8
8.0398884 20.060511 -1.3850645 4 9
11.702511 20.074665 -1.3532439 4 10
2.3123159 4.9951477 -1.5408927 7 1
2.8149564 5.37537 -1.2135738 9 2
5.2882767 11.423925 -1.9584877 2 3
8.1823845 15.624876 -2.245049 4 4
7.7235479 16.684687 -1.9804387 3 5
9.8467236 16.756517 -1.8142684 4 6
9.2713385 20.02828 -1.5432922 3 8
10.453409 19.961569 -1.8394881 3 7
11.750255 19.995825 -1.3506858 4 10
10.483075 20.018217 -1.1842581 3 11
2.3289766 4.9831505 -1.5398146 7 1
2.8401349 5.3754215 -1.2159272 8 2
5.3267627 11.397305 -1.9572579 2 3
8.219203 15.55619 -2.2394931 4 4
7.7981162 16.685091 -1.9838659 3 5
9.9222813 16.744299 -1.8168707 4 6
8.1983376 20.039415 -1.387623 5 9
11.90896 20.09691 -1.3604532 4 10
10.593692 20.050301 -1.188445 3 11
8.1917009 20.023193 -0.88139409 3 13
2.3529305 4.9889255 -1.5441277 7 1
2.8662603 5.3793206 -1.2190652 8 2
5.3597727 11.364342 -1.9547982 2 3
8.2790556 15.53791 -2.2410085 4 4
7.8681893 16.682945 -1.9868646 3 5
9.9990549 16.740335 -1.8202168 4 6
9.4314413 19.997513 -1.5460825 3 8
12.001568 20.092928 -1.3630112 4 10
10.678648 20.041401 -1.1901197 3 11
2.371985 4.9841604 -1.5452061 8 1
2.8943017 5.3865585 -1.2229875 9 2
5.3926134 11.33129 -1.9523386 2 3
8.3144579 15.473963 -2.2359576 4 4
7.9349179 16.673336 -1.9890065 3 5
10.082075 16.746277 -1.8246782 4 6
10.750245 20.007185 -1.8541338 3 7
8.3487997 20.007479 -1.3894137 5 9
12.139596 20.163807 -1.3706856 4 10
10.761771 20.028635 -1.1915852 3 11
2.3843653 4.9654341 -1.5419711 7 1
2.9149542 5.3798723 -1.2237719 9 2
5.4287095 11.305271 -1.9511088 2 3
8.3665285 15.44136 -2.2354527 4 4
8.0085611 16.677805 -1.9928621 3 5
10.161127 16.745031 -1.8283958 4 6
9.5984478 19.988739 -1.5505469 3 8
12.158113 20.035967 -1.3648717 4 10
10.844934 20.015535 -1.1930506 3 11
2.4049869 4.9683204 -1.5452061 7 1
2.9374783 5.3810172 -1.2261254 9 2
5.4538646 11.266816 -1.9474193 2 3
8.4149942 15.415001 -2.2354527 4 4
8.0782413 16.68836 -1.9971459 3 5
10.232369 16.743612 -1.8317418 4 6
10.938089 20.03693 -1.863572 3 7
8.5172215 20.036169 -1.3952979 5 9
12.258476 20.059006 -1.3690578 4 10
9.7178173 20.075464 -1.038947 3 12
10.928812 20.019936 -1.1953533 3 11
2.4265661 4.966392 -1.5473626 8 1
2.9628608 5.3805199 -1.2284788 9 2
5.4881907 11.232542 -1.9449596 2 3
8.4274254 15.304104 -2.2238362 3 4
8.155077 16.690792 -2.0010014 3 5
10.320843 16.750069 -1.8365749 4 6
9.7658253 19.987469 -1.5555694 3 8
11.044162 20.056065 -1.8691049 3 7
12.189485 19.782755 -1.3532439 4 10
11.019471 20.011229 -1.1972375 3 11
2.4447231 4.9617739 -1.5484409 7 1
2.9844928 5.3775249 -1.2300477 9 2
5.5219131 11.207192 -1.9437299 2 3
8.4916048 15.300362 -2.2273717 4 4
8.2209244 16.685064 -2.0035717 3 5
10.395233 16.746208 -1.839921 4 6
9.904355 20.101732 -1.5670094 3 8
8.693408 20.060455 -1.4011819 5 9
12.457194 20.067928 -1.3755693 4 10
11.118719 20.033955 -1.2007962 3 11
2.4689054 4.9626956 -1.5516758 8 1
3.0185359 5.3899803 -1.235539 8 2
5.5561051 11.168211 -1.9406554 2 3
8.5502949 15.267641 -2.2273717 4 4
8.2955627 16.674736 -2.0061419 3 5
10.486936 16.750051 -1.8447541 4 6
11.208825 20.014786 -1.8726848 3 7
12.56171 20.063946 -1.3785926 4 10
11.213134 20.022478 -1.2026805 3 11
12.539267 20.028097 -0.82516372 4 14
2.4879363 4.9618025 -1.5538325 14 1
3.0354531 5.3804712 -1.235539 9 2
5.5840745 11.13657 -1.9381957 2 3
8.5923653 15.230338 -2.2258563 3 4
8.3639469 16.680593 -2.0099976 3 5
10.560741 16.750715 -1.8484718 4 6
10.022987 19.989292 -1.5636611 3 8
12.605509 19.993982 -1.3764995 4 10
11.291678 20.014986 -1.2043551 3 11
12.60212 19.988609 -0.82516372 4 14
2.5035012 4.9496508 -1.5527542 8 1
3.0580931 5.3766623 -1.2371079 9 2
5.6229124 11.117011 -1.9381957 2 3
8.6493979 15.207152 -2.2268665 4 4
8.4292984 16.665493 -2.0117111 3 5
10.636231 16.740643 -1.8514459 4 6
11.380733 20.009317 -1.879194 3 7
8.94526 20.063112 -1.4078335 5 9
12.74589 20.061087 -1.3841739 4 10
11.393068 20.031006 -1.2077045 3 11
8.9399071 20.051105 -0.89442044 3 13
12.740415 20.052471 -0.82963085 4 14
2.5251293 4.9473023 -1.5549107 8 1
3.085587 5.3790259 -1.2402458 8 2
5.6582332 11.085765 -1.9363509 2 3
8.6991577 15.165022 -2.2253513 3 4
8.5174494 16.687618 -2.018137 3 5
10.725446 16.745142 -1.856279 4 6
10.225634 20.034342 -1.5728689 3 8
11.491691 20.033175 -1.8853776 3 7
12.85595 20.0714 -1.3881273 4 10
11.476353 20.006435 -1.2087513 3 11
12.798737 19.982075 -0.82865369 4 14
2.5485704 4.9526029 -1.559224 10 1
3.1073325 5.3755569 -1.2418147 9 2
5.6931529 11.063428 -1.9357361 2 3
8.7394657 15.118916 -2.2228258 3 4
8.5909328 16.694645 -2.0224209 3 5
10.798188 16.736261 -1.8592533 4 6
10.299314 20.014517 -1.5739851 3 8
9.108223 20.051056 -1.4114151 5 9
12.976558 20.112547 -1.3939413 4 10
11.576613 20.027063 -1.2123102 3 11
12.906103 20.003347 -0.83130604 4 14
2.5711651 4.9539337 -1.5624589 10 1
3.1339757 5.3782339 -1.2449527 8 2
5.7208099 11.02244 -1.9320467 2 3
8.7941828 15.091748 -2.223331 3 4
8.6546497 16.675148 -2.0237062 4 5
10.882588 16.738535 -1.8637145 4 6
11.663906 20.016497 -1.8912359 3 7
13.029266 20.040344 -1.3920808 4 10
11.67058 20.027948 -1.2148224 3 11
13.017245 20.021854 -0.83395839 4 14
2.5893061 4.9444757 -1.5624589 8 1
3.1576428 5.3734736 -1.2465216 8 2
5.7611737 11.001397 -1.9320467 2 3
8.8393908 15.042307 -2.2208056 3 4
8.7341623 16.678543 -2.0279899 4 5
10.961335 16.725182 -1.8666888 4 6
10.484845 20.021606 -1.5804026 3 8
9.2682409 20.021591 -1.4139735 5 9
13.159547 20.079287 -1.3981272 4 10
10.497211 20.045218 -1.054023 3 12
11.760103 20.012589 -1.2164971 3 11
13.121224 20.020815 -0.83591276 4 14
2.6119449 4.9456253 -1.5656937 10 1
3.1783781 5.3657937 -1.247306 8 2
5.7958465 10.974231 -1.9308168 2 3
8.8817291 14.994292 -2.2182803 3 4
8.8053255 16.672573 -2.0309885 4 5
11.059152 16.746641 -1.8733807 4 6
13.244956 20.056559 -1.3997551 4 10
11.852279 20.009226 -1.2187999 3 11
13.239491 20.048283 -0.83898389 4 14
2.6364369 4.9500771 -1.570007 11 1
3.2071443 5.3715043 -1.2512283 9 2
5.8211155 10.929512 -1.9265124 2 3
8.9279165 14.952974 -2.2167652 3 4
8.874691 16.662794 -2.0335588 4 5
11.144021 16.747721 -1.8778421 4 6
10.648753 19.993706 -1.5840299 3 8
11.951972 20.017832 -1.9032779 3 7
13.337013 20.043446 -1.4020808 4 10
11.956868 20.026031 -1.2223587 3 11
13.311611 20.00527 -0.83912349 4 14
2.6573441 4.9476309 -1.5721636 10 1
3.2299187 5.3669991 -1.2527974 9 2
5.8667092 10.923053 -1.928972 2 3
8.9698248 14.904722 -2.2142396 3 4
9.0664043 16.880472 -2.0639746 4 5
11.22237 16.738495 -1.8811882 4 6
9.525404 20.024374 -1.4211366 5 9
13.440248 20.046524 -1.4055691 4 10
12.053472 20.028667 -1.2250801 3 11
13.405845 19.995211 -0.84065908 4 14
2.6755695 4.9421802 -1.5732419 12 1
3.2578652 5.3730288 -1.2567197 7 2
5.8897247 10.87921 -1.9246676 2 3
9.0109682 14.861323 -2.2122192 3 4
9.06742 16.748894 -2.0515511 4 5
11.306787 16.744099 -1.8860213 4 6
13.546872 20.061415 -1.4097551 4 10
12.132244 20.009083 -1.2263362 3 11
13.525765 20.030159 -0.84400946 4 14
2.6964974 4.9395714 -1.5753984 10 1
3.2806933 5.3683167 -1.2582886 10 2
5.9238806 10.851645 -1.923438 2 3
9.0462408 14.80269 -2.2081788 3 4
9.0972509 16.664776 -2.0451255 4 5
11.380853 16.727573 -1.8886237 4 6
10.922896 20.009079 -1.594075 3 8
12.230228 20.012762 -1.9146689 3 7
9.699748 20.038116 -1.4267648 5 9
13.646025 20.056921 -1.4127783 4 10
12.258262 20.058636 -1.2319885 3 11
9.6941776 20.026609 -0.90646982 4 13
13.611348 20.005953 -0.84498668 4 14
2.7192948 4.9402528 -1.5786334 8 1
3.3117533 5.3768711 -1.2629955 9 2
5.9636278 10.834364 -1.9240528 2 3
9.0812073 14.743998 -2.2041383 3 4
9.168788 16.657309 -2.0481241 4 5
11.461689 16.720596 -1.8923414 4 6
13.758846 20.071749 -1.4171969 4 10
12.359624 20.066744 -1.2351286 3 11
13.717258 20.011078 -0.84722018 4 14
2.7402623 4.9374657 -1.5807899 9 1
3.3325713 5.3686094 -1.2637799 11 2
5.9899044 10.792744 -1.9203633 2 3
9.1096001 14.67512 -2.1985824 3 4
9.2558279 16.677359 -2.0545499 4 5
11.551673 16.726364 -1.8975462 4 6
11.099111 19.998625 -1.5993764 3 8
12.409595 19.991249 -1.9208527 3 7
9.8993893 20.091656 -1.4354631 5 9
13.942292 20.187885 -1.4288247 4 10
12.438025 20.03705 -1.2359661 3 11
13.830194 20.02557 -0.84987253 4 14
2.7631247 4.9379544 -1.5840249 9 1
3.3616936 5.3735695 -1.2677022 11 2
6.0294743 10.775218 -1.9209782 2 3
9.1418343 14.612956 -2.1940367 3 4
9.3237019 16.6623 -2.0566919 4 5
11.644114 16.734974 -1.9031229 4 6
11.215619 20.043329 -1.606073 3 8
12.540624 20.045822 -1.9302909 3 7
9.9694672 20.056976 -1.4354631 5 9
13.955665 20.057146 -1.4230108 4 10
12.567216 20.088329 -1.2418277 3 11
13.941114 20.036234 -0.85238534 4 14
2.7841287 4.9349895 -1.5861815 11 1
3.3908885 5.3783922 -1.2716246 6 2
6.0612216 10.743779 -1.9191334 2 3
9.1843185 14.567531 -2.1920164 3 4
9.3915749 16.646975 -2.0588338 4 5
11.729888 16.733362 -1.9075841 4 6
14.066847 20.067167 -1.4271967 4 10
14.047678 20.039824 -0.85461891 4 14
2.8061886 4.9357758 -1.5894164 10 1
3.4150128 5.3770523 -1.273978 8 2
6.0909529 10.713313 -1.9172887 2 3
9.1942816 14.476705 -2.182925 3 4
9.4722757 16.660686 -2.0644028 4 5
11.80828 16.726913 -1.911302 4 6
11.363614 19.987341 -1.6077472 3 8
12.732344 20.047501 -1.9387528 3 7
10.125562 20.027845 -1.4382772 5 9
14.165552 20.066086 -1.4304526 4 10
12.712219 20.015814 -1.2426651 3 11
14.127884 20.012728 -0.85545647 4 14
2.8291488 4.9359756 -1.5926514 12 1
3.4358776 5.3684015 -1.2747625 9 2
6.1263504 10.688556 -1.9166738 2 3
9.2490416 14.451204 -2.1839354 3 4
9.5521336 16.665472 -2.0691152 4 5
11.903531 16.737516 -1.9172503 4 6
12.812997 20.019722 -1.9403801 3 7
15.202909 21.376762 -1.527661 5 10
12.838001 20.05879 -1.248108 3 11
14.239365 20.021925 -0.85796922 4 14
2.8568585 4.9422479 -1.5980428 12 1
3.466162 5.3722525 -1.2786849 9 2
12.302591 17.165089 -0.24585968 2 18
6.1595488 10.655766 -1.914829 2 3
9.2632208 14.357194 -2.174844 3 4
9.6390238 16.675114 -2.0746844 4 5
11.997276 16.7391 -1.9224553 4 6
12.328221 17.20085 0.24637191 4 22
