# .PCD v0.7 - Point Cloud Data file format
VERSION 0.7
FIELDS x y z intensity ring
SIZE 4 4 4 4 2
TYPE F F F F U
COUNT 1 1 1 1 1
WIDTH 1305
HEIGHT 1
VIEWPOINT 0 0 0 1 0 0 0
POINTS 1305
DATA ascii
7.5189524 -2.1588657 -0.4555774 2 10
12.469429 -2.2930682 0.73836565 1 27
31.71755 -7.4509659 1.3273832 5 26
6.3268499 -1.4862794 -0.34060243 0 11
8.8949699 -2.5539522 -0.32316935 6 14
55.430382 -10.19338 15.101575 42 31
9.8797455 -2.3209121 1.8503692 103 30
9.6227188 -2.29778 -4.6133013 11 0
7.3229332 -1.7486211 -0.21910991 1 15
5.6257205 -1.0558739 -1.602356 6 1
7.0197167 -1.6762171 -1.4434233 5 2
58.392429 -10.959493 0 42 20
30.837847 -8.9767351 -0.37391162 11 18
8.856945 -1.6623324 -1.4019943 5 3
88.152878 -12.122467 0.51716733 30 21
46.962852 -11.214118 -0.28062245 11 19
6.8442121 -1.2845688 -0.75010777 2 5
58.506329 -10.98087 1.3851805 43 24
30.88777 -8.9912672 0.37451693 9 22
9.6789513 -1.8166122 -0.68863595 1 8
6.4098682 -1.5305932 -0.53798193 2 7
88.132912 -12.11972 2.5890577 30 25
46.972057 -11.216316 0.84295124 10 23
6.9128704 -2.0123003 -0.41929865 1 10
12.441318 -2.3350723 0.73720282 1 27
31.585066 -7.5421028 1.3229867 5 26
9.9112129 -1.8602046 1.2381927 208 29
33.358131 -4.5872903 -1.3718355 10 13
8.8164616 -2.5664256 -0.3206566 6 14
54.720509 -10.270322 14.91833 41 31
7.0863166 -1.3300086 -0.16777377 1 16
9.6115236 -2.3288238 -4.6116109 12 0
5.6335382 -1.0766929 -1.6055909 4 1
7.0141196 -1.6994859 -1.4434233 5 2
63.109722 -12.061655 0 48 20
40.556713 -11.951874 -0.49223158 9 18
7.0151095 -1.3407416 -1.1111419 2 3
7.0109358 -1.6987145 -0.91822255 7 4
46.448433 -6.544435 0.27262527 19 21
6.9024153 -1.3192033 -0.756962 1 5
6.9299393 -2.0422208 -0.67440224 8 6
38.496605 -7.3575473 0.91200817 9 24
7.3173647 -1.3985093 -0.52094138 1 8
46.374126 -6.5339656 1.3629497 11 25
12.468806 -2.3830628 0.73929584 1 27
31.509388 -7.6345663 1.32087 5 26
7.0918097 -1.3554007 -0.33632696 0 12
9.2512531 -2.2415321 -0.49886638 2 11
9.8971901 -1.8915706 1.2372177 208 29
7.0905657 -1.7180084 0.59558797 0 28
6.5608711 -1.9334581 -0.23885216 4 14
54.154846 -10.350182 14.773392 40 31
7.0622282 -1.3497471 -0.16730851 0 16
5.6373072 -1.0978239 -1.6077474 5 1
7.0005269 -1.7220857 -1.4418544 2 2
9.9765816 -1.9428655 0 0 20
6.9677114 -1.3569102 -1.104378 2 3
7.0242286 -1.7279162 -0.92074794 11 4
46.393631 -6.7019567 0.2724393 19 21
6.867157 -1.6892775 -0.041101858 4 19
7.3466897 -1.4307134 -0.80622667 2 5
6.8159118 -2.0345025 -0.66399246 12 6
9.9895821 -1.9453971 0.23681878 0 24
7.4445591 -1.8313149 -0.62585557 3 7
12.394045 -1.7904257 0.36444622 1 25
8.6629868 -2.5858414 -0.52650702 6 10
9.9910622 -1.9456854 0.59278548 0 27
31.6145 -7.776969 1.3264062 5 26
7.3582363 -1.8100801 -0.39712527 7 11
9.8827324 -1.9245889 1.2362427 206 29
7.1309814 -1.7541767 0.5994935 1 28
32.697189 -4.7233887 -1.3459457 9 13
7.1708016 -2.1404345 -0.26132745 6 14
53.985649 -10.513306 14.737157 40 31
46.725746 -11.494241 8.7732897 28 30
9.977807 -1.943104 -0.2365396 0 16
9.6196518 -2.4020154 -4.6234441 23 0
33.300034 -4.9291987 -0.58758765 8 17
5.6258841 -1.1159959 -1.6055909 4 1
6.918364 -1.7275071 -1.426165 7 2
9.9108849 -1.9660034 0 0 20
7.1939678 -2.1747272 -0.087494388 7 18
6.5292325 -1.6303415 -0.85660368 1 4
88.320152 -13.073487 0.51891094 30 21
6.8922653 -1.7209903 -0.041287839 4 19
7.4430766 -1.4764689 -0.81736475 1 5
6.9155135 -2.0905509 -0.67440224 7 6
9.9435062 -1.9724743 0.23588824 0 24
9.9297972 -1.9697549 -0.70788872 1 8
7.074532 -1.766502 -0.59526253 13 7
45.724915 -11.417456 0.8226366 9 23
6.8420925 -2.0683558 -0.41627541 4 10
9.9646254 -1.9766638 0.59162271 0 27
31.428181 -7.8475785 1.3197302 5 26
9.9158278 -1.9669839 -0.47089499 0 12
6.9526944 -1.7360793 -0.37556285 2 11
9.868166 -1.9575293 1.2352678 199 29
30.827785 -7.6976604 2.5938995 6 28
32.538174 -4.8164253 -1.3400838 9 13
8.6556387 -2.6165884 -0.31577066 7 14
9.9938545 -1.9824619 2.7300234 0 31
9.9238939 -1.9685838 -0.235423 0 16
9.6147223 -2.43647 -4.6251345 27 0
32.855564 -4.9806685 -0.58004814 8 17
7.1237168 -1.8052233 -0.21387361 9 15
5.6144032 -1.1341019 -1.6034343 3 1
6.931303 -1.7564638 -1.4300873 8 2
88.693184 -13.445251 0.52137524 30 21
7.0871611 -2.1694679 -0.6918757 5 6
9.9091225 -2.0016294 0.23523688 0 24
9.872015 -1.9941337 -0.70426136 1 8
6.8673639 -1.740261 -0.57833868 3 7
12.432635 -1.8846985 0.36595893 2 25
12.467688 -1.8900123 -0.80816752 1 9
8.6638155 -2.6521013 -0.52766979 7 10
9.8911247 -1.9979938 0.58766925 1 27
31.524569 -7.9886513 1.3249407 5 26
9.8932352 -1.99842 -0.47015047 2 12
9.8612728 -1.9919639 1.2352678 201 29
30.758217 -7.7944498 2.5903196 6 28
32.414471 -4.9138021 -1.3356874 9 13
8.6655645 -2.6526368 -0.31646866 8 14
9.6131811 -2.4718225 -4.6285157 20 0
32.830074 -5.094099 -0.57990855 16 17
7.1367335 -1.8350573 -0.21445541 2 15
5.6104102 -1.1536927 -1.6034343 2 1
6.9023366 -1.7747872 -1.4253806 6 2
40.221607 -12.466054 -0.49022934 9 18
6.7905197 -1.3963637 -1.0785518 2 3
7.0288076 -1.8073065 -0.92377836 7 4
88.69709 -13.762739 0.52167737 30 21
7.3217092 -1.8826199 -0.043938071 2 19
6.6846542 -1.3745942 -0.73511422 2 5
6.9349871 -2.14939 -0.6777482 9 6
40.309479 -12.493287 0.49130031 15 22
6.9848042 -1.7959919 -0.5887534 7 7
12.465491 -1.9342157 0.36712256 2 25
8.6583195 -2.6835098 -0.52790236 8 10
9.8503714 -2.0255742 1.2347803 201 29
30.796461 -7.9186463 2.5958524 6 28
32.397121 -5.0269194 -1.3356874 9 13
8.663888 -2.6852357 -0.31674781 5 14
9.9267883 -2.0412881 2.7155294 1 31
9.604495 -2.5053637 -4.6285157 25 0
12.41859 -1.9713551 -0.21948145 1 17
5.6138892 -1.1748477 -1.6055909 3 1
6.854351 -1.7879798 -1.4167514 2 2
9.8701792 -2.0655835 0 2 20
6.7460117 -1.7597191 -0.88741314 2 4
12.424222 -1.9722492 0.073113881 1 21
7.0557747 -1.8405218 -0.042380478 2 19
7.4077435 -1.550257 -0.8152228 0 5
6.6842403 -2.0972764 -0.65395451 8 6
9.8831644 -2.068301 0.23495772 2 24
7.0653152 -1.4785953 -0.50475788 1 8
7.1752329 -1.8716829 -0.60535175 7 7
12.423123 -1.9720746 0.36607528 3 25
12.335916 -1.9582311 -0.80049264 4 9
6.7286148 -2.1111996 -0.41069406 5 10
9.8886604 -2.0694513 0.58836699 1 27
6.9927664 -1.4634125 -0.33279061 1 12
9.8354673 -2.0583193 1.2338053 201 29
30.641329 -7.9928904 2.5851121 6 28
8.6697178 -2.7202487 -0.31730622 2 14
9.9233828 -2.0767179 2.7165647 1 31
9.8909931 -2.0699394 -0.23514384 1 16
9.6132135 -2.5435107 -4.6369677 44 0
5.6022196 -1.1928325 -1.6034343 2 1
6.6812267 -1.7677515 -1.3822348 1 2
6.9197745 -1.4733682 -1.1006886 5 3
7.0841093 -1.874348 -0.042589709 3 19
6.8287129 -2.168819 -0.66882557 12 6
7.2279744 -1.5389905 0.17196113 2 24
7.2881327 -1.9283297 -0.61544091 2 7
12.356962 -2.0058181 0.36432984 3 25
7.3847246 -1.9538864 0.13333638 1 23
12.329004 -2.0012798 -0.80049264 2 9
9.8970003 -2.1072831 0.58929718 0 27
7.4067736 -1.9597201 0.31214345 0 26
9.2464762 -1.9687728 -0.44037056 0 12
9.387641 -2.4838276 -0.50891489 2 11
9.8282232 -2.0926392 1.2338053 199 29
31.04105 -8.2129917 2.6212382 6 28
12.367728 -2.0075657 -0.51046938 2 13
6.5341806 -2.0752747 -0.23941055 1 14
9.9236326 -2.1129539 2.7186353 1 31
6.9463649 -1.4790299 -0.16526136 1 16
9.6077785 -2.5779912 -4.6386585 33 0
12.372962 -2.052768 -0.21892299 2 17
9.3144379 -2.4992812 -0.28066549 4 15
5.6017861 -1.2131959 -1.6045126 2 1
6.7583585 -1.8134253 -1.3994931 3 2
7.1854196 -1.5561683 0 1 20
6.6403236 -1.4381151 -1.05703 2 3
6.9328485 -1.8602451 -0.91367692 12 4
12.378583 -2.0537007 0.0729279 3 21
7.3247733 -1.9654076 -0.044077557 1 19
7.2836766 -2.3413377 -0.71418226 6 6
9.8997517 -2.1440196 0.23570216 0 24
12.393275 -2.0561383 0.36560985 2 25
12.345572 -2.048224 -0.80202764 2 9
8.6639585 -2.7850292 -0.52999532 6 10
9.920805 -2.1485791 0.59115762 0 27
7.3260322 -1.5866212 -0.34916955 1 12
7.0447941 -1.8902828 -0.38226187 7 11
9.8092184 -2.1244123 1.232343 197 29
43.149071 -11.577903 3.6470814 11 28
9.9350767 -2.15167 2.7238116 0 31
7.1834755 -1.5557472 -0.17103061 2 16
9.6057167 -2.613416 -4.6420393 19 0
7.3071775 -1.9880553 -0.22038989 3 15
5.6125641 -1.2360562 -1.6088258 2 1
7.1643181 -1.5777993 0 1 20
7.0373478 -1.914643 -0.92832398 8 4
88.594864 -15.01651 0.52225858 30 21
43.058086 -11.714764 -0.25935084 10 19
9.4884214 -2.089637 -1.0465524 3 5
7.9268804 -2.5786588 -0.77812785 13 6
9.9507866 -2.1914639 0.23709793 0 24
41.116234 -13.375342 0.50336045 16 22
7.2637725 -1.5997022 -0.52010429 2 8
12.484574 -2.1160903 0.36851889 3 25
6.5922174 -2.1444855 -0.4037174 3 10
48.895466 -10.768259 2.9157884 15 27
28.189192 -6.2081118 -1.3445634 4 12
6.999609 -1.9043754 -0.38016844 14 11
9.7823563 -2.1543705 1.2299055 208 29
42.881424 -11.666699 3.6278794 11 28
7.492712 -2.4374213 -0.27514765 7 14
9.9803324 -2.1979706 2.7383058 0 31
5.6082149 -1.2556401 -1.6088258 2 1
6.7455335 -1.8605629 -1.3994931 7 2
49.451698 -11.07189 0 19 20
7.5717945 -2.4924085 -0.092802726 0 18
7.694644 -1.722777 -1.226745 1 3
88.589211 -15.333862 0.52253759 30 21
38.422108 -8.6024408 0.91619557 9 24
12.50075 -2.1637485 0.36921707 3 25
7.1440992 -1.9704961 0.12935723 6 23
48.491276 -10.856858 2.8939281 15 27
7.2124686 -1.9893538 0.30481616 2 26
9.1339226 -2.5193319 -0.49656361 2 11
9.7747765 -2.1885042 1.2299055 199 29
42.836597 -11.815253 3.6275539 11 28
6.7285271 -2.2148302 -0.24736764 3 14
5.6037974 -1.2752088 -1.6088258 2 1
6.6747808 -1.8661441 -1.3861572 9 2
37.944263 -12.637089 -0.4655968 8 18
6.8330112 -1.5549306 -1.0902351 2 3
6.8824162 -1.9241951 -0.90963632 9 4
58.532379 -10.341906 0.34546018 30 21
7.1313767 -1.6228271 -0.78780597 4 5
6.4690247 -2.1544664 -0.63648105 1 6
39.132694 -8.9050961 0.9338755 10 24
37.910114 -12.625715 0.46517771 15 22
7.295054 -2.0395608 -0.61837006 5 7
12.493121 -2.207371 0.36921707 3 25
8.6949377 -2.895792 -0.53371626 9 10
48.083183 -10.941884 2.8718355 14 27
30.665632 -8.5735378 1.2972598 5 26
7.2746673 -2.0338612 -0.3958692 2 11
9.7748194 -2.2243731 1.2308805 163 29
30.800486 -8.6112404 2.6108234 6 28
8.700572 -2.8976686 -0.32023779 7 14
7.0225177 -1.598055 -0.16758767 0 16
5.5882792 -1.2911832 -1.6055909 2 1
6.6912003 -1.8946801 -1.390864 12 2
48.198196 -11.136292 0 17 20
7.9176493 -1.829389 -1.2642545 7 3
6.8645444 -1.9437643 -0.90812111 5 4
58.442646 -10.526023 0.34513471 30 21
8.5790462 -1.9822061 -0.94845146 1 5
48.239704 -11.145882 1.1520838 12 24
6.7895813 -1.9225377 -0.57606053 5 7
12.497537 -2.2509139 0.36956614 2 25
7.346015 -2.0800974 0.13326657 1 23
6.8907623 -1.2410855 -0.44872615 1 9
37.603916 -8.6884613 2.2476549 10 27
30.863916 -8.7394266 1.3068666 5 26
7.1448946 -2.0231483 -0.3891702 1 11
30.883007 -8.744832 2.6202617 6 28
7.0444536 -1.6276354 -0.16823903 0 16
5.5839667 -1.3097075 -1.6055909 2 1
6.6848807 -1.9168586 -1.390864 7 2
6.9110532 -1.6209729 -1.104378 7 3
6.9381609 -1.9894855 -0.91872764 2 4
58.450699 -10.727711 0.34539044 30 21
7.0125842 -2.3872783 -0.69150394 4 6
6.6950259 -1.9197677 -0.56857497 8 7
38.732388 -7.1087236 1.1460507 7 25
30.455826 -8.7330666 0.55303186 4 23
9.6663809 -1.7741129 -0.6298539 1 9
22.269112 -7.5810237 -1.369988 4 10
30.677254 -8.7965603 1.3001907 5 26
6.301959 -1.478111 -0.30152169 2 12
6.9730358 -1.9994859 -0.38016844 2 11
30.616234 -8.7790632 2.6000834 6 28
7.0758452 -1.2986606 -0.29309246 0 13
8.8535519 -2.5738702 -0.26833108 5 15
5.5978632 -1.3346317 -1.6109824 2 1
6.5572853 -1.9063085 -1.3657609 7 2
7.1398778 -1.7022758 0 0 20
36.817566 -12.684492 -0.45335037 8 18
6.8512397 -1.6334592 -1.0957693 7 3
30.865597 -8.9731264 -0.18681817 5 19
6.9943624 -1.6675823 -0.77452594 11 5
7.3577418 -2.53491 -0.72645092 1 6
6.3733635 -1.5195248 -0.45816052 1 8
7.0592842 -2.0522478 -0.60014439 8 7
38.949726 -7.296279 1.1532651 7 25
30.842215 -8.9663296 0.56064111 4 23
7.3213696 -1.3714796 -0.47737911 1 9
6.641017 -2.287982 -0.40906617 0 10
30.733074 -8.9346008 1.3039358 5 26
6.3081579 -1.5039787 -0.30208004 3 12
7.1612821 -2.0819001 -0.39084497 2 11
29.49663 -8.5751457 2.5076532 5 28
7.044589 -1.6795572 -0.1685182 5 16
8.7754755 -2.5844276 -0.26623657 3 15
5.6006579 -1.3559766 -1.613139 2 1
6.4753399 -1.9070245 -1.3500715 8 2
6.9761062 -1.6889867 -1.1166762 8 3
6.8323936 -2.0121789 -0.9066059 4 4
6.9846339 -1.6910512 -0.7740975 8 5
46.911598 -11.357778 1.1231444 12 24
36.640869 -12.766872 0.4517206 14 22
6.9105768 -2.0352042 -0.58810246 5 7
7.5400329 -1.4397022 -0.49196145 2 9
40.5816 -11.951512 1.7235464 8 26
9.2504244 -2.2396224 -0.44334856 2 12
29.500935 -8.6881933 2.5105822 5 28
9.7319632 -1.8582317 -0.40365344 0 13
36.024582 -12.552138 -1.3321836 11 14
5.5961304 -1.3745415 -1.613139 2 1
6.8911686 -1.6926335 0 2 20
6.9397597 -1.7045686 -1.1117569 14 3
6.4264097 -1.9157959 -0.8535732 3 4
9.9888697 -1.9416399 0.059142038 1 21
7.0838013 -2.111773 -0.042961668 9 19
6.5077996 -1.598469 -0.72183418 4 5
7.0397916 -2.4791019 -0.6967088 7 6
36.681332 -12.917536 0.45274505 14 22
6.83884 -2.0387468 -0.58256966 6 7
9.9848108 -1.9408509 0.29602528 0 25
9.9058905 -1.9255104 -0.64673871 1 9
45.740616 -11.234973 2.7429993 14 27
40.296623 -12.012945 1.7131255 8 26
7.3066611 -1.7946882 -0.35047245 3 12
7.1967101 -2.1454325 -0.39356643 2 11
30.022125 -8.9499836 2.5574484 5 28
9.937603 -1.9316746 -0.41244623 0 13
35.77161 -12.597173 -1.3243661 11 14
6.8776536 -1.6893139 -0.16479608 2 16
7.1282496 -1.4127243 -0.12684409 2 17
7.2683392 -2.1958251 -0.22097169 8 15
5.5761056 -1.3913131 -1.6088258 2 1
6.5594912 -1.9816763 -1.3704678 15 2
6.8655138 -1.7130376 0 7 20
6.7992454 -1.6965028 -1.0902351 9 3
9.8992891 -1.9619074 0.058653835 1 21
7.2291746 -2.1839933 -0.043891575 2 19
7.252008 -2.58375 -0.71864361 6 6
6.8198724 -2.0603397 -0.58159328 2 7
9.9266434 -1.9673287 0.29451257 0 25
9.8791885 -1.9579237 -0.64545953 1 9
6.9063382 -2.4605944 -0.42697302 1 10
45.338802 -11.312639 2.7213714 13 27
6.9007225 -1.7218227 -0.3313016 2 12
8.6686201 -2.6188617 -0.47458252 3 11
31.275082 -7.8035517 3.9578292 11 29
30.744764 -9.2882471 2.6218891 6 28
35.567043 -12.671848 -1.318503 11 14
7.0576544 -1.7609793 -0.16926262 2 16
8.6451607 -2.6430907 -0.26309481 2 15
6.5716381 -2.0091515 -1.3743901 5 2
38.14072 -13.731504 -0.47192952 9 18
6.9161954 -1.7500666 -1.1099122 9 3
6.7809544 -2.0731459 -0.9025653 8 4
6.8686762 -2.4728756 -0.68146592 4 6
45.702793 -11.564586 1.0969967 11 24
38.095562 -13.715246 0.47137076 15 22
6.8624268 -1.736461 -0.49499193 2 8
6.9731293 -2.1318994 -0.59526253 6 7
40.239002 -12.302298 0.73446709 7 23
44.944885 -11.372806 2.6999764 13 27
25.844534 -6.5396733 -1.2418227 4 12
6.772819 -2.0706584 -0.37116665 10 11
31.279825 -7.9150128 3.961729 11 29
30.896791 -9.4460974 2.6375108 6 28
9.8768616 -1.9915248 -0.41049227 3 13
7.1486936 -1.8088977 -0.17158893 1 16
8.6549788 -2.6791637 -0.26367658 6 15
5.5553136 -1.4263622 -1.6055909 2 1
6.5346098 -2.0227997 -1.3681144 5 2
7.2876201 -1.8711427 0 0 20
35.318771 -12.854981 -0.43756506 7 18
6.8602772 -1.7614198 -1.1019183 13 3
6.6751227 -2.0662959 -0.88943338 3 4
6.9914708 -1.7951045 -0.77752465 6 5
7.0493779 -1.8099725 0.16935566 0 24
37.953491 -13.813941 0.47020665 15 22
7.0302448 -1.8050601 -0.50754809 5 8
7.0456223 -2.1809845 -0.60209715 8 7
9.8503571 -2.0219879 0.29265079 2 25
40.295151 -12.473433 0.73628217 7 23
7.0424128 -1.4455997 -0.46075016 1 9
8.6773033 -2.6860743 -0.4760479 9 11
31.236622 -8.0202017 3.959779 11 29
30.16288 -9.3369713 2.5776267 6 28
9.8346138 -2.0187562 -0.4090268 9 13
6.6001368 -2.4022534 -0.24527366 0 14
7.1888161 -1.8457742 -0.17270556 2 16
9.8807812 -2.0660026 -0.1761995 2 17
6.7642388 -2.1210809 -0.20631008 7 15
5.5612307 -1.4496287 -1.6088258 3 1
7.2381363 -1.8867424 0 0 20
35.354 -13.014747 -0.43858948 7 18
6.58605 -1.7167652 -1.0588747 4 3
7.0120497 -2.1987877 -0.93539506 2 4
9.8586273 -2.0613706 0.058537599 2 21
6.7326379 -2.1111717 -0.041008867 1 19
7.0579643 -1.8397776 -0.78566402 12 5
7.1722293 -2.6402881 -0.71343875 1 6
35.354 -13.014747 0.43858948 13 22
7.14328 -1.8620166 -0.51619792 2 8
6.2044835 -1.945557 -0.53082186 4 7
69.73671 -21.867533 1.275701 36 23
6.7479262 -1.4109446 -0.44181874 1 9
8.6902704 -2.7250319 -0.47730398 2 11
30.368113 -9.5226126 2.5981305 6 28
6.5650277 -2.4167612 -0.24429649 1 14
7.7276182 -2.0143342 -0.18582597 0 16
9.8695946 -2.0996475 -0.17612968 1 17
5.5747561 -1.4739552 -1.6142174 2 1
6.4526744 -2.0481482 -1.3539939 11 2
34.472408 -12.827021 -0.42820561 7 18
6.6679034 -1.7629812 -1.0730176 7 3
5.6390162 -1.7898844 -0.75306374 1 4
9.8591957 -2.0974352 0.058584098 1 21
6.7099781 -2.1298192 -0.040915877 0 19
6.6593213 -1.7607121 -0.74196845 2 5
7.1032462 -2.6430845 -0.70749032 1 6
34.517391 -12.843759 0.4287644 12 22
7.0325785 -1.8594005 -0.50866419 2 8
6.6840434 -2.1215873 -0.57248044 4 7
9.8982077 -2.1057346 0.29451257 0 25
43.655369 -11.542397 2.6297443 13 27
69.441391 -22.041447 2.9682121 13 26
9.3869123 -2.4818819 -0.45228252 4 12
6.7237387 -2.134187 -0.36970121 1 11
7.3297539 -1.5593244 -0.30530465 0 13
9.8824968 -2.134866 -0.17647873 1 17
8.6611967 -2.7791386 -0.26472387 2 15
5.5514941 -1.4864796 -1.6088258 4 1
6.4275346 -2.0624182 -1.3500715 3 2
7.3259244 -1.961605 0 2 20
6.7005119 -1.7941431 -1.0791668 7 3
7.3818846 -1.976589 0.17782345 0 24
7.0911202 -2.2753444 -0.6079554 8 7
9.8954525 -2.1376646 0.29462892 0 25
7.2651634 -1.5694566 -0.47635579 1 9
6.9895153 -1.8715272 0.42139164 0 27
69.455544 -22.286362 2.9717946 100 26
7.020793 -1.8799022 -0.33856046 9 12
9.914876 -2.1418605 -0.41326034 0 13
7.3355303 -1.964177 -0.17670682 4 16
8.6694736 -2.8185554 -0.2653057 1 15
5.5345945 -1.5047534 -1.6055909 7 1
6.4456792 -2.0955715 -1.3555628 12 2
34.056744 -12.943745 -0.42415452 14 18
6.849947 -1.8623732 -1.104378 6 3
5.6565719 -1.8390229 -0.75710428 3 4
49.471577 -10.886083 0.29440832 23 21
39.75124 -12.92363 -0.24293801 8 19
6.1402931 -1.6694314 -0.68542117 4 5
6.5112991 -2.4747109 -0.65023673 7 6
34.086655 -12.955112 0.42452705 24 22
6.9886222 -1.9000764 -0.506432 12 8
6.7297316 -2.1879206 -0.5776878 5 7
49.045364 -10.792295 1.4615084 13 25
69.598991 -22.62751 1.2774464 31 23
7.0212727 -1.5450115 -0.46075016 2 9
30.426083 -8.2722864 1.8362629 6 27
6.9017072 -1.8764458 -0.33316284 13 12
8.68785 -2.8245296 -0.47876939 2 11
43.157475 -11.733715 5.4914331 24 29
8.5482292 -1.881014 -0.35659581 0 13
38.051876 -12.371145 7.29529 18 30
7.3009224 -1.984985 -0.17605545 1 16
7.4830413 -2.4588513 -0.22923341 1 15
5.5335536 -1.5231556 -1.6066693 3 1
6.4018006 -2.1035666 -1.3477181 13 2
34.019646 -13.052106 -0.4242011 22 18
6.9202771 -1.9048624 -1.1166762 15 3
7.1096363 -2.3361542 -0.95256752 11 4
37.954823 -12.471569 -0.2321976 8 19
7.1741366 -1.9747393 -0.80151439 14 5
6.8716145 -2.6363895 -0.68704259 6 6
34.03458 -13.057835 0.42438734 24 22
7.131875 -2.3434618 -0.61283726 2 7
38.229538 -8.5383072 1.1399999 7 25
7.4137588 -1.6558126 -0.48684484 0 9
42.562233 -11.7156 2.5709076 12 27
69.507088 -22.839325 2.9807503 100 26
9.1494255 -2.5184536 -0.44204566 5 12
42.844799 -11.793379 5.4563351 23 29
37.788513 -12.416922 7.2522421 18 30
6.9810066 -1.5860456 -0.12495923 0 17
5.5019636 -1.5361758 -1.5991211 8 1
6.416379 -2.134445 -1.352425 9 2
7.0811715 -1.9770986 0 2 20
34.042431 -13.204187 -0.42508584 14 18
6.8028502 -1.8993899 -1.0988438 14 3
37.94302 -12.621962 -0.23240682 8 19
6.5271592 -1.8224156 -0.72997355 2 5
6.887898 -2.6716394 -0.68964505 2 6
34.053616 -13.208526 0.4252255 24 22
7.0716085 -1.9744287 -0.51340765 8 8
7.2669897 -2.4174056 -0.62520468 2 7
38.155094 -8.6686239 1.1387198 7 25
7.2263184 -2.8029039 -0.4513914 0 10
42.165165 -11.772725 2.5495124 12 27
7.2928653 -2.0362046 -0.35270593 5 12
8.7063255 -2.8962088 -0.48086283 4 11
42.774521 -11.942861 5.4529223 47 29
37.333641 -12.419248 3.2119441 10 28
6.9684882 -1.5832015 -0.2911385 2 13
37.496311 -12.473361 7.2048888 18 30
7.4391565 -1.7174644 -0.13326657 1 17
6.5557818 -2.2062643 -0.20130651 2 15
5.4483848 -1.5417373 -1.5851032 13 1
6.401454 -2.1543272 -1.3508561 11 2
34.06316 -13.349206 -0.42592397 22 18
7.260159 -2.0544178 -1.1738628 15 3
7.7659078 -2.6135166 -1.0429755 5 4
48.2383 -11.136688 0.28773624 22 21
6.4365687 -1.8213652 -0.72054899 4 5
6.8192005 -2.6724153 -0.68369663 1 6
30.370928 -8.5941057 0.73446393 5 24
34.055714 -13.346288 0.42583084 24 22
8.9537058 -2.533643 -0.65068835 3 8
6.4121213 -2.1579173 -0.55230206 1 7
38.3116 -8.8449297 1.1443052 7 25
41.877899 -11.85025 2.5346289 12 27
9.0004501 -2.5468705 -0.43571743 2 12
42.808975 -12.113717 5.4626718 23 29
37.048233 -12.468108 3.1911149 10 28
6.3008957 -1.4546764 -0.26345754 1 13
37.18774 -12.515057 7.1539478 17 30
7.1184864 -2.0143285 -0.17214724 5 16
7.0026565 -2.3825347 -0.21526997 1 15
5.4247279 -1.5544908 -1.5797117 11 1
6.4091277 -2.1805968 -1.3539939 11 2
34.070774 -13.482695 -0.42657587 7 18
7.0595307 -2.022954 -1.1425024 21 3
7.5919132 -2.5830195 -1.0207524 1 4
38.719604 -13.173687 -0.23770729 8 19
6.9619088 -1.9949799 -0.78009498 5 5
6.9547281 -2.7521675 -0.69819593 1 6
31.191832 -8.938221 0.75502849 6 24
34.078213 -13.485639 0.426669 12 22
7.414742 -2.1247423 -0.53935707 1 8
21.970007 -7.4749212 -1.8944905 3 7
38.282063 -8.9719267 1.1443052 7 25
6.3311114 -1.483783 -0.41674736 2 9
30.08033 -8.6197128 1.8223096 6 27
8.9228172 -2.5568907 -0.43236724 2 12
6.8976974 -2.3468244 -0.38184318 2 11
42.902149 -12.293887 5.4797335 23 29
36.784004 -12.515132 3.1719129 10 28
28.378866 -6.6509771 -1.1875129 7 13
36.903881 -12.555918 7.1073117 17 30
36.322792 -12.50694 -1.1180074 8 15
5.3894024 -1.5657661 -1.5710852 3 1
6.389966 -2.2002418 -1.3516405 12 2
34.878994 -13.950603 -0.43733221 7 18
6.501719 -1.888924 -1.0533404 9 3
7.6049051 -2.6185787 -1.0237828 2 4
20.153376 -8.0607758 -2.0261807 2 6
30.713404 -8.923068 0.74423438 6 24
34.860424 -13.943175 0.4370994 13 22
46.86018 -11.163669 1.401931 11 25
29.845297 -8.6708603 1.8099842 5 27
7.17138 -2.0834785 -0.34786668 4 12
6.9041567 -2.3772917 -0.38268054 0 11
31.552607 -9.1668797 4.0343628 12 29
36.51548 -12.573289 3.1527107 10 28
36.619488 -12.6091 7.0613933 17 30
24.315739 -7.0643749 -0.58920884 3 16
7.0203776 -1.6984079 -0.12607619 5 17
36.090122 -12.567909 -1.1121893 8 15
5.3358669 -1.5704309 -1.5570674 2 1
6.3785434 -2.2212436 -1.3508561 11 2
6.4772887 -1.9063696 0 1 20
34.778168 -14.051291 -0.43668032 7 18
6.8325424 -2.0109262 -1.1080674 9 3
6.8386025 -1.6544318 0.040892627 1 21
6.8864117 -2.0267811 -0.77324075 11 5
34.982136 -14.133698 0.43924138 13 22
6.90172 -2.0312865 -0.50308371 8 8
6.8673258 -2.3914557 -0.59363526 4 7
46.350697 -11.213411 1.3878512 11 25
36.662666 -12.76729 0.67764205 5 23
6.8712749 -1.6623361 -0.45307523 2 9
30.745722 -9.0489569 1.8664951 6 27
36.622757 -12.753392 1.579931 7 26
36.21912 -12.612831 3.1309054 10 28
7.3030887 -1.7668029 -0.30611879 2 13
41.097729 -12.095717 11.479142 20 31
36.333694 -12.65273 7.0147576 17 30
6.8593416 -1.6835467 -0.1232838 2 17
35.806866 -12.602565 -1.1047422 8 15
5.2900219 -1.5760188 -1.5452061 3 1
6.3637424 -2.2397792 -1.349287 9 2
6.4479299 -1.9209862 0 2 20
34.823967 -14.204308 -0.43784446 7 18
6.8220482 -2.0324445 -1.1074525 14 3
6.3841648 -1.9019891 -0.71755028 3 5
19.673954 -8.024786 -1.9834265 2 6
38.76078 -15.81009 0.48734233 15 22
6.933187 -2.0655553 -0.50587392 4 8
22.924694 -8.0685625 -1.9839914 3 7
45.855053 -11.254597 1.3741205 11 25
7.1370974 -1.7517186 -0.47098336 6 9
6.8403406 -2.7900984 -0.4302288 0 10
40.413177 -12.040012 2.4557924 12 27
36.629276 -12.89202 1.5820479 7 26
7.2259603 -2.1527793 -0.35121691 10 12
30.918745 -9.2114029 3.9612415 11 29
35.955219 -12.654779 3.1117032 20 28
7.0371299 -1.7271827 -0.29520923 1 13
40.890759 -12.182295 11.432555 20 31
36.039124 -12.684311 6.9659691 17 30
35.545738 -12.657268 -1.0981095 8 15
5.2288971 -1.5786971 -1.5290315 2 1
6.3591857 -2.2644041 -1.3500715 9 2
34.875214 -14.374525 -0.43914825 8 18
5.9442883 -1.7946862 -0.96602333 5 3
5.5360808 -1.9713097 -0.74801296 6 4
37.734421 -13.436623 -0.23280205 8 19
6.8987446 -2.0828536 -0.77623945 6 5
19.611269 -8.0831814 -1.9800806 2 6
38.54356 -15.886508 0.48534006 15 22
6.8338914 -2.0632732 -0.49917731 8 8
45.607876 -11.37132 1.3679533 11 25
6.8517556 -1.7083344 -0.45256358 1 9
40.085888 -12.102642 2.4385831 12 27
8.6524458 -2.6123271 -0.42101362 11 12
6.845017 -2.4374008 -0.38079646 0 11
31.128021 -9.3981028 3.99244 12 29
35.679493 -12.704896 3.09185 19 28
25.978493 -6.4771657 -1.0907924 12 13
40.601711 -12.258379 11.364226 19 31
35.766262 -12.735793 6.9222035 17 30
35.268097 -12.697296 -1.0908949 8 15
5.1865191 -1.5856779 -1.5182486 2 1
6.3290997 -2.278616 -1.3453647 11 2
34.012451 -14.158016 -0.42890409 7 18
6.7733116 -2.0708091 -1.1019183 8 3
37.694817 -13.570968 -0.23284854 8 19
6.3361626 -1.9371592 -0.71369481 4 5
19.722654 -8.2097483 -1.9942081 2 6
38.373402 -15.973305 0.48389655 15 22
6.2657099 -1.9156196 -0.45816052 2 8
6.9994502 -2.5199568 -0.60730445 3 7
7.0894608 -1.7939093 0.21282636 0 25
37.618214 -13.54339 0.69788682 6 23
6.8302712 -1.7283244 -0.45154026 1 9
7.0914168 -2.1680634 0.43185669 0 27
6.686883 -2.0443852 -0.32571787 12 12
6.8928423 -2.4815757 -0.38393661 1 11
35.409866 -12.748336 3.0723228 19 28
40.215054 -12.294974 11.267946 19 31
35.492031 -12.777917 6.8777194 16 30
24.019701 -7.3435588 -0.58446312 9 16
7.1941843 -1.8444762 -0.12963648 1 17
35.006332 -12.727427 -1.0840297 8 15
5.1741514 -1.5996885 -1.5160918 3 1
5.639955 -2.0505464 -1.2002379 3 2
40.210098 -12.431726 0 13 20
38.112827 -16.005507 -0.48124239 9 18
6.7101312 -2.0745664 -1.0926948 15 3
7.3152719 -1.8755212 0.043891575 0 21
35.385204 -12.865175 -0.21883018 7 19
6.7441959 -2.085098 -0.76038909 8 5
19.946463 -8.3765297 -2.0194888 2 6
30.506632 -9.4317131 0.74302477 6 24
38.120205 -16.008604 0.48133555 15 22
8.6003618 -2.6589675 -0.62948239 9 8
35.433033 -12.882565 0.6580953 5 23
39.359997 -12.1689 2.3992813 11 27
8.6654682 -2.6790965 -0.42250264 15 12
35.118607 -12.768247 3.0505168 19 28
19.582375 -8.22363 -0.74168408 3 14
39.895687 -12.33452 11.189265 18 31
35.218719 -12.804646 6.8325191 16 30
24.034716 -7.4307957 -0.58539367 9 16
7.1606083 -1.8625301 -0.12914781 0 17
6.8264623 -2.508944 -0.21166274 0 15
5.1685362 -1.6177397 -1.5160918 2 1
5.1063023 -1.87673 -1.0880588 2 2
37.83947 -16.046316 -0.47849509 9 18
6.6538129 -2.082628 -1.0847008 5 3
5.5456371 -2.0381997 -0.75205356 5 4
35.343834 -12.989993 -0.21885344 7 19
19.928104 -8.4507694 -2.0206044 2 6
30.492603 -9.5441141 0.74348998 6 24
37.817379 -16.036947 0.47821572 15 22
6.911665 -2.1633351 -0.506432 4 8
7.034842 -1.8298174 0.21154636 3 25
35.350311 -12.992373 0.65739727 5 23
6.9809155 -1.8157907 -0.46228513 1 9
19.359585 -8.2096815 -1.2246405 3 10
39.046703 -12.221527 2.3827698 11 27
35.360153 -12.995992 1.5348275 7 26
6.2384672 -1.9526258 -0.30449966 3 12
34.864269 -12.813738 3.0322914 18 28
19.560909 -8.2950554 -0.74196327 3 14
39.56847 -12.384839 11.10955 18 31
34.952194 -12.846054 6.7894702 16 30
6.7244015 -2.104722 -0.16395861 2 16
34.543331 -12.839687 -1.0725098 8 15
5.0964789 -1.6157196 -1.4966824 8 1
5.4155736 -2.0129578 -1.1555232 4 2
37.629665 -16.120321 -0.47658598 9 18
6.4464493 -2.0436959 -1.0521107 7 3
7.1508346 -1.8879969 0.042984918 1 21
5.5842075 -1.7703424 -0.63101584 1 5
19.886011 -8.5190468 -2.0194888 2 6
39.285877 -12.454669 0.95899975 10 24
37.611279 -16.112446 0.47635314 15 22
8.683815 -2.7530003 -0.63701606 2 8
7.3760138 -1.9474498 0.22201896 2 25
6.9394774 -1.8321935 -0.45998266 6 9
19.333033 -8.282155 -1.2248729 3 10
38.754223 -12.28612 2.3676536 11 27
34.529312 -12.834476 1.5007961 6 26
6.8787723 -2.1807539 -0.33614084 7 12
34.592854 -12.858095 3.0127637 18 28
19.51935 -8.3619719 -0.74154454 3 14
39.23185 -12.43754 11.027762 17 31
34.738892 -12.912376 6.7571836 16 30
7.7115588 -2.4447694 -0.18824533 2 16
5.0981441 -1.6358535 -1.4988391 10 1
6.2236462 -2.3380749 -1.3296753 8 2
34.548222 -14.943192 -0.43821695 7 18
6.7102451 -2.1531322 -1.0963842 2 3
7.046432 -2.647176 -0.95812333 0 4
7.3180728 -1.9595026 0.044031061 0 21
34.209026 -12.851514 -0.2123906 13 19
6.5512085 -2.1021018 -0.74111164 2 5
19.867123 -8.593154 -2.0206044 2 6
34.625317 -14.976537 0.4391948 13 22
6.6414437 -2.1310558 -0.48773724 8 8
30.70874 -8.2226372 0.92519534 5 25
34.208138 -12.851179 0.63785052 10 23
6.8752007 -1.8409182 -0.45614523 9 9
5.9594293 -2.5776405 -0.37813622 0 10
38.403114 -12.322498 2.3488166 11 27
8.6783056 -2.7846284 -0.42455 8 12
34.327572 -12.896048 2.993562 18 28
9.2386112 -2.4737499 -0.38965014 4 13
38.915951 -12.487053 10.951152 16 31
34.491001 -12.957445 6.7177229 16 30
24.053244 -7.7180209 -0.58781302 6 16
7.2912455 -1.9782544 -0.13187039 1 17
5.1476483 -1.6705858 -1.5150136 2 1
6.3112054 -2.394881 -1.3500715 6 2
34.164898 -14.912077 -0.4339796 7 18
6.7669792 -2.1961133 -1.1068376 5 3
34.054035 -12.922312 -0.21169317 20 19
6.4269357 -2.0857577 -0.7278316 2 5
34.546135 -15.078477 0.4388223 13 22
7.328898 -2.378475 -0.53879899 4 8
22.677496 -8.6053133 -1.9800858 3 7
34.094292 -12.937587 0.63652414 16 23
6.7881551 -1.8417565 -0.45077279 1 9
5.9837871 -2.6117654 -0.38022923 0 10
34.082432 -12.933087 1.4851645 13 26
6.7459526 -2.1892896 -0.33037099 8 12
34.105701 -12.941917 2.9779401 18 28
6.8967314 -1.8712152 -0.2911385 2 13
38.731003 -12.569519 10.910776 16 31
34.179272 -12.969834 6.6653471 16 30
7.5159688 -2.4391859 -0.18387187 1 16
20.706903 -7.94449 -0.64546078 2 15
5.1451497 -1.6906443 -1.5160918 4 1
5.2733493 -2.0231934 -1.1296357 3 2
34.545532 -15.229195 -0.43952075 16 18
6.9090815 -2.2702544 -1.131434 5 3
5.3680825 -2.0595391 -0.73185068 1 4
34.069923 -13.071398 -0.21208836 20 19
69.599113 -22.869566 1.704723 35 24
34.611416 -15.258238 0.44035894 13 22
20.516708 -7.8715191 -1.793924 3 7
7.1586142 -1.970467 0.2160845 3 25
34.061577 -13.068195 0.63680345 16 23
19.416979 -8.5598612 -1.2358031 3 10
37.792629 -12.418276 2.3167241 22 27
34.057186 -13.06651 1.4861416 20 26
8.6966143 -2.8576195 -0.42641124 7 12
39.290642 -12.910508 5.0780525 19 29
34.069202 -13.07112 2.9789164 18 28
9.0978069 -2.5042458 -0.38443959 7 13
38.233189 -12.563039 10.783437 15 31
34.109455 -13.086564 6.6610422 16 30
24.120348 -7.9257026 -0.59079075 6 16
6.9601192 -2.6982546 -0.21724811 0 15
5.1282525 -1.7049482 -1.5128571 5 1
5.5112824 -2.1365788 -1.1821952 4 2
37.926884 -12.609241 0 12 20
34.554287 -15.377332 -0.44031236 8 18
6.1134882 -2.0325015 -1.002303 2 3
5.383059 -2.08687 -0.7348811 1 4
34.091221 -13.216268 -0.21250683 13 19
6.7099838 -2.2308135 -0.76167428 2 5
19.783323 -8.8039656 -2.0213478 2 6
37.890057 -12.596998 0.92912984 9 24
34.528709 -15.36595 0.43998641 13 22
8.6823959 -2.8865652 -0.63980639 8 8
34.086605 -13.214478 0.63812983 16 23
7.1362271 -1.9911274 -0.47482082 2 9
37.476219 -12.459412 2.2999799 22 27
34.074718 -13.209869 1.4889096 13 26
8.6827955 -2.8866982 -0.42622513 10 12
34.071693 -13.208696 2.9831471 18 28
7.1333914 -1.9903362 -0.30172238 8 13
34.144291 -13.23684 6.6768265 16 30
7.3389454 -2.4399192 -0.17996366 2 16
6.9734721 -2.7300661 -0.21794629 0 15
5.3836374 -2.107657 -1.1563077 4 2
37.930355 -12.750237 0 12 20
35.068668 -15.745771 -0.44752982 8 18
6.0430241 -2.0313542 -0.99184948 1 3
7.1825829 -2.0297582 0.043380126 1 21
34.1068 -13.352577 -0.21287879 13 19
6.2351036 -2.0959215 -0.70855409 2 5
19.801252 -8.890728 -2.0261807 2 6
36.480759 -16.379797 0.46555021 15 22
6.6908584 -2.2491229 -0.49359679 4 8
30.130735 -8.5147791 0.91123188 4 25
34.113354 -13.355143 0.63945621 16 23
7.5943909 -2.1461329 -0.50577629 1 9
37.169735 -12.494555 2.2837009 10 27
34.105156 -13.351933 1.4921663 20 26
6.4916248 -2.1821508 -0.31901738 2 12
34.113087 -13.355037 2.9906328 18 28
8.9536314 -2.5302467 -0.37906623 2 13
37.630402 -12.649408 10.637464 14 31
34.184483 -13.382989 6.6933284 16 30
6.5196476 -2.1915708 -0.16005041 2 16
20.409761 -8.0684376 -0.63871181 2 15
5.1022429 -1.7339646 -1.5085437 9 1
5.5590005 -2.1975977 -1.1955311 6 2
35.876091 -16.251472 -0.45851898 8 18
5.3285089 -2.1064794 -0.72932529 3 4
7.4027004 -2.1184962 0.044751737 1 21
34.121853 -13.489135 -0.21325076 6 19
5.6030478 -1.9041599 -0.63744169 1 5
19.749893 -8.9464827 -2.0239501 2 6
36.269577 -16.429718 0.46354797 14 22
6.4302344 -2.1852739 -0.47490206 1 8
20.046684 -7.9249048 -1.7597508 3 7
30.063894 -8.6036501 0.91006827 4 25
34.098633 -13.479956 0.64001465 5 23
7.5987449 -2.1746001 -0.50654376 6 9
19.354797 -8.7675095 -1.2374309 111 10
36.882343 -12.534227 2.2685847 21 27
34.105297 -13.48259 1.4941202 6 26
6.4767866 -2.2010944 -0.31864515 0 12
34.135349 -13.494471 2.9964912 18 28
8.8606567 -2.5357325 -0.37548399 7 13
37.343147 -12.690828 10.568099 14 31
34.2314 -13.532441 6.7112651 16 30
6.4896269 -2.2054582 -0.15949209 2 16
30.827696 -8.9446058 -0.56029207 7 17
5.0667133 -1.7426312 -1.4999173 8 1
5.5873318 -2.2325113 -1.2033758 7 2
35.7981 -16.374537 -0.45828617 8 18
6.7350955 -2.3164499 -1.1080674 1 3
5.3281217 -2.1289396 -0.73033547 3 4
30.820351 -8.9424744 0.18651596 7 21
34.919064 -13.952493 -0.2185512 7 19
5.569706 -1.9156291 -0.63444299 1 5
19.742323 -9.030406 -2.0265527 2 6
6.3995423 -2.2010405 -0.47322792 0 8
19.887928 -7.9465528 -1.7483599 3 7
6.4664564 -1.8762319 0.19595385 0 25
39.296734 -15.701662 0.73865563 7 23
6.6514678 -1.9299127 -0.44386539 6 9
19.402424 -8.8749313 -1.2425473 114 10
36.579376 -12.581008 2.2527709 31 27
35.202465 -14.065731 1.5444344 7 26
6.9031954 -2.3742657 -0.34004948 1 12
34.148598 -13.644639 3.0020237 27 28
8.801405 -2.5537136 -0.37336722 6 13
37.029663 -12.735879 10.492524 13 31
34.243694 -13.682637 6.7234621 16 30
6.5268488 -1.9184805 -0.11874618 0 17
5.0460472 -1.7552446 -1.4956042 5 1
5.2121458 -2.1037273 -1.1241444 2 2
36.616035 -12.736721 0 11 20
5.5809207 -1.9412979 -0.91929018 2 3
5.3390565 -2.1549511 -0.7328608 3 4
38.89463 -15.698659 -0.24377492 9 19
5.5517168 -1.9311396 -0.63315779 3 5
19.71068 -9.0992651 -2.0265527 2 6
34.259094 -15.815413 0.43928793 13 22
19.797222 -7.9905586 -1.7428271 3 7
6.4521956 -1.8965373 0.1957211 0 25
38.952412 -15.72198 0.7332105 7 23
6.9434147 -2.0409245 -0.46382013 4 9
19.440212 -8.9744053 -1.2469659 114 10
36.305172 -12.62859 2.238585 20 27
35.212456 -14.212459 1.5470396 7 26
34.178402 -13.795094 3.0088587 27 28
8.7234173 -2.5641327 -0.37043628 1 13
36.733189 -12.777472 10.421091 13 31
34.246815 -13.822707 6.7335072 16 30
36.220879 -12.599268 -0.89237404 7 16
5.0147619 -1.7630255 -1.4880561 6 1
36.588688 -12.863381 0 11 20
34.148445 -15.901919 -0.4385429 15 18
5.5110636 -1.9375089 -0.90883666 1 3
5.3355551 -2.1741416 -0.73336583 5 4
7.0465674 -2.0966563 0.042729191 1 21
38.671963 -15.75812 -0.24270554 8 19
5.5415306 -1.9482203 -0.63272941 5 5
5.4553437 -2.5403919 -0.56175399 0 6
36.612743 -12.871838 0.90307516 9 24
6.9302492 -2.4364481 -0.51368666 0 8
19.68939 -8.0230675 -1.735667 3 7
40.307774 -11.993293 1.223897 8 25
38.725983 -15.780132 0.72992945 7 23
8.6468477 -2.5728083 -0.5781762 7 9
19.432064 -9.0489368 -1.2483611 111 10
36.003159 -12.657528 2.2225385 20 27
35.290974 -14.380428 1.5525759 7 26
6.6946297 -2.3536119 -0.33055711 0 12
36.634323 -12.879425 4.7680163 17 29
34.191536 -13.932427 3.0140657 27 28
8.649744 -2.5736701 -0.36766821 6 13
19.974974 -9.301754 -0.76946408 3 14
36.453686 -12.81592 10.353798 13 31
36.03931 -12.670238 -0.88893116 7 16
7.122498 -2.1463401 -0.1298459 6 17
4.9722834 -1.7676173 -1.4772731 9 1
5.1324167 -2.1122861 -1.110024 4 2
34.04929 -16.000608 -0.43798414 15 18
6.5023346 -2.3115413 -1.0736325 2 3
5.3462806 -2.2003033 -0.73589122 1 4
35.143436 -14.463555 -0.22087598 7 19
5.5346966 -1.9675518 -0.63272941 6 5
19.662706 -9.239995 -2.0280397 2 6
34.06377 -16.007414 0.4381704 26 22
21.31027 -7.575675 -1.5815188 3 8
19.561726 -8.0507803 -1.7268797 2 7
38.437668 -15.819321 0.72553146 7 23
6.8147011 -2.0535867 -0.45614523 6 9
19.450958 -9.1404886 -1.251617 76 10
35.72924 -12.701533 2.2083528 20 27
38.626019 -15.896839 1.7017273 8 26
36.589146 -13.007224 4.7680163 17 29
34.220116 -14.083555 3.0209005 27 28
8.6636686 -2.6107666 -0.36864519 3 13
36.161175 -12.855083 10.283399 12 31
34.272022 -14.104918 6.7571836 33 30
35.844151 -12.742384 -0.88520902 7 16
4.9225836 -1.7693285 -1.4643334 9 1
4.7990394 -1.9946998 -1.0394217 2 2
38.222012 -13.738171 0 12 20
28.825216 -13.668728 -0.37139714 11 18
5.3458958 -2.2219982 -0.7369014 1 4
38.313538 -15.924855 -0.24114794 8 19
5.5277944 -1.9868598 -0.63272941 6 5
19.637529 -9.3119869 -2.0287833 2 6
33.982391 -16.114225 0.43784446 13 22
19.481962 -8.0975933 -1.7223233 2 7
38.315735 -15.925769 0.72427493 6 23
8.6401291 -2.6366067 -0.57894367 6 9
35.447941 -12.741083 2.1937017 19 27
38.348858 -15.939536 1.6919576 8 26
6.9036446 -2.4813828 -0.34172457 2 12
6.8275676 -2.8378487 -0.38749546 0 11
34.251736 -14.236585 3.0280607 18 28
6.7469945 -2.0589011 -0.28739342 6 13
19.69644 -9.339922 -0.76122779 3 14
36.050632 -12.957709 10.264764 12 31
34.298885 -14.256182 6.7722507 33 30
35.618813 -12.802501 -0.88074249 7 16
4.9558868 -1.8018365 -1.4761947 11 1
4.7591491 -1.9986075 -1.0323615 4 2
28.637833 -13.708662 -0.36962768 16 18
5.5904174 -2.032536 -0.9254393 1 3
5.3743005 -2.2569406 -0.74195212 1 4
40.25528 -12.445694 0.24489081 15 21
38.070518 -15.987737 -0.23998557 8 19
5.5279503 -2.0098245 -0.63358623 5 5
19.596083 -9.3804607 -2.0280397 2 6
6.8439155 -2.4882765 -0.50922227 1 8
19.397018 -8.1457891 -1.7174414 2 7
30.704428 -9.4928646 0.93531883 5 25
37.892052 -15.912789 0.71736372 6 23
6.708302 -2.0740006 -0.45000529 4 9
35.179581 -12.790416 2.179981 19 27
38.094875 -15.997966 1.6833276 8 26
6.8465843 -2.8752272 -0.3891702 0 11
34.26181 -14.388268 3.0335932 28 28
8.6524 -2.675056 -0.36897081 7 13
28.539396 -13.661541 -1.1049181 7 14
34.308083 -14.4077 6.7844477 33 30
35.35743 -12.855078 -0.87543845 7 16
4.9643474 -1.8235735 -1.4805079 7 1
4.7163825 -1.9990717 -1.0245168 5 2
35.312908 -12.971631 0 10 20
28.437332 -13.728779 -0.36762545 16 18
5.6170373 -2.0633287 -0.93097341 7 3
5.3996668 -2.2886865 -0.74649775 3 4
37.785278 -16.015554 -0.23852095 8 19
19.575626 -9.4505863 -2.029155 2 6
50.81731 -18.666925 1.2597456 26 24
28.469749 -13.74443 0.3680445 17 22
19.303827 -8.1820621 -1.7115833 2 7
30.825417 -9.6423759 0.93997329 5 25
37.824348 -16.032114 0.71708447 6 23
8.6748495 -2.7135453 -0.58252531 2 9
28.103466 -13.567597 -1.817426 6 10
34.900833 -12.820261 2.1653299 19 27
37.846592 -16.041542 1.6746978 8 26
34.294666 -14.536035 3.0407534 28 28
6.4654469 -2.0224309 -0.27599537 2 13
28.357136 -13.690062 -1.0996133 7 14
34.343449 -14.556711 6.8009496 33 30
6.8617249 -2.5205448 -0.17010008 2 16
4.8387871 -1.7966455 -1.444924 5 1
4.6949511 -2.0093493 -1.0213789 4 2
34.536186 -12.823314 0 10 20
5.4615889 -2.0278924 -0.90637708 7 3
13.552071 -5.8000274 -1.8763459 5 4
34.544594 -14.784427 -0.21838848 7 19
19.560421 -9.5275812 -2.031014 2 6
51.055492 -18.956945 1.2672828 27 24
28.346085 -13.806943 0.36706665 25 22
30.593357 -9.6871576 0.93392247 5 25
34.683311 -14.843796 0.6585142 5 23
28.152864 -13.712828 -1.823705 6 10
34.638741 -12.861392 2.1518416 19 27
37.536831 -16.065048 1.6634625 8 26
34.309685 -14.683891 3.0466115 28 28
28.172606 -13.722444 -1.0943086 14 14
34.372017 -14.710567 6.8167343 33 30
34.433121 -12.785046 -0.85468781 14 16
4.8324862 -1.8135251 -1.444924 8 1
4.7707214 -2.0615103 -1.0394217 1 2
28.351562 -13.932264 -0.36776513 10 18
5.5691915 -2.0899942 -0.9254393 6 3
6.3050995 -2.7245417 -0.87428123 0 4
34.525826 -14.919201 -0.21859773 7 19
34.384541 -12.903756 0.85459471 16 24
28.337206 -13.925209 0.36757886 17 22
7.2214026 -2.7100325 -0.53935707 6 8
34.609257 -14.955254 0.6580953 5 23
6.739809 -2.1600237 -0.45358691 5 9
27.961472 -13.74057 -1.8144027 6 10
34.388016 -12.90506 2.1390512 18 27
34.600513 -14.951475 1.5356417 7 26
34.498035 -12.946348 4.5242777 15 29
34.331417 -14.835195 3.0531209 19 28
8.6662626 -2.7774277 -0.37076196 8 13
27.977436 -13.748415 -1.0885851 14 14
35.439354 -13.299604 10.142602 12 31
34.385475 -14.858553 6.8296485 33 30
34.227295 -12.844746 -0.85068649 13 16
4.8477364 -1.8385783 -1.4513938 13 1
34.112961 -12.937863 0 20 20
28.213169 -13.986732 -0.36660099 5 18
5.5433841 -2.1024134 -0.92236471 2 3
6.2519078 -2.727494 -0.86822033 0 4
34.52486 -15.062018 -0.2189232 7 19
6.9016018 -2.6175382 -0.79508853 2 5
5.2489176 -2.6021607 -0.54688293 0 6
28.309927 -14.034699 0.36785826 8 22
34.659485 -15.12075 0.66005003 5 23
8.6687393 -2.8116271 -0.58406025 8 9
27.78454 -13.774238 -1.8060306 6 10
34.129936 -12.944301 2.1257954 18 27
34.566429 -15.080153 1.5364559 7 26
34.367123 -14.993202 3.0609317 19 28
8.6717215 -2.8125944 -0.37141326 7 13
27.775269 -13.769641 -1.0825825 14 14
34.478725 -13.076585 9.8806763 11 31
34.416359 -15.014683 6.8461509 33 30
34.077557 -12.924436 -0.84808105 6 16
7.4973273 -2.4606462 -0.13773438 0 17
4.8880477 -1.8734095 -1.4654118 6 1
5.0900455 -2.2417946 -1.1123774 2 2
34.007832 -13.033956 0 30 20
28.038971 -14.022512 -0.36497125 5 18
6.4697523 -2.479619 -1.0779369 2 3
6.2096663 -2.734906 -0.86367464 0 4
6.9369864 -2.6586926 -0.80022919 0 5
34.021034 -13.039015 0.84780186 24 24
28.081898 -14.043981 0.36553004 8 22
6.8669696 -2.6318576 -0.51424474 0 8
30.32309 -9.9521322 0.92880255 5 25
34.566231 -15.223909 0.65928209 5 23
7.7106824 -2.5306702 -0.52010274 9 9
34.032341 -13.043349 2.1225395 18 27
34.542839 -15.213607 1.5377584 7 26
34.065746 -13.056152 4.4794297 30 29
34.372955 -15.138785 3.066139 19 28
8.6922293 -2.8528171 -0.37271589 5 13
27.584019 -13.794987 -1.0769985 14 14
34.428562 -15.163276 6.8590651 33 30
7.3862114 -2.4527707 -0.13584954 1 17
19.549809 -8.6918726 -0.62265378 2 15
4.7988634 -1.8584661 -1.4406108 16 1
4.7166162 -2.0970142 -1.0323615 1 2
34.018078 -13.174255 0 30 20
27.811302 -14.030226 -0.36264306 5 18
5.4954 -2.1282156 -0.91683048 1 3
5.5111842 -2.4502804 -0.76771086 0 4
36.885971 -16.399555 -0.23461534 8 19
5.2128444 -2.6297719 -0.54502404 15 6
34.042435 -13.183688 0.84947687 24 24
37.975937 -12.610832 1.1645522 7 25
36.851746 -16.384338 0.7039603 6 23
8.6754189 -2.8808835 -0.58585113 4 9
5.201695 -2.6241474 -0.33929935 5 10
34.053631 -13.188024 2.1267254 18 27
34.489525 -15.334092 1.5377584 7 26
34.008862 -13.170686 4.4779677 30 29
34.410976 -15.299169 3.0742753 19 28
7.3925929 -2.4548898 -0.31735399 3 13
27.407209 -13.826369 -1.071973 13 14
34.065933 -13.192787 9.788537 23 31
34.458126 -15.320131 6.875567 33 30
7.4041424 -2.4874539 -0.1363382 0 17
19.566769 -8.7813416 -0.62416649 2 15
4.7779975 -1.8695912 -1.4362975 23 1
34.027756 -13.314781 0 30 20
27.637388 -14.063729 -0.36101329 5 18
6.6142344 -2.5880954 -1.1049929 1 3
36.419785 -16.344782 -0.23201162 8 19
5.2426777 -2.6678209 -0.54911363 19 6
34.070683 -13.331578 0.85133785 24 24
27.680164 -14.085497 0.36157206 8 22
20.128481 -9.033432 -1.8010842 3 7
36.440395 -16.354033 0.69718874 6 23
5.1782665 -2.6350441 -0.33836913 2 10
34.070602 -13.331546 2.1306791 27 27
36.408443 -16.339693 1.625849 8 26
34.047714 -13.32259 4.4891796 30 29
34.430103 -15.451837 3.0807846 19 28
27.234081 -13.8585 -1.0670871 13 14
34.052052 -13.324287 9.7978544 23 31
34.487015 -15.477377 6.8920693 34 30
19.550564 -8.8561897 -0.62463194 2 15
4.7750249 -1.8876746 -1.4373759 16 1
4.7733178 -2.1622601 -1.0480509 2 2
34.048035 -13.459951 0 20 20
27.605923 -14.16925 -0.36124611 5 18
5.5612731 -2.1984961 -0.93035859 1 3
5.4397268 -2.4641361 -0.76013476 3 4
36.311501 -16.448708 -0.23168615 8 19
6.6054893 -2.6112981 -0.76510137 1 5
5.1837282 -2.6606443 -0.54390872 19 6
34.068569 -13.46807 0.85245448 16 24
27.577457 -14.154639 0.36087361 8 22
20.06414 -9.0888338 -1.798155 3 7
36.335728 -16.459682 0.69628125 6 23
27.017546 -13.867255 -1.7685891 6 10
34.105556 -13.482692 2.1357951 27 27
36.263813 -16.427107 1.6219411 8 26
34.074844 -13.470551 4.498929 30 29
34.434063 -15.598249 3.0859919 19 28
27.046839 -13.88229 -1.0616428 13 14
34.073605 -13.47006 9.8175249 23 31
34.511635 -15.633389 6.9078536 34 30
19.588621 -8.9559669 -0.6268428 2 15
4.7576752 -1.9000453 -1.4341409 24 1
4.6694274 -2.1348739 -1.0268701 3 2
27.396456 -14.182779 -0.35915071 5 18
5.427484 -2.4814594 -0.75962967 5 4
34.322216 -15.692204 -0.21934164 7 19
6.6148009 -2.6417148 -0.76724333 0 5
5.2274623 -2.7061875 -0.54948539 14 6
34.047344 -13.597292 0.8531059 8 24
27.35383 -14.160713 0.35859194 8 22
20.057674 -9.1704197 -1.8004332 3 7
34.33939 -15.700055 0.65907264 5 23
26.855497 -13.902733 -1.7611474 6 10
34.113914 -13.623878 2.1392837 28 27
36.162632 -16.533648 1.6199871 8 26
19.424744 -8.8810425 -1.1193615 3 11
34.071861 -13.607082 4.5047789 15 29
34.455547 -15.753163 3.0928266 19 28
24.129097 -8.2941837 -1.0395012 5 13
26.863314 -13.906778 -1.056338 13 14
34.080196 -13.610412 9.8330536 23 31
34.535591 -15.78976 6.9236383 34 30
19.584229 -9.0325985 -0.62765735 2 15
4.751348 -1.9158117 -1.4341409 21 1
5.6275539 -2.5955291 -1.2394613 7 2
39.156734 -15.788557 0 13 20
27.175528 -14.182873 -0.35686907 5 18
6.0043902 -2.421056 -1.0072223 5 3
5.4300346 -2.5044296 -0.76114488 3 4
36.638748 -12.730288 0.22543253 12 21
6.6797729 -2.6933801 -0.77581108 0 5
5.1937447 -2.7106085 -0.54688293 4 6
39.105343 -15.767836 0.98114622 10 24
27.235804 -14.214332 0.35766065 8 22
20.045256 -9.2452316 -1.8020605 3 7
36.657852 -12.736925 1.1294109 7 25
6.9456062 -2.41328 -0.47123921 2 9
26.678263 -13.92335 -1.7525427 6 10
34.14262 -13.766793 2.1439347 28 27
6.7815456 -2.7344165 -0.34060782 0 12
34.490002 -15.907408 3.1006377 19 28
24.112785 -8.378088 -1.0399897 5 13
26.689466 -13.929198 -1.0513124 13 14
34.074295 -13.739244 9.8444424 11 31
34.558079 -15.938807 6.938705 34 30
4.7699423 -1.9417231 -1.441689 11 1
4.6836157 -2.1790318 -1.0331459 1 2
38.84483 -15.81275 0 13 20
27.03985 -14.226353 -0.35570496 4 18
5.4432859 -2.5324652 -0.76417536 6 4
36.611427 -12.857018 0.22552551 12 21
34.141224 -15.884057 -0.21885344 21 19
6.64502 -2.70502 -0.77281237 1 5
5.1600547 -2.7148359 -0.54428053 7 6
38.871357 -15.823548 0.9765867 10 24
27.018614 -14.215178 0.35542557 7 22
20.115696 -9.3587408 -1.8111732 3 7
36.69841 -12.887564 1.1319709 7 25
34.161987 -15.893717 0.65767652 16 23
6.8961353 -2.4217503 -0.46842507 1 9
26.504723 -13.944808 -1.7441708 6 10
34.17075 -13.910049 2.1485858 28 27
34.189602 -15.906564 1.5362929 21 26
34.505741 -16.053646 3.1068213 19 28
6.3162923 -2.2181239 -0.27273881 2 13
26.522844 -13.954343 -1.0465661 12 14
34.59066 -16.093155 6.9559245 34 30
65.777306 -23.357588 -1.2183874 33 17
4.7488852 -1.9525027 -1.4373759 6 1
4.672431 -2.1937008 -1.0323615 4 2
34.860508 -14.33289 0 10 20
26.813366 -14.22692 -0.35337675 4 18
5.9073491 -2.4288051 -0.99369425 1 3
34.05299 -15.987839 -0.21864422 14 19
6.5251894 -2.6828299 -0.75996071 0 5
5.0942564 -2.7029645 -0.5383321 7 6
38.560684 -15.854216 0.97016603 10 24
26.816898 -14.228795 0.3534233 7 22
19.592871 -8.055603 -1.4813484 3 8
20.014339 -9.3967094 -1.8049897 3 7
34.062859 -15.992473 0.65683877 16 23
26.343004 -13.97735 -1.736729 6 10
34.181076 -14.05354 2.1523066 28 27
34.086838 -16.003731 1.5341762 21 26
34.539711 -16.216354 3.1149576 10 28
6.44033 -2.2869678 -0.27843782 2 13
26.346848 -13.979389 -1.0415406 12 14
34.61264 -16.250595 6.9717088 34 30
4.7064667 -1.9542958 -1.4265928 8 1
26.64011 -14.254383 -0.35174698 4 18
5.8414383 -2.7674744 -0.8227638 0 4
28.780849 -13.635386 -0.18509784 10 19
6.5451689 -2.7177916 -0.7633878 1 5
5.0040236 -2.6775141 -0.52978122 14 6
38.423859 -15.954981 0.96811885 10 24
19.830097 -9.394824 -1.7913203 3 7
28.78418 -13.636963 0.55596387 8 23
26.15674 -13.995745 -1.7276592 6 10
34.209259 -14.204925 2.1571903 28 27
28.844164 -13.665381 1.3003535 10 26
34.609001 -16.396564 3.126349 10 28
6.6843343 -2.3999212 -0.28934738 2 13
26.171 -14.003375 -1.036515 12 14
34.630386 -16.406698 6.9867764 17 30
28.584322 -13.664655 -0.92205358 11 15
4.7138247 -1.9766709 -1.4309061 15 1
38.149612 -15.997461 0 13 20
26.389547 -14.239028 -0.34909281 4 18
5.3908901 -2.2605879 -0.9094516 6 3
28.603161 -13.673661 -0.18426093 15 19
4.9771218 -2.6855092 -0.52792233 13 6
38.190918 -16.014782 0.96365237 10 24
26.424749 -14.258021 0.34955847 7 22
19.7756 -9.4536705 -1.7893676 3 7
28.602894 -13.673533 0.55338091 13 23
25.988237 -14.022492 -1.7197524 5 10
34.229435 -14.353594 2.1616089 28 27
28.67008 -13.705651 1.2946545 15 26
28.721022 -13.730003 2.5987816 6 28
26.005859 -14.032001 -1.0319083 12 14
34.444595 -14.443818 10.008016 12 31
28.746847 -13.74235 5.8093987 25 30
35.336071 -12.973143 -0.65704823 11 17
28.390011 -13.699824 -0.91739911 16 15
4.6923618 -1.9879245 -1.4265928 13 1
37.880783 -16.048239 0 13 20
