# .PCD v0.7 - Point Cloud Data file format
VERSION 0.7
FIELDS x y z intensity ring
SIZE 4 4 4 4 2
TYPE F F F F U
COUNT 1 1 1 1 1
WIDTH 1280
HEIGHT 1
VIEWPOINT 0 0 0 1 0 0 0
POINTS 1280
DATA ascii
-31.965084 -34.134739 5.7419963 26 29
-24.798943 -24.015062 2.81814 7 28
-8.1435623 -9.5957661 -0.51274896 1 13
-21.482656 -18.859692 -0.99826527 6 14
-9.107605 -9.7257919 -0.31005114 9 16
-2.5298486 -2.4319785 -1.636378 1 0
-8.29597 -9.7030439 -0.22283232 10 17
-21.51162 -20.679417 -0.86841065 4 15
-4.1868014 -4.4382691 -1.7080296 0 1
-6.3565726 -6.110661 -1.7634869 0 2
-9.1264496 -9.6746025 0 10 20
-21.527119 -18.759472 -0.33242279 4 18
-7.0787649 -7.5039296 -1.6049145 2 3
-9.285428 -8.9262104 -1.6394666 4 4
-8.3022928 -9.7104387 0.074253015 10 21
-21.459808 -20.629608 -0.17300907 4 19
-10.181937 -10.793486 -1.5983164 2 5
-13.4065 -11.682885 -1.6599811 3 6
-9.1788607 -9.7301626 0.31126082 7 24
-21.539181 -18.769983 0.33260903 6 22
-15.475802 -16.405312 -1.5770544 3 8
-14.356107 -13.800723 -1.6256623 2 7
-8.319705 -9.7308044 0.37259156 4 25
-21.534748 -20.701651 0.52140808 3 23
-15.950887 -18.656307 -1.5730997 6 9
-20.658247 -18.002306 -1.5958 5 10
-9.1082716 -9.6553335 0.77301645 2 27
-20.52614 -19.732061 1.1599948 4 26
-21.586378 -22.8829 -1.4653581 6 12
-21.543068 -20.709648 -1.5661013 5 11
-32.111767 -34.040466 5.7458963 26 29
-24.800568 -23.841127 2.8083766 7 28
-8.3552876 -9.7724218 -0.52382135 1 13
-21.494368 -18.73093 -0.99561286 5 14
-9.1733732 -9.7243443 -0.31107473 7 16
-2.5383224 -2.4231327 -1.636378 1 0
-8.3558865 -9.7043343 -0.22353043 12 17
-21.51137 -20.535177 -0.86550158 4 15
-4.1943092 -4.4152493 -1.7047946 0 1
-6.3863759 -6.09656 -1.7658403 0 2
-9.1849594 -9.668787 0 10 20
-21.52593 -18.626633 -0.33139837 4 18
-7.1021929 -7.4763083 -1.6042997 2 3
-9.3165293 -8.8937426 -1.6394666 4 4
-8.3596277 -9.7086782 0.074462242 11 21
-21.53458 -20.557335 -0.17303231 4 19
-10.222291 -10.760761 -1.5987449 2 5
-13.432142 -11.622986 -1.6581222 3 6
-9.2348032 -9.7212563 0.31200525 9 24
-21.510809 -18.613548 0.33116555 6 22
-15.552212 -16.371441 -1.5790076 3 8
-14.453214 -13.797322 -1.6311951 2 7
-8.3771019 -9.7289734 0.37363884 4 25
-15.987265 -18.567242 -1.5702857 6 9
-20.720963 -17.930084 -1.5958 5 10
-9.1721735 -9.6553278 0.77557462 2 27
-21.597326 -22.734987 -1.460705 6 12
-21.531433 -20.554331 -1.5600303 5 11
-32.862041 -34.593086 5.8585038 27 29
-24.66736 -23.547947 2.7839673 7 28
-21.67618 -25.174215 -1.3534358 9 13
-21.511253 -18.613934 -0.99337929 5 14
-9.2403126 -9.7270555 -0.31219137 6 16
-2.5489743 -2.4171965 -1.6380684 1 0
-8.4220753 -9.7158566 -0.22443795 12 17
-21.579348 -20.46373 -0.86550158 4 15
-4.2062659 -4.3985319 -1.7037163 0 1
-6.4065571 -6.0753489 -1.7658403 0 2
-9.2390881 -9.6614017 0 10 20
-21.502651 -18.482145 -0.33009458 4 18
-7.1214828 -7.4470015 -1.6030698 2 3
-9.3459711 -8.8627996 -1.6394666 4 4
-8.4205971 -9.7141504 0.074717969 13 21
-21.541679 -20.428011 -0.17254411 4 19
-9.3013926 -9.7265539 -1.4496657 2 5
-13.479672 -11.586166 -1.6592376 3 6
-9.2890997 -9.7136993 0.31274965 5 24
-21.505684 -18.484753 0.33014113 6 22
-15.614689 -16.328426 -1.5798446 3 8
-14.493102 -13.743833 -1.6305442 2 7
-8.432888 -9.7283306 0.37468609 5 25
-21.530058 -20.416988 0.51791763 3 23
-16.080122 -18.550316 -1.5733556 6 9
-20.828758 -17.902916 -1.5995208 5 10
-9.2400188 -9.6623745 0.77859777 1 27
-21.448788 -20.33992 1.2042843 8 26
-9.3809652 -9.8097639 -0.63226491 1 12
-21.521215 -20.408606 -1.554378 5 11
-32.935417 -34.440876 5.851191 27 29
-24.670095 -23.394691 2.7755053 7 28
-21.628647 -24.951193 -1.3452942 9 13
-21.469788 -18.453899 -0.98863292 5 14
-9.2890997 -9.7136993 -0.31274965 6 16
-2.5521181 -2.4033136 -1.6346875 1 0
-8.4796114 -9.7135153 -0.22506624 9 17
-21.50511 -20.251226 -0.85968351 4 15
-4.2322817 -4.3949213 -1.7080296 0 1
-6.4248695 -6.0502591 -1.7650557 0 2
-9.3060522 -9.6636677 0 10 20
-7.1529179 -7.4277925 -1.6042997 2 3
-9.3739634 -8.8274031 -1.6389616 4 4
-8.4781284 -9.7118177 0.074927196 9 21
-21.522587 -20.267685 -0.17182343 4 19
-13.523063 -11.541629 -1.6596094 3 6
-9.3284988 -9.6869774 0.31293577 9 24
-10.00455 -9.4212217 -1.1218535 1 7
-8.4878311 -9.7229319 0.37561697 5 25
-21.528408 -20.273167 0.51617241 3 23
-16.110651 -18.454981 -1.5700297 6 9
-20.909349 -17.845657 -1.6009161 5 10
-21.444008 -20.193687 1.2000507 8 26
-21.522535 -20.267635 -1.5493538 5 11
-24.554247 -23.12258 2.7533739 7 28
-21.602596 -24.746082 -1.3382927 9 13
-9.3423681 -9.7013798 -0.31340104 19 16
-2.565788 -2.3993416 -1.6380684 1 0
-8.5451565 -9.7198982 -0.22590394 6 17
-21.540628 -20.143257 -0.85828716 4 15
-4.2368722 -4.3690586 -1.7037163 0 1
-6.4230328 -6.006361 -1.75878 0 2
-21.496902 -18.217794 -0.32804576 12 18
-7.1760526 -7.3999386 -1.6036847 5 3
-9.3931293 -8.783783 -1.6369413 4 4
-8.5410318 -9.7152061 0.075182922 9 21
-9.3869543 -8.7780085 -0.074694715 1 19
-9.3607674 -9.6528139 -1.4483806 18 5
-13.563272 -11.494349 -1.6596094 3 6
-9.3817463 -9.674448 0.31358713 13 24
-21.499954 -18.220381 0.32809231 20 22
-9.3864269 -9.6792746 -0.94282854 17 8
-8.5560408 -9.7322788 0.3771297 4 25
-9.3886042 -8.7795515 0.22436814 1 23
-16.206604 -18.434601 -1.5730997 6 9
-20.989799 -17.788046 -1.6023115 5 10
-9.3322725 -9.6234303 0.78069085 2 27
-21.45015 -20.058647 1.1964686 8 26
-9.3852472 -9.6780586 -0.62798405 12 12
-21.528967 -20.132351 -1.5447482 5 11
-32.953957 -33.98209 5.8121929 27 29
-24.50087 -22.911463 2.7384028 7 28
-21.609682 -24.580465 -1.3334078 9 13
-21.485264 -18.207932 -0.98346788 17 14
-9.3900986 -9.6830606 -0.31386629 11 16
-2.5688343 -2.3854377 -1.6346875 1 0
-8.5922871 -9.7049847 -0.226253 12 17
-9.3726921 -8.7035475 -0.37224248 1 15
-4.2547874 -4.3569989 -1.7047946 0 1
-6.4497075 -5.989244 -1.760349 0 2
-21.590963 -18.1684 -0.32851139 8 18
-7.2156458 -7.3889852 -1.6067593 2 3
-8.6014042 -9.7152834 0.075415403 9 21
-9.3888464 -9.6143923 -1.4475238 8 5
-13.612453 -11.454629 -1.6607246 3 6
-21.600145 -18.176126 0.3286511 13 22
-9.3864698 -8.716342 -1.0456963 1 7
-8.6217642 -9.7382793 0.37852603 4 25
-16.284082 -18.392864 -1.574379 6 9
-21.048704 -17.712101 -1.602079 5 10
-9.3295364 -9.5536575 0.77766758 1 27
-9.3952456 -8.7244921 0.52235585 2 26
-9.404789 -8.7333527 -0.67262173 1 11
-32.831047 -33.619736 5.7697825 26 29
-24.507656 -22.757984 2.7302663 7 28
-20.977381 -23.693943 -1.2892811 8 13
-21.609861 -18.184301 -0.98625982 5 14
-2.571815 -2.371541 -1.6313065 1 0
-8.6580496 -9.7107553 -0.22709072 12 17
-4.2672691 -4.3393741 -1.7037163 0 1
-6.4821081 -5.9773293 -1.7634869 0 2
-21.70336 -18.133957 -0.32925642 4 18
-7.2413936 -7.3637524 -1.6067593 4 3
-9.4279671 -8.6937857 -1.6323956 4 4
-8.6592226 -9.7120705 0.07562463 9 21
-9.4127197 -8.6797256 -0.074415751 1 19
-13.646241 -11.401937 -1.6599811 3 6
-21.684946 -18.11857 0.32897705 6 22
-15.880318 -16.148649 -1.583751 3 8
-8.6743298 -9.7290144 0.37934059 3 25
-9.3908634 -8.6595716 0.22297195 1 23
-16.337559 -18.323992 -1.5733556 6 9
-21.137981 -17.661562 -1.604172 5 10
-9.3264284 -9.4840183 0.77464437 1 27
-20.799292 -19.179596 1.1526675 8 26
-21.54987 -21.914 -1.4316696 5 12
-24.443335 -22.539867 2.714319 7 28
-20.96155 -23.510199 -1.2832564 8 13
-21.691608 -18.124138 -0.98709732 5 14
-2.5899434 -2.3732469 -1.6380684 1 0
-8.7178917 -9.7162542 -0.22785862 12 17
-4.28088 -4.3259478 -1.7037163 0 1
-6.4690423 -5.9277878 -1.7548575 0 2
-9.4086056 -9.5076561 0 1 20
-21.643278 -17.968603 -0.32748696 4 18
-7.27005 -7.3465867 -1.6079891 3 3
-9.4932613 -8.6989756 -1.6389616 4 4
-8.7190733 -9.7175703 0.075880349 6 21
-21.489792 -19.691774 -0.16940567 4 19
-10.467856 -10.578058 -1.6030288 2 5
-13.691185 -11.366646 -1.6610966 3 6
-21.532114 -21.758797 0.71231735 5 24
-21.689438 -18.006926 0.32818544 6 22
-15.970263 -16.138393 -1.5876573 3 8
-10.031936 -9.1925793 -1.1107879 3 7
-8.7315512 -9.7314777 0.38050419 3 25
-21.495729 -19.697216 0.50891221 3 23
-16.397709 -18.275553 -1.5736115 6 9
-21.199503 -17.600174 -1.604637 5 10
-9.3365145 -9.4348059 0.77301645 1 27
-21.551149 -21.778032 -1.4272026 5 12
-21.513716 -19.713697 -1.5292568 5 11
-24.45817 -22.411795 2.7081351 7 28
-20.984587 -23.387714 -1.2801627 8 13
-21.699226 -18.015051 -0.98486382 5 14
-2.5955312 -2.3617516 -1.636378 1 0
-8.7758894 -9.7124691 -0.22848691 13 17
-21.520073 -19.581758 -0.84676731 4 15
-4.2769232 -4.2918777 -1.6961682 0 1
-6.5187073 -5.9315672 -1.7627025 0 2
-21.668839 -17.86241 -0.3269282 4 18
-7.3040228 -7.3295622 -1.6098338 2 3
-9.5382462 -8.6791353 -1.641487 4 4
-8.7931681 -9.7315912 0.076229066 4 21
-21.499235 -19.562798 -0.16894072 4 19
-10.527179 -10.563989 -1.6064559 2 5
-13.727708 -11.316248 -1.6607246 3 6
-21.607943 -21.683496 0.71231735 5 24
-21.705873 -17.892939 0.32748696 6 22
-16.001156 -16.057106 -1.5851461 3 8
-10.061017 -9.1548204 -1.1104624 5 7
-8.7922764 -9.7306042 0.38166782 3 25
-21.493364 -19.557457 0.50723672 3 23
-16.474787 -18.233007 -1.5748905 6 9
-21.242329 -17.510822 -1.6032418 5 10
-21.332003 -21.406591 1.7599846 5 27
-21.419701 -19.490427 1.1798599 16 26
-21.542433 -21.617758 -1.4216189 5 12
-21.517406 -19.579332 -1.5246513 5 11
-24.388826 -22.192123 2.6918626 6 28
-21.066103 -23.314318 -1.2801627 8 13
-21.626259 -17.827311 -0.9787215 5 14
-2.5983796 -2.3478158 -1.632997 1 0
-8.8366566 -9.7113562 -0.22918501 13 17
-21.534897 -19.458269 -0.84467274 4 15
-4.305521 -4.2905169 -1.7015598 0 1
-6.5306425 -5.9008875 -1.760349 0 2
-21.666061 -17.733461 -0.32595035 4 18
-7.3379622 -7.3123913 -1.6116785 1 3
-9.5655403 -8.6431274 -1.6409819 6 4
-8.8540049 -9.730423 0.076461546 4 21
-21.5021 -19.428635 -0.16842927 4 19
-10.533002 -10.496297 -1.6017436 2 5
-13.773292 -11.273305 -1.6614684 3 6
-21.632515 -21.557129 0.71064246 5 24
-21.712488 -17.771461 0.3266488 6 22
-16.062759 -16.006784 -1.5857041 3 8
-10.09587 -9.1223173 -1.1107879 3 7
-8.8611708 -9.7382984 0.38318053 3 25
-21.499187 -19.426003 0.50577074 3 23
-16.538334 -18.175386 -1.5748905 6 9
-21.331137 -17.459328 -1.6053348 5 10
-21.395283 -21.320724 1.7590543 5 27
-21.428295 -19.361948 1.1766033 12 26
-21.555494 -21.480379 -1.4175241 5 12
-21.52338 -19.447863 -1.5202551 5 11
-24.276827 -21.935793 2.6710331 6 28
-21.629583 -17.703604 -0.97606909 5 14
-21.632515 -21.557129 -0.71064246 4 16
-2.6038604 -2.3363109 -1.6313065 1 0
-8.8894119 -9.7010937 -0.22967367 13 17
-21.519354 -19.308216 -0.84141463 4 15
-4.3259459 -4.2808814 -1.7037163 0 1
-6.5511994 -5.8780565 -1.760349 0 2
-21.602615 -21.377575 0 6 20
-21.746449 -17.672865 -0.32622975 4 18
-7.36625 -7.2895141 -1.6122936 1 3
-9.6045103 -8.6176357 -1.6424971 6 4
-8.9095316 -9.7230511 0.076647528 4 21
-21.501308 -19.292025 -0.16789457 4 19
-10.597842 -10.487441 -1.6060274 2 5
-13.821826 -11.232697 -1.6625836 3 6
-21.582558 -21.357725 0.70654809 5 24
-21.752657 -17.67791 0.32632285 6 22
-16.107187 -15.939395 -1.5845881 3 8
-10.142488 -9.1003351 -1.1124152 5 7
-8.9221191 -9.7367868 0.38434416 3 25
-21.489464 -19.281399 0.50395572 3 23
-16.609762 -18.126381 -1.5756581 6 9
-21.40744 -17.39736 -1.6064975 5 10
-21.418404 -19.217638 1.1723698 12 26
-21.556494 -21.331934 -1.4126849 5 12
-21.528692 -19.316595 -1.5158588 5 11
-24.273125 -21.779034 2.6622458 6 28
-21.430857 -23.387682 -1.2923748 8 13
-21.511496 -21.287405 -0.70422179 4 16
-2.612812 -2.3262956 -1.6313065 1 0
-8.9645824 -9.708025 -0.23065101 10 17
-21.503748 -19.145683 -0.83792377 4 15
-4.3286104 -4.2507448 -1.6983248 0 1
-6.5620031 -5.8424249 -1.757211 0 2
-21.621754 -21.232809 0 5 20
-21.904444 -17.662041 -0.32758009 4 18
-7.3998265 -7.2667146 -1.6135232 2 3
-9.6464195 -8.5886097 -1.6440123 6 4
-8.9685097 -9.7122774 0.076833501 4 21
-21.509502 -19.150806 -0.16738312 4 19
-10.646546 -10.455031 -1.6073126 2 5
-13.852455 -11.169543 -1.6610966 3 6
-21.584518 -21.196245 0.70394266 5 24
-21.913784 -17.669573 0.32771978 6 22
-16.185354 -15.894204 -1.5862622 3 8
-10.198198 -9.0798807 -1.1146934 3 7
-8.9865656 -9.7318306 0.38550776 9 25
-21.500616 -19.142895 0.50248969 3 23
-16.676533 -18.059536 -1.5754023 6 9
-21.498953 -17.335085 -1.608358 5 10
-21.226187 -20.844358 1.732543 5 27
-20.787575 -18.508045 1.1339421 7 26
-21.544167 -21.156618 -1.4065428 5 12
-21.510221 -19.151447 -1.5093691 5 11
-24.255335 -21.595535 2.6511803 6 28
-21.485254 -23.267048 -1.290258 8 13
-21.665411 -17.469305 -0.97188121 5 14
-21.584518 -21.196245 -0.70394266 4 16
-2.6255379 -2.3228803 -1.6346875 1 0
-9.0222616 -9.7091103 -0.2313491 12 17
-21.497911 -19.019749 -0.83536381 4 15
-4.3446999 -4.2398157 -1.6994032 0 1
-6.5773878 -5.8191819 -1.7564266 0 2
-21.545214 -21.025097 0 5 20
-21.997282 -17.623146 -0.32813889 4 18
-7.4254484 -7.2461925 -1.6141382 2 3
-9.6733541 -8.5582619 -1.6440123 6 4
-9.0017014 -9.686985 0.076856755 9 21
-21.491671 -19.014227 -0.16677868 4 19
-10.650877 -10.393757 -1.6030288 2 5
-13.884368 -11.123476 -1.6607246 3 6
-21.550831 -21.030579 0.7006858 5 24
-22.037863 -17.655657 0.3287442 6 22
-9.358448 -9.1325283 -0.91436785 1 8
-10.274447 -9.090065 -1.1199007 3 7
-9.0388689 -9.7269821 0.38643864 8 25
-21.482769 -19.006351 0.50067466 3 23
-16.730471 -18.004131 -1.5751463 6 9
-21.547075 -17.262463 -1.6078929 5 10
-20.752825 -18.360552 1.1288944 7 26
-21.547615 -21.027439 -1.4024481 5 12
-21.525404 -19.044073 -1.5062289 5 11
-24.179737 -21.392427 2.6355584 6 28
-21.520157 -23.158447 -1.2879785 8 13
-21.64843 -17.343664 -0.96867043 11 14
-21.622381 -21.100401 -0.70301211 4 16
-2.6309068 -2.3113084 -1.632997 1 0
-9.088891 -9.7126007 -0.23218682 12 17
-21.495085 -18.883896 -0.83268744 4 15
-4.3567076 -4.2219434 -1.6983248 0 1
-6.6006079 -5.7987761 -1.757211 0 2
-21.589752 -20.921925 0 5 20
-7.4450207 -7.2147264 -1.6129084 6 3
-9.7091322 -8.5296822 -1.6450225 4 4
-9.0737228 -9.6963921 0.077182218 14 21
-21.509834 -18.896852 -0.16640674 4 19
-10.689951 -10.359282 -1.6034572 2 5
-13.929347 -11.079904 -1.6614684 3 6
-21.575294 -20.907913 0.69910389 5 24
-16.278954 -15.775403 -1.5851461 3 8
-15.044353 -13.216789 -1.6347752 2 7
-9.1055517 -9.7304049 0.387835 8 25
-21.500912 -18.889013 0.49955767 3 23
-16.80958 -17.963108 -1.5766814 6 9
-21.604074 -17.184658 -1.6076603 5 10
-20.708696 -18.193037 1.1230326 7 26
-21.531935 -20.865896 -1.3966782 5 12
-21.52273 -18.908182 -1.5014141 5 11
-24.119488 -21.189489 2.6209126 6 28
-21.606325 -23.089024 -1.2883041 8 13
-21.73387 -17.287901 -0.96978724 11 14
-21.520731 -20.85504 -0.6973359 4 16
-2.6393604 -2.3016498 -1.632997 1 0
-9.154604 -9.7112331 -0.23295473 13 17
-21.527992 -18.773451 -0.83129114 4 15
-4.374928 -4.2086167 -1.6994032 0 1
-6.624773 -5.777122 -1.7579956 0 2
-21.571159 -20.751139 0 5 20
-7.5027461 -7.2175317 -1.6196724 6 3
-9.7582731 -8.5096855 -1.6480529 4 4
-9.1284075 -9.683444 0.077344954 11 21
-21.503582 -18.752163 -0.16582553 4 19
-10.710649 -10.303488 -1.6008868 2 5
-13.966737 -11.026306 -1.6610966 3 6
-21.591259 -20.770475 0.69714981 5 24
-16.342413 -15.721162 -1.5857041 3 8
-15.08368 -13.153699 -1.6337988 2 7
-9.1740656 -9.7318783 0.38923135 7 25
-21.470526 -18.723337 0.49725395 3 23
-16.872566 -17.898474 -1.5764256 6 9
-21.648109 -17.090513 -1.6062651 5 10
-21.114511 -20.31185 1.7062641 5 27
-20.675835 -18.030329 1.1176592 3 26
-21.562193 -20.742514 -1.3937002 5 12
-21.519632 -18.766159 -1.4963897 5 11
-24.100834 -21.017092 2.6104977 6 28
-21.416655 -22.718857 -1.2720212 8 13
-21.869251 -17.265097 -0.97299796 11 14
-2.6442385 -2.2905111 -1.6313065 1 0
-9.2087822 -9.704031 -0.23351321 13 17
-21.487377 -18.612949 -0.82733476 4 15
-4.380506 -4.1861024 -1.6961682 0 1
-6.6320353 -5.7448487 -1.7548575 0 2
-25.583097 -20.05971 -0.37847492 5 18
-7.5494995 -7.2144585 -1.6245917 7 3
-9.7984352 -8.4876709 -1.6500733 6 4
-9.1962624 -9.6908388 0.077647172 11 21
-21.487041 -18.612659 -0.1652211 4 19
-10.764886 -10.287148 -1.6038855 2 5
-14.006359 -10.982388 -1.6614684 3 6
-21.553049 -20.59654 0.69370687 5 24
-26.19372 -20.5385 0.38750839 9 22
-16.437731 -15.708237 -1.5898896 3 8
-15.13927 -13.114047 -1.6351006 2 7
-9.2338095 -9.7304049 0.39039499 7 25
-21.484131 -18.610138 0.49613702 3 23
-16.937323 -17.848215 -1.5769373 6 9
-21.707809 -17.021095 -1.6064975 5 10
-20.65395 -17.891012 1.1132628 7 26
-21.541309 -20.585321 -1.3879304 5 12
-21.509283 -18.631926 -1.4913656 5 11
-24.073969 -20.853527 2.6000834 6 28
-21.436853 -22.589729 -1.2687646 8 13
-22.011322 -17.259081 -0.97676712 11 14
-2.6549659 -2.2836318 -1.632997 1 0
-9.2729921 -9.7036352 -0.23428111 11 17
-21.467339 -18.464832 -0.82407665 4 15
-4.3839145 -4.1601815 -1.6918551 0 1
-6.6490736 -5.7191076 -1.7540731 1 2
-25.760269 -20.053831 -0.38005811 5 18
-7.6004372 -7.2125492 -1.6301258 7 3
-9.8400345 -8.463769 -1.6520935 6 4
-9.2604303 -9.6904898 0.077902898 8 21
-21.445742 -18.446255 -0.16440743 4 19
-10.797842 -10.246775 -1.6034572 2 5
-14.038321 -10.928539 -1.6607246 3 6
-21.572594 -20.471638 0.69203192 5 24
-26.410427 -20.559965 0.38965034 10 22
-16.466408 -15.626045 -1.5873783 3 8
-15.190997 -13.066324 -1.6357514 2 7
-9.2787676 -9.7096777 0.39086044 6 25
-9.3243637 -9.7573919 -0.8649618 1 9
-21.751331 -16.932957 -1.6053348 5 10
-21.011856 -19.939518 1.6869619 4 27
-21.528976 -20.430246 -1.3825328 5 12
-21.504534 -18.496824 -1.4865507 5 11
-24.297737 -20.899359 2.6163561 6 28
-22.159754 -17.250904 -0.98067582 11 14
-21.624807 -20.521187 -0.69370687 4 16
-2.6546512 -2.267287 -1.6279256 1 0
-9.3289919 -9.6942606 -0.23483957 16 17
-4.412426 -4.158061 -1.6972466 0 1
-6.6511006 -5.6805787 -1.7493663 0 2
-21.579916 -20.33589 0 5 20
-25.928219 -20.039612 -0.38150162 5 18
-7.6543326 -7.2130804 -1.6362749 7 3
-9.8755531 -8.4345226 -1.6531037 6 4
-9.3274822 -9.6926918 0.07818187 17 21
-10.830649 -10.20629 -1.6030288 2 5
-14.076383 -10.879469 -1.6607246 3 6
-21.571165 -20.327644 0.68970561 5 24
-26.567482 -20.533689 0.39090759 10 22
-10.012991 -9.4357672 -0.96208131 1 8
-15.242578 -13.018395 -1.6364025 2 7
-9.3292379 -9.6945152 0.39155862 12 25
-21.431057 -18.303858 0.49194846 21 23
-21.819784 -16.864252 -1.6060324 5 10
-21.046459 -19.833185 1.6841713 4 27
-20.772266 -17.741198 1.1129372 7 26
-21.530371 -20.2892 -1.3780658 5 12
-21.493032 -18.356789 -1.481317 10 11
-24.537275 -20.95682 2.6342566 6 28
-22.393799 -17.307899 -0.98835379 5 14
-21.696308 -20.445572 -0.69370687 4 16
-2.6712389 -2.2645748 -1.632997 1 0
-21.470827 -18.20215 -0.81918949 16 15
-4.4248233 -4.1392293 -1.6961682 0 1
-6.6688852 -5.6536274 -1.7485819 0 2
-21.566671 -20.174681 0 5 20
-7.6951513 -7.1984782 -1.6393496 6 3
-9.9215345 -8.4110994 -1.655629 4 4
-9.3768663 -9.6728001 0.078298107 13 21
-21.513115 -18.238003 -0.16391923 16 19
-10.022826 -9.3759174 -1.4783678 2 5
-14.116163 -10.827803 -1.6607246 3 6
-21.575438 -20.18288 0.68747234 5 24
-15.3206 -12.988222 -1.6396569 2 7
-9.3758392 -9.6717405 0.39202404 3 25
-21.525455 -18.248463 0.49257672 14 23
-9.3800535 -9.6760874 -0.86368269 4 9
-21.875111 -16.779305 -1.6055673 5 10
-9.442606 -8.8331461 0.75301665 1 27
-21.523085 -18.246452 1.1495737 12 26
-21.552065 -20.161018 -1.3747154 5 12
-21.499229 -18.226229 -1.4771302 10 11
-24.717316 -20.954401 2.6453218 6 28
-22.412678 -17.191643 -0.98639941 5 14
-21.479067 -20.09273 -0.68440163 4 16
-2.6755676 -2.2538362 -1.6313065 1 0
-21.561541 -18.162941 -0.82046938 8 15
-4.4378057 -4.125308 -1.6961682 0 1
-6.6926141 -5.6377025 -1.7501509 0 2
-9.3926058 -8.731205 0 1 20
-23.954849 -18.255318 -0.35062945 4 18
-7.7495713 -7.2038684 -1.6461135 8 3
-9.9509449 -8.3824453 -1.656134 4 4
-21.610075 -18.203825 -0.16422144 8 19
-9.9182415 -9.2198267 -1.4586619 2 5
-14.146943 -10.780989 -1.6603529 3 6
-9.3900642 -8.7288418 0.29832652 1 24
-23.961214 -18.260168 0.35072258 7 22
-9.3960295 -8.7343874 -0.89706826 2 8
-15.373526 -12.950301 -1.6409588 2 7
-21.905487 -16.693556 -1.6039394 5 10
-9.3854923 -8.7245922 0.7462725 1 27
-20.923113 -17.625143 1.1145655 7 26
-9.4058447 -8.7435122 -0.59820414 1 12
-21.602209 -18.197199 -1.4802703 10 11
-24.99951 -21.059006 2.6684294 6 28
-22.476114 -17.128416 -0.98681819 5 14
-9.4017801 -8.7397327 -0.29869872 2 16
-2.6778574 -2.239831 -1.6279256 1 0
-21.655481 -18.113218 -0.82163304 4 15
-4.4521785 -4.1097918 -1.6961682 0 1
-6.6821661 -5.5891404 -1.7423062 0 2
-26.496822 -20.046665 -0.38680992 12 18
-7.7979045 -7.1982207 -1.6510328 8 3
-9.9801445 -8.3476572 -1.656134 6 4
-21.550167 -21.937269 0.17872798 6 21
-21.679625 -18.133413 -0.16426794 4 19
-9.4155874 -8.6914978 -1.3802669 3 5
-14.194019 -10.73875 -1.6614684 3 6
-27.128384 -20.524483 0.39602965 10 22
-9.4030046 -8.679884 -0.89483607 4 8
-15.421695 -12.899115 -1.6412842 2 7
-21.524599 -21.911242 0.8938939 4 25
-21.658283 -18.115561 0.49285597 3 23
-17.265553 -17.575691 -1.5789839 6 9
-21.979548 -16.629036 -1.6051022 5 10
-9.3953505 -8.6728182 0.74464464 1 27
-20.959984 -17.531485 1.1132628 11 26
-21.769775 -18.208817 -1.487388 5 11
-25.140146 -21.027885 2.6755896 6 28
-22.503889 -17.025736 -0.98542225 5 14
-2.6916273 -2.2346323 -1.6313065 1 0
-21.57686 -21.804007 -0.53543985 6 17
-21.657124 -17.980091 -0.81918949 4 15
-4.4643717 -4.0908437 -1.6950898 0 1
-6.7146773 -5.5746331 -1.7454441 0 2
-21.422329 -19.629951 0 5 20
-26.691664 -20.04067 -0.38857937 12 18
-7.850462 -7.1936245 -1.6565671 8 3
-10.010674 -8.3110218 -1.656134 6 4
-21.548834 -21.775686 0.1780538 6 21
-21.684393 -18.002731 -0.163803 4 19
-9.4385824 -8.6488695 -1.3789817 3 5
-14.239654 -10.691435 -1.6622118 3 6
-27.254604 -20.463337 0.39677471 10 22
-10.031965 -9.1926041 -0.9514783 3 8
-15.465802 -12.839957 -1.6409588 2 7
-21.51758 -21.744102 0.89028674 4 25
-21.650684 -17.974745 0.49118054 3 23
-17.346701 -17.529316 -1.5805188 6 9
-22.03396 -16.543568 -1.604637 5 10
-20.86204 -19.116541 1.6478926 4 27
-21.076374 -17.497944 1.1160309 7 26
-21.928568 -18.20545 -1.4936683 5 11
-25.431765 -21.113859 2.6983716 7 28
-21.61005 -21.837547 -1.2516676 8 13
-22.483023 -16.880733 -0.98179269 5 14
-21.51088 -19.711094 -0.67891151 4 16
-2.6966136 -2.2229178 -1.6296161 1 0
-21.568144 -21.643574 -0.53334552 6 17
-21.645704 -17.843351 -0.81639677 4 15
-4.4729257 -4.0700512 -1.6929333 0 1
-6.7401481 -5.5561519 -1.7470129 0 2
-21.535095 -19.595438 0 5 20
-26.883312 -20.038214 -0.39034882 6 18
-7.910603 -7.1980982 -1.6639459 9 3
-10.039622 -8.2760296 -1.656134 4 4
-21.548477 -21.62384 0.17742611 6 21
-21.673023 -17.865871 -0.16324504 4 19
-10.0629 -9.156538 -1.4655162 4 5
-14.286464 -10.648808 -1.6633271 3 6
-21.529268 -19.590136 0.6773296 4 24
-27.531103 -20.521063 0.39975479 10 22
-10.063992 -9.1575317 -0.9514783 4 8
-15.519753 -12.793504 -1.6419351 2 7
-21.522789 -21.598061 0.88737768 4 25
-21.657743 -17.853275 0.48992395 3 23
-17.396509 -17.45735 -1.5794955 6 9
-22.085169 -16.461786 -1.604172 5 10
-20.842987 -18.965668 1.6411483 4 27
-21.217505 -17.49037 1.1202644 3 26
-21.532457 -19.593037 -1.3561031 4 12
-22.065956 -18.189779 -1.4986926 5 11
-25.652969 -21.146687 2.7139935 7 28
-21.502768 -21.577971 -1.2410836 7 13
-22.461679 -16.742428 -0.97830272 5 14
-21.544056 -19.603592 -0.67779487 4 16
-2.706775 -2.2162597 -1.6313065 1 0
-21.577486 -21.509815 -0.53180975 6 17
-21.655258 -17.730944 -0.81453496 4 15
-4.4863977 -4.0551963 -1.6929333 0 1
-6.7281871 -5.5089211 -1.7391682 0 2
-21.540609 -19.470274 0 5 20
-7.9578867 -7.1930294 -1.6688652 9 3
-10.063941 -8.2401772 -1.655629 4 4
-21.608736 -21.540966 0.17733312 6 21
-21.667156 -17.740686 -0.16275685 4 19
-10.096158 -9.1257849 -1.4659445 4 5
-14.324902 -10.603743 -1.663699 3 6
-21.549614 -19.478413 0.67593384 4 24
-10.091343 -9.1214323 -0.95119929 4 8
-15.55284 -12.734391 -1.6409588 2 7
-21.495184 -21.427773 0.88330501 4 25
-21.688978 -17.758553 0.48929566 3 23
-17.451477 -17.396746 -1.5792397 6 9
-20.852442 -18.848249 1.6369624 4 27
-21.358883 -17.488276 1.1246608 3 26
-21.535063 -19.465261 -1.3521944 4 12
-22.225056 -18.197483 -1.5053916 5 11
-25.886438 -21.195358 2.7312427 7 28
-21.548733 -21.481152 -1.2396182 7 13
-21.522913 -19.454279 -0.67509633 4 16
-2.7116818 -2.2045109 -1.6296161 1 0
-21.601278 -21.383717 -0.53055316 6 17
-21.620844 -17.577057 -0.81092775 4 15
-4.4976592 -4.0369382 -1.6918551 0 1
-6.7534633 -5.4903502 -1.7407372 0 2
-21.531044 -19.325495 0 5 20
-24.985321 -18.360266 -0.36096671 5 18
-8.0064783 -7.1863279 -1.6737845 9 3
-10.10188 -8.2125063 -1.6571442 4 4
-21.604204 -21.386612 0.17668219 6 21
-21.797234 -17.720455 -0.16326828 4 19
-10.133871 -9.0958004 -1.4668013 6 5
-14.374662 -10.563107 -1.665186 3 6
-21.540098 -19.33362 0.67351449 4 24
-24.965982 -18.346056 0.36068735 8 22
-10.134999 -9.0968122 -0.95231539 4 8
-15.60029 -12.682539 -1.6412842 2 7
-21.530069 -21.313225 0.8816759 4 25
-21.809797 -17.730669 0.49062204 3 23
-17.534794 -17.358189 -1.5812863 6 9
-18.435043 -13.546846 -1.3323139 4 10
-20.843813 -18.70866 1.6311485 4 27
-21.525238 -17.499332 1.130197 3 26
-21.53746 -19.331253 -1.3480997 4 12
-26.158249 -21.265823 2.7520721 7 28
-21.623587 -21.4058 -1.2396182 7 13
-21.534147 -19.328279 -0.67332834 4 16
-2.7137194 -2.1904774 -1.6262352 1 0
-21.513226 -21.148367 -0.52657402 6 17
-21.744297 -17.551701 -0.81325495 4 15
-4.5088491 -4.0186491 -1.6907767 1 1
-6.7664843 -5.4618139 -1.7391682 1 2
-21.544628 -19.202307 0 5 20
-25.01372 -18.247004 -0.3604545 10 18
-8.0639725 -7.1872611 -1.6805484 9 3
-10.121225 -8.1697149 -1.655629 4 4
-21.513288 -21.148428 0.17533383 6 21
-21.942997 -17.71209 -0.16389598 4 19
-10.177439 -9.0709515 -1.4685149 6 5
-14.421104 -10.519905 -1.6663015 3 6
-21.529844 -19.189129 0.67109507 4 24
-25.010489 -18.244646 0.36040795 8 22
-10.193504 -9.0852709 -0.95482659 4 8
-15.628958 -12.615482 -1.6396569 2 7
-21.547316 -21.181877 0.87934864 4 25
-21.968037 -17.7323 0.49278617 3 23
-17.578203 -17.280081 -1.5797514 6 9
-22.237383 -16.221722 -1.6030091 5 10
-20.843414 -18.577328 1.6260322 4 27
-21.670164 -17.491861 1.1345935 3 26
-21.536209 -19.194801 -1.3438189 4 12
-21.701933 -17.517506 -1.4616387 10 11
-26.371925 -21.28706 2.7667177 7 28
-21.555672 -21.190092 -1.2314768 7 13
-22.607058 -16.491392 -0.97718596 5 14
-21.476109 -19.141235 -0.66942012 4 16
-2.7213492 -2.1809916 -1.6262352 1 0
-21.599516 -17.310663 -0.80557507 4 15
-4.5170808 -3.9977806 -1.6886202 1 1
-6.7855086 -5.4381614 -1.7391682 2 2
-21.530651 -19.055408 0 5 20
-26.058842 -18.870384 -0.37456352 5 18
-8.1156492 -7.1826448 -1.6860826 9 3
-10.143489 -8.1293736 -1.654619 4 4
-21.586979 -21.073202 0.17533383 6 21
-10.241798 -9.0643644 -1.4732271 4 5
-14.444835 -10.460157 -1.6648142 3 6
-21.503862 -19.031702 0.66821045 4 24
-28.407507 -20.571159 0.40832263 11 22
-10.261012 -9.0813694 -0.95817494 4 8
-15.679122 -12.565838 -1.6403079 2 7
-21.543875 -21.031124 0.87620687 4 25
-17.655554 -17.235346 -1.5812863 6 9
-22.30681 -16.15337 -1.6039394 5 10
-20.869261 -18.470055 1.6230091 4 27
-21.818415 -17.486097 1.1391526 3 26
-21.525284 -19.050659 -1.3389796 4 12
-21.653854 -17.354212 -1.4543117 15 11
-26.642061 -21.351948 2.7872214 7 28
-21.486513 -20.975128 -1.2233354 7 13
-22.771334 -16.489752 -0.98179269 5 14
-21.512848 -19.039652 -0.66848963 4 16
-2.7317822 -2.1737366 -1.6279256 1 0
-21.588551 -20.928076 -0.52482873 6 17
-21.687965 -17.25757 -0.80662233 8 15
-4.5339003 -3.9845321 -1.6896983 1 1
-6.7983112 -5.4095597 -1.7375994 2 2
-21.527927 -18.919409 0 5 20
-27.865322 -20.030645 -0.39952201 6 18
-8.1733284 -7.1829743 -1.6928467 8 3
-10.165593 -8.0889769 -1.6536087 4 4
-21.562756 -20.903069 0.17454341 6 21
-23.045788 -18.33802 -0.1711725 12 19
-10.321173 -9.0705662 -1.4800813 4 5
-14.484491 -10.411999 -1.665186 3 6
-21.525106 -18.916929 0.66681468 4 24
-28.570076 -20.537249 0.40962648 11 22
-10.343602 -9.0902777 -0.9629184 1 8
-15.713527 -12.503585 -1.6393315 2 7
-21.522415 -20.863962 0.87236691 4 25
-23.036407 -18.330555 0.51386869 11 23
-17.707008 -17.165283 -1.5805188 6 9
-22.37603 -16.084734 -1.6048697 5 10
-20.864614 -18.336468 1.6176603 4 27
-22.004414 -17.509375 1.1456658 4 26
-21.534624 -18.925293 -1.3354433 4 12
-21.695543 -17.263601 -1.4530556 10 11
-26.061445 -22.903605 4.2600651 13 29
-26.825617 -21.345709 2.7986126 7 28
-21.559597 -20.900005 -1.2233354 7 13
-24.695173 -17.751822 -1.0620614 6 14
-21.519098 -18.91165 -0.6666286 4 16
-2.7421975 -2.1664348 -1.6296161 1 0
-21.569273 -20.76383 -0.52259487 6 17
-21.829641 -17.246202 -0.80964774 4 15
-4.5390754 -3.9610832 -1.6864636 1 1
-6.8048415 -5.3760695 -1.7344615 2 2
-21.497396 -18.759983 0 5 20
-28.022978 -19.995979 -0.40077922 6 18
-8.2251539 -7.1777883 -1.6983808 7 3
-10.184425 -8.0460625 -1.6520935 4 4
-21.497271 -20.694517 0.17342752 6 21
-11.20077 -9.7744989 -1.6013151 5 5
-14.517506 -10.359061 -1.6648142 3 6
-21.53376 -18.791718 0.66504669 4 24
-28.742517 -20.509411 0.41106993 11 22
-17.205931 -15.01498 -1.5968652 3 8
-15.782102 -12.468429 -1.6419351 2 7
-21.505819 -20.702745 0.86875975 4 25
-26.448704 -20.895428 0.58835554 4 23
-17.786949 -17.122747 -1.5823097 6 9
-22.432039 -16.006527 -1.6048697 5 10
-20.877346 -18.218889 1.6137067 4 27
-21.52228 -18.781698 -1.330604 4 12
-21.846565 -17.259573 -1.4591266 10 11
-26.365582 -23.00827 4.2966256 14 29
-27.134581 -21.437296 2.8230221 7 28
-21.422228 -20.622276 -1.2114488 7 13
-24.883896 -17.756067 -1.0675058 6 14
-21.488567 -18.752279 -0.66365087 4 16
-2.747267 -2.1541326 -1.6279256 1 0
-21.552706 -20.596214 -0.52036095 6 17
-22.034296 -17.277096 -0.81488407 4 15
-4.5593863 -3.9494643 -1.6886202 1 1
-6.8214135 -5.3486719 -1.7336769 2 2
-21.526709 -18.64702 0 5 20
-27.11352 -19.197443 -0.38676339 6 18
-8.2842703 -7.1760607 -1.7051449 6 3
-10.195112 -7.9939899 -1.649063 4 4
-25.732342 -20.176733 -0.19004959 5 19
-11.227504 -9.7255697 -1.6000301 5 5
-14.558627 -10.308083 -1.665186 3 6
-21.539019 -18.657684 0.66309255 4 24
-29.000301 -20.53336 0.41367757 11 22
-17.263866 -14.954432 -1.5971442 3 8
-15.818286 -12.403121 -1.6409588 2 7
-21.590227 -20.632069 0.8691088 4 25
-26.619532 -20.872379 0.59044981 4 23
-17.838045 -17.046406 -1.5812863 6 9
-22.487295 -15.921892 -1.604637 5 10
-20.898708 -18.103031 1.6102184 4 27
-22.314705 -17.496965 1.1552727 8 26
-21.530571 -18.650368 -1.3268815 4 12
-22.047993 -17.287836 -1.4683378 10 11
-26.524761 -22.976471 4.3088131 14 29
-27.26317 -21.377056 2.8282294 7 28
-25.059736 -17.743284 -1.0722522 6 14
-21.514839 -18.63674 -0.66234815 4 16
-2.7490482 -2.1400759 -1.6245446 1 0
-22.119709 -17.219725 -0.81581491 8 15
-4.5673041 -3.9285011 -1.6864636 1 1
-6.8400421 -5.3248277 -1.7336769 2 2
-21.503725 -18.49612 0 5 20
-8.3302441 -7.1651406 -1.7094493 5 3
-10.207299 -7.9461665 -1.6465378 4 4
-21.592581 -20.490595 0.17300907 6 21
-25.84996 -20.123646 -0.19039831 5 19
-11.252338 -9.6785383 -1.5987449 5 5
-14.604297 -10.264071 -1.6663015 3 6
-21.528221 -18.517191 0.66076624 4 24
-17.331087 -14.907085 -1.5985394 3 8
-15.870921 -12.355176 -1.6419351 2 7
-21.563503 -20.463001 0.86515248 4 25
-26.818462 -20.877604 0.59324217 4 23
-17.888752 -16.975792 -1.5805188 6 9
-22.546005 -15.845597 -1.6048697 5 10
-20.901224 -17.97789 1.6055673 4 27
-23.365913 -18.189869 1.2064011 13 26
-21.498608 -18.491718 -1.3209255 4 12
-22.123964 -17.223038 -1.4693846 10 11
-27.683668 -21.551149 2.8640296 8 28
-21.490973 -20.394173 -1.2070525 7 13
-25.28178 -17.768333 -1.0790925 7 14
-21.48881 -18.483294 -0.65955657 4 16
-2.7589979 -2.1331654 -1.6262352 1 0
-21.587631 -20.350271 -0.51784778 6 17
-4.5744486 -3.908329 -1.6843069 1 1
-6.8483534 -5.294919 -1.7313235 2 2
-26.115246 -18.225023 -0.37074524 5 18
-8.3900185 -7.1682854 -1.7168281 5 3
-10.243011 -7.9195552 -1.6480529 4 4
-21.535254 -20.300896 0.17200941 6 21
-11.284371 -9.6411695 -1.5987449 5 5
-14.621922 -10.204187 -1.6644425 3 6
-26.259565 -18.325739 0.37279406 9 22
-17.386494 -14.854716 -1.5990975 3 8
-15.918114 -12.307355 -1.6425861 2 7
-21.494501 -20.26248 0.85968351 4 25
-9.9891014 -9.4165459 -0.87979996 1 9
-22.572227 -15.75246 -1.6030091 5 10
-20.954655 -17.90329 1.6051022 4 27
-23.517797 -18.183178 1.2111231 13 26
-22.180956 -17.149576 -1.4693846 10 11
-27.922142 -21.58847 2.881279 8 28
-21.558483 -20.322794 -1.2070525 7 13
-24.406271 -17.032383 -1.039307 6 14
-2.7689321 -2.1262121 -1.6279256 1 0
-21.582016 -20.210228 -0.51610255 6 17
-23.765129 -18.248806 -0.87201786 13 15
-4.5844474 -3.8906457 -1.6832286 1 1
-6.8565416 -5.2650127 -1.7289701 2 2
-21.473433 -18.223684 0 30 20
-8.4559336 -7.1762285 -1.7254369 5 3
-10.259776 -7.878294 -1.6465378 4 4
-9.4158573 -8.8173704 0.074973695 1 21
-23.908033 -18.358541 -0.17519434 13 19
-11.322346 -9.6088438 -1.5996016 5 5
-14.64586 -10.148838 -1.6633271 3 6
-21.492014 -18.239452 0.65592754 32 24
-17.450869 -14.809888 -1.6004925 3 8
-15.974648 -12.26664 -1.6442133 2 7
-9.3857651 -8.7891903 0.37422064 1 25
-23.917486 -18.365799 0.52636456 12 23
-22.601366 -15.6616 -1.6013813 5 10
-20.962149 -17.789778 1.6011487 4 27
-23.704763 -18.202454 1.2176362 13 26
-21.483685 -18.232386 -1.3125499 13 12
-22.263052 -17.095388 -1.4710592 5 11
-28.069471 -21.554031 2.8890901 8 28
-9.3761215 -8.78016 -0.52333283 1 13
-21.498112 -18.244627 -0.65611362 24 16
-2.7705712 -2.112138 -1.6245446 1 0
-9.3750095 -8.7178946 -0.22346061 1 17
-23.914537 -18.231188 -0.87515962 9 15
-4.6038918 -3.8795834 -1.6853852 0 1
-6.8748784 -5.2410464 -1.7289701 2 2
-21.564445 -18.171814 0 15 20
-8.5141783 -7.1746831 -1.7322009 6 3
-10.29037 -7.8448377 -1.6470428 4 4
-26.453148 -20.166491 -0.1933275 11 19
-11.361901 -9.5743876 -1.6004584 2 5
-14.691042 -10.104424 -1.6644425 3 6
-21.583075 -18.187511 0.65676498 13 24
-26.406769 -18.162441 0.37312001 18 22
-17.511614 -14.756596 -1.6013297 3 8
-16.00469 -12.201135 -1.6429116 5 7
-27.413279 -20.898443 0.60168916 9 23
-9.3660097 -8.7095261 -0.81967992 1 9
-22.652609 -15.58035 -1.6011487 5 10
-21.072981 -17.757669 1.6048697 4 27
-23.860334 -18.189865 1.2223583 13 26
-21.586922 -18.190754 -1.3149697 13 12
-22.281294 -16.986088 -1.4683378 5 11
-100.38441 -76.527802 10.304648 63 28
-24.436007 -16.806963 -1.0356774 12 14
-21.583075 -18.187511 -0.65676498 8 16
-2.7840753 -2.1063445 -1.6279256 1 0
-22.374153 -16.927586 -0.81651312 12 15
-4.6239882 -3.8676274 -1.6875418 0 1
-6.8909121 -5.2134485 -1.7281857 2 2
-21.676922 -18.131157 0 5 20
-26.466547 -18.061029 -0.37302691 11 18
-8.5646687 -7.1637182 -1.7371202 5 3
-10.334873 -7.8190422 -1.6495682 4 4
-9.3964148 -8.6738024 0.07432276 3 21
-26.590677 -20.117676 -0.19379246 11 19
-11.396914 -9.5326834 -1.6004584 5 5
-14.731264 -10.052759 -1.6648142 3 6
-21.717066 -18.164734 0.65881217 4 24
-26.476456 -18.067793 0.37316656 18 22
-17.565578 -14.692319 -1.6013297 3 8
-16.042938 -12.137586 -1.6422606 2 7
-27.591745 -20.875051 0.60392302 10 23
-22.709557 -15.497223 -1.6011487 5 10
-21.205305 -17.736685 1.6099858 4 27
-24.012894 -18.167404 1.2267548 13 26
-21.687155 -18.139715 -1.317017 4 12
-22.317911 -16.885035 -1.466663 5 11
-100.49251 -76.029488 10.287074 63 28
-9.4034681 -8.6803131 -0.52137887 1 13
-24.444609 -16.68124 -1.0334439 18 14
-21.710932 -18.159603 -0.65862608 4 16
-2.7794521 -2.0883896 -1.6211637 1 0
-22.363041 -16.80286 -0.81406951 8 15
-4.6190114 -3.8375025 -1.681072 1 1
-6.9050279 -5.1882129 -1.7274013 2 2
-21.700008 -18.028496 0 5 20
-26.48987 -17.948481 -0.37251467 5 18
-8.6157408 -7.1580086 -1.7426543 5 3
-10.357574 -7.7823429 -1.649063 4 4
-21.506506 -19.720901 0.16959167 6 21
-26.833128 -20.161539 -0.1950711 11 19
-11.425405 -9.4922943 -1.6000301 5 5
-14.771115 -10.00832 -1.6655577 3 6
-21.694136 -18.023617 0.65629971 4 24
-26.526297 -17.973162 0.37302691 9 22
-17.629551 -14.646737 -1.6027248 3 8
-16.09585 -12.093897 -1.6435624 2 7
-21.471245 -19.688568 0.8478145 4 25
-27.788713 -20.879534 0.60671544 10 23
-10.023835 -9.1915941 -0.87161338 3 9
-22.747602 -15.412869 -1.6002185 5 10
-21.276293 -17.676472 1.6109161 4 27
-23.475496 -17.638723 1.1963056 8 26
-21.682652 -18.014076 -1.3131083 4 12
-21.48315 -19.699486 -1.1875129 7 13
-24.460079 -16.573175 -1.0317687 12 14
-21.681833 -18.013395 -0.65592754 4 16
-2.7929003 -2.0825224 -1.6245446 1 0
-21.534315 -19.601595 -0.50828385 6 17
-22.411655 -16.711222 -0.81360406 12 15
-4.6389899 -3.825449 -1.6832286 1 1
-6.9239979 -5.1628699 -1.7274013 2 2
-21.698048 -17.892855 0 5 20
-8.6815605 -7.1590729 -1.7506481 6 3
-10.382848 -7.7419562 -1.648558 4 4
-21.543146 -19.609634 0.16931269 6 21
-18.338726 -13.674246 -0.13295335 2 19
-11.453983 -9.4452953 -1.5991733 5 5
-12.411364 -8.3432369 -1.3960199 1 6
-21.701431 -17.895645 0.65453172 4 24
-17.683117 -14.582024 -1.6027248 3 8
-16.127285 -12.025289 -1.6422606 2 7
-21.487085 -19.558603 0.84560364 4 25
-18.32021 -13.66044 0.39889219 4 23
-10.054506 -9.1521072 -0.87135756 3 9
-21.424122 -17.666967 1.6171951 4 27
-23.549603 -17.559731 1.1967942 8 26
-21.699207 -17.893812 -1.3101304 4 12
-21.490187 -19.561428 -1.1839306 7 13
-21.692175 -17.888014 -0.65425253 4 16
-2.7968774 -2.0710919 -1.6228542 1 0
-21.528 -19.465696 -0.50660849 6 17
-18.350792 -13.588789 -0.66454417 8 15
-4.6546297 -3.812485 -1.6843069 1 1
-6.9442315 -5.1422138 -1.7281857 1 2
-21.701561 -17.775179 0 5 20
-12.472233 -8.3242378 -0.17456968 14 18
-8.7388859 -7.1577921 -1.7574122 5 3
-10.411652 -7.7098436 -1.649063 2 4
-21.486414 -19.428095 0.16835953 6 21
-11.47601 -9.3996992 -1.5978881 5 5
-21.686407 -17.762768 0.65229845 4 24
-12.47556 -8.3264589 0.17461626 14 22
-17.697416 -14.49549 -1.5996555 3 8
-16.186296 -11.985976 -1.6442133 2 7
-21.495476 -19.436287 0.84339273 4 25
-18.368622 -13.601993 0.39896202 4 23
-10.093682 -9.1267452 -0.87212509 3 9
-21.565998 -17.664143 1.6234741 4 27
-18.365829 -13.599924 0.93105704 5 26
-21.668781 -17.748331 -1.3047327 4 12
-21.513433 -19.452526 -1.1816511 7 13
-21.661657 -17.742496 -0.65155405 3 16
-2.8132136 -2.0672669 -1.6279256 1 0
-21.533722 -19.327888 -0.50507265 5 17
-22.975624 -16.88345 -0.82977843 8 15
-4.6506391 -3.7808201 -1.6778371 1 1
-6.9630322 -5.1167274 -1.7281857 1 2
-21.713802 -17.652624 0 5 20
-8.7895975 -7.1456604 -1.7623315 4 3
-10.436644 -7.6692815 -1.648558 2 4
-21.548546 -19.341194 0.16828978 6 21
-24.970482 -18.349354 -0.18009959 9 19
-11.528901 -9.3726263 -1.6004584 2 5
-21.745161 -17.678118 0.65211236 4 24
-17.765909 -14.443112 -1.6010506 3 8
-16.233334 -11.928931 -1.6445389 2 7
-21.495157 -19.293276 0.84060007 4 25
-24.960655 -18.342133 0.54067558 8 23
-10.147861 -9.1083527 -0.87391591 5 9
-21.711157 -17.650473 1.6295207 4 27
-21.690285 -17.633503 -1.302127 9 12
-18.415226 -13.532278 -1.1976562 3 11
-12.429599 -9.1337891 1.2591966 33 28
-21.483459 -19.282776 -1.1761149 6 13
-24.895119 -16.483971 -1.0426574 12 14
-21.751368 -17.683163 -0.65229845 3 16
-2.8171251 -2.0557897 -1.6262352 1 0
-21.517096 -19.184513 -0.50318778 5 17
-22.992729 -16.778883 -0.82838207 12 15
-4.675139 -3.7750571 -1.6821502 1 1
-6.9704571 -5.0866728 -1.7258322 2 2
-21.843801 -17.638321 0 5 20
-27.573448 -18.126152 -0.38415575 6 18
-8.8470716 -7.1437879 -1.7690954 4 3
-10.445992 -7.6229348 -1.6460326 4 4
-21.517025 -19.18445 0.16754586 6 21
-25.034424 -18.268806 -0.18012284 4 19
-11.544448 -9.3218517 -1.5983164 5 5
-14.946022 -9.8251724 -1.6696473 3 6
-21.884558 -17.67123 0.65453172 4 24
-27.677059 -18.194263 0.38559926 9 22
-17.807497 -14.379107 -1.6004925 3 8
-16.285681 -11.884434 -1.6458406 5 7
-21.496346 -19.166012 0.83815652 4 25
-28.597664 -20.869072 0.61795479 10 23
-10.198866 -9.0932465 -0.87570667 5 9
-22.953909 -15.089373 -1.5997534 5 10
-21.841026 -17.63608 1.6348693 4 27
-24.907557 -18.176224 1.2562268 14 26
-21.667812 -17.496214 -1.2972877 9 12
-12.430835 -9.0713701 1.2562675 26 28
-21.502537 -19.171532 -1.1736724 6 13
-25.170115 -16.546255 -1.0518708 6 14
-21.906336 -17.688816 -0.65518308 4 16
-2.8154762 -2.0395639 -1.6211637 1 0
-21.527037 -19.05892 -0.50186139 5 17
-24.702522 -17.894796 -0.88772672 4 15
-4.6822762 -3.7538967 -1.6799937 1 1
-6.9913464 -5.0646129 -1.7266169 2 2
-22.001978 -17.63953 0 5 20
-8.9058743 -7.1400595 -1.7758596 4 3
-10.488603 -7.5980668 -1.648558 4 4
-21.538939 -19.069456 0.16719715 6 21
-26.095745 -18.904062 -0.18728313 5 19
-11.583121 -9.2864742 -1.5991733 5 5
-14.973555 -9.7685919 -1.6689038 3 6
-22.002266 -17.639759 0.65620667 4 24
-28.055285 -18.302977 0.38997629 10 22
-17.870031 -14.326845 -1.6016086 3 8
-16.323837 -11.825178 -1.6455152 2 7
-21.494263 -19.029903 0.83548015 4 25
-28.722157 -20.806667 0.61907172 5 23
-10.278364 -9.0999298 -0.87979996 3 9
-23.016472 -15.015707 -1.6004511 5 10
-21.983456 -17.62468 1.6409159 4 27
-25.090607 -18.17593 1.2622515 14 26
-21.644579 -17.352993 -1.2922624 9 12
-22.874033 -16.570217 -1.4802703 5 11
-12.42368 -8.9998598 1.2523621 26 28
-21.476562 -19.014233 -1.1686248 6 13
-27.655067 -18.04188 -1.1530794 8 14
-22.389145 -17.94993 -0.66774517 8 16
-2.831408 -2.036073 -1.6262352 1 0
-21.530357 -18.928205 -0.50039542 5 17
-25.134897 -18.074572 -0.90099204 5 15
-4.6802835 -3.7255347 -1.6746023 1 1
-7.012167 -5.0424676 -1.7274013 1 2
-27.57509 -17.852787 -0.38243288 11 18
-8.9709444 -7.1409273 -1.7838533 3 3
-10.515061 -7.561408 -1.648558 2 4
-21.4792 -18.883232 0.16622075 5 21
-27.996389 -20.132277 -0.20041804 6 19
-11.621691 -9.2509375 -1.6000301 2 5
-14.994191 -9.7076054 -1.6674167 1 6
-28.095501 -18.189713 0.38965034 10 22
-17.898081 -14.246984 -1.5996555 3 8
-16.361778 -11.765798 -1.6451898 2 7
-21.488489 -18.891397 0.83268744 4 25
-31.181177 -22.422466 0.67038184 5 23
-18.653456 -16.399006 -1.5917753 6 9
-23.065397 -14.933101 -1.6002185 5 10
-22.132324 -17.617466 1.6474273 4 27
-25.270716 -18.172237 1.2681134 14 26
-21.698771 -17.272356 -1.2918901 9 12
-24.614887 -17.70063 -1.5889198 6 11
-12.429126 -8.9378166 1.2497584 26 28
-21.488773 -18.891647 -1.1656938 6 13
-27.704454 -17.936541 -1.152521 8 14
-2.8322439 -2.0224588 -1.6228542 1 0
-21.541798 -18.811983 -0.49920866 5 17
-25.461515 -18.181648 -0.91053373 5 15
-4.7107415 -3.7243268 -1.681072 1 1
-7.0224662 -5.0146275 -1.7258322 1 2
-23.084846 -18.250952 0 16 20
-27.593765 -17.735298 -0.38187411 17 18
-9.0348825 -7.1430058 -1.7918471 2 3
-10.530391 -7.5195789 -1.6470428 2 4
-21.502537 -18.777697 0.16591853 5 21
-28.160652 -20.109058 -0.20111547 6 19
-11.633585 -9.1975489 -1.5974597 2 5
-15.043052 -9.6685972 -1.6692756 1 6
-23.091148 -18.255934 0.68495995 10 24
-28.872345 -18.557077 0.39956856 10 22
-17.95775 -14.197453 -1.6007717 3 8
-16.426662 -11.730009 -1.6477934 2 7
-21.484762 -18.762177 0.83012748 4 25
-31.265125 -22.325912 0.67059129 5 23
-18.722769 -16.350187 -1.5930545 6 9
-23.145023 -14.875964 -1.6023115 5 10
-22.27207 -17.608368 1.6534739 4 27
-25.431667 -18.160336 1.2731611 9 26
-21.853094 -17.277124 -1.29766 4 12
-24.809984 -17.716402 -1.5977123 6 11
-12.435986 -8.8803329 1.2474802 26 28
-21.436909 -18.720387 -1.1595063 6 13
-27.63936 -17.764603 -1.1473559 8 14
-23.09742 -18.260893 -0.68514603 8 16
-2.8422444 -2.0146556 -1.6245446 1 0
-21.495537 -18.639721 -0.49662569 5 17
-25.374779 -17.986294 -0.90518105 5 15
-4.7115946 -3.6983464 -1.6767588 1 1
-7.043129 -4.9923501 -1.7266169 0 2
-27.672369 -17.649614 -0.38210693 17 18
-9.0690899 -7.1187439 -1.7936919 1 3
-10.563052 -7.4873614 -1.6480529 4 4
-21.510536 -18.652729 0.16547683 5 21
-25.952908 -18.396086 -0.18488862 5 19
-11.678136 -9.1667032 -1.5991733 2 5
-15.093501 -9.6267309 -1.6711345 1 6
-26.542543 -20.834459 0.78517753 21 24
-28.643564 -18.269049 0.39551747 10 22
-18.0072 -14.134677 -1.6007717 3 8
-16.4545 -11.663371 -1.6464915 2 7
-21.480652 -18.626814 0.82745117 4 25
-18.803858 -16.305649 -1.5951011 6 9
-23.217009 -14.807957 -1.6037068 5 10
-22.449625 -17.621738 1.6620785 4 27
-25.638374 -18.173138 1.2803255 15 26
-22.016993 -17.282146 -1.303802 4 12
-25.024847 -17.738253 -1.6075513 6 11
-12.437638 -8.8161163 1.2445511 26 28
-21.465895 -18.614017 -1.1575524 6 13
-27.721422 -17.680901 -1.1481935 8 14
-23.937986 -18.790024 -0.70813 4 16
-2.8522241 -2.0068092 -1.6262352 1 0
-21.524096 -18.533266 -0.49578795 5 17
-4.7275128 -3.6842461 -1.6778371 1 1
-7.0637193 -4.9699936 -1.7274013 0 2
-25.931351 -20.208824 0 7 20
-27.743946 -17.559338 -0.38224664 11 18
-9.1063519 -7.0967641 -1.7961516 0 3
-21.484575 -18.499237 0.16477939 5 21
-11.713197 -9.1283302 -1.5996016 5 5
-15.130376 -9.5761204 -1.6715063 1 6
-26.719189 -20.822803 0.7882483 14 24
-31.853657 -20.160402 0.43886885 13 22
-18.059572 -14.074189 -1.6010506 3 8
-16.511414 -11.617339 -1.6481189 2 7
-25.987268 -18.284498 0.55463749 8 23
-18.872755 -16.250338 -1.5961245 6 9
-23.268555 -14.72683 -1.6037068 5 10
-22.592888 -17.607094 1.6681249 4 27
-24.825644 -17.467186 1.2366873 13 26
-22.140213 -17.254314 -1.3075246 9 12
-25.295691 -17.797909 -1.6209494 6 11
-44.527252 -34.700985 6.9314413 30 29
-12.435729 -8.7497101 1.2412965 28 28
-21.4217 -18.445099 -1.1516905 6 13
-28.549746 -18.069334 -1.1798823 8 14
-23.952959 -18.667025 -0.70664114 9 16
-2.8502953 -1.9906133 -1.6211637 1 0
-25.581675 -17.865946 -0.90809011 10 15
-4.731205 -3.6606498 -1.6746023 1 1
-7.0842395 -4.9475513 -1.7281857 0 2
-26.159914 -20.24057 0 7 20
-29.065088 -18.25371 -0.39956856 6 18
-9.1154394 -7.0528393 -1.793077 0 3
-10.634582 -7.4270692 -1.6510834 4 4
-26.326651 -18.386229 -0.1866322 10 19
-11.754426 -9.0946884 -1.6008868 5 5
-15.156966 -9.5190096 -1.6707628 1 6
-26.905571 -20.817503 0.79159814 14 24
-29.082026 -18.264347 0.39980137 10 22
-18.099125 -14.003738 -1.6002135 3 8
-16.56167 -11.56648 -1.6490953 2 7
-18.956673 -16.207703 -1.5984269 6 9
-23.316439 -14.643394 -1.6034744 5 10
-22.736324 -17.591654 1.6741713 4 27
-24.807825 -17.325499 1.2327795 9 26
-22.235071 -17.203821 -1.309572 4 12
-24.427586 -17.059944 -1.5614958 5 11
-44.324692 -34.295105 6.8812313 30 29
-12.443315 -8.6902676 1.2390183 28 28
-28.588951 -17.954683 -1.178905 8 14
-2.8631852 -1.9847822 -1.6245446 1 0
-21.479176 -18.23501 -0.49180883 16 17
-24.247335 -16.808441 -0.8586362 13 15
-4.7439547 -3.6441123 -1.6746023 1 1
-7.1014671 -4.922792 -1.7281857 0 2
-29.152391 -18.16695 -0.39989451 13 18
-9.1494064 -7.0282011 -1.7949218 0 3
-10.650661 -7.3831201 -1.6495682 4 4
-21.488184 -18.242659 0.16382624 17 21
-11.779794 -9.0487566 -1.6000301 5 5
-15.1732 -9.4555111 -1.6689038 1 6
-23.943161 -18.39216 0.70254683 15 24
-29.586895 -18.437719 0.40585476 11 22
-18.163719 -13.952628 -1.6016086 3 8
-16.588839 -11.499512 -1.6477934 2 7
-21.491642 -18.245594 0.82046938 20 25
-26.357512 -18.271231 0.55980337 13 23
-19.025305 -16.151768 -1.5994503 6 9
-23.374191 -14.566137 -1.6039394 5 10
-22.905264 -17.594891 1.6820782 4 27
-24.845158 -17.222857 1.2316396 9 26
-22.256964 -17.096891 -1.3073385 9 12
-24.506685 -16.988224 -1.5627518 5 11
-12.447363 -8.6286077 1.2364147 28 28
-21.482922 -18.23819 -1.1481082 19 13
-28.607344 -17.827291 -1.1770902 8 14
-23.920961 -18.375107 -0.70189548 18 16
-2.8730822 -1.9768314 -1.6262352 1 0
-21.557981 -18.172813 -0.49215785 16 17
-24.292683 -16.714642 -0.85817081 13 15
-4.7505193 -3.62286 -1.6724457 1 1
-7.1056814 -4.889082 -1.7250478 0 2
-23.956459 -18.26977 0 11 20
-29.661274 -18.340647 -0.40599445 13 18
-9.1267395 -6.9602704 -1.7856979 0 3
-10.695979 -7.359395 -1.6525985 4 4
-21.570078 -18.18301 0.16396573 11 21
-26.447771 -18.197454 -0.18658568 15 19
-11.811306 -9.0075846 -1.6000301 5 5
-15.202724 -9.4003983 -1.6685321 1 6
-23.975414 -18.284225 0.70161635 10 24
-29.603443 -18.304888 0.40520287 11 22
-18.209135 -13.886724 -1.6013297 3 8
-16.638729 -11.448319 -1.6487699 2 7
-26.427715 -18.183655 0.55994296 8 23
-19.081568 -16.08526 -1.5994503 6 9
-23.387529 -14.461362 -1.6013813 5 10
-23.115774 -17.628643 1.6930084 4 27
-22.281555 -16.992449 -1.3052912 9 12
-25.799883 -17.751673 -1.6412557 6 11
-45.068134 -34.370037 6.9592276 30 29
-12.44456 -8.5625105 1.23316 24 28
-21.580065 -18.191427 -1.1498994 6 13
-28.655796 -17.718924 -1.1765319 8 14
-23.984953 -18.2915 -0.70189548 9 16
-2.8829596 -1.968834 -1.6279256 1 0
-21.667295 -18.135954 -0.49320501 5 17
-24.307961 -16.600422 -0.85665804 9 15
-4.7600665 -3.6039288 -1.6713673 1 1
-7.1259451 -4.8664589 -1.7258322 0 2
-26.753126 -20.255257 0 8 20
-29.854671 -18.316475 -0.40776387 6 18
-9.1037149 -6.892581 -1.7764745 0 3
-10.734713 -7.3309627 -1.654619 4 4
-21.685564 -18.151245 0.16436093 5 21
-26.464893 -18.073435 -0.18626022 10 19
-11.829995 -8.9566956 -1.5983164 5 5
-15.238843 -9.3493528 -1.6689038 1 6
-21.153769 -16.015886 0.61740375 4 24
-30.035362 -18.427332 0.4102318 11 22
-18.292498 -13.849568 -1.604399 3 8
-16.698345 -11.403654 -1.6507225 2 7
-21.676752 -18.143869 0.82268029 4 25
-26.444794 -18.05971 0.55896562 4 23
