# .PCD v0.7 - Point Cloud Data file format
VERSION 0.7
FIELDS x y z intensity ring
SIZE 4 4 4 4 2
TYPE F F F F U
COUNT 1 1 1 1 1
WIDTH 1284
HEIGHT 1
VIEWPOINT 0 0 0 1 0 0 0
POINTS 1284
DATA ascii
1.7063638 -12.489171 -1.176672 1 6
4.4196305 -18.580425 0.44441903 25 24
2.5870132 -18.934795 0.22248439 24 22
2.948349 -12.395059 -0.89092964 1 8
2.3226306 -12.434865 -1.032678 1 7
5.3657575 -18.493143 0.56040007 5 25
1.7265596 -12.636988 -0.7427842 4 10
4.4244375 -18.600636 1.1134785 23 27
3.5502436 -19.00724 0.78776741 1 26
4.4030933 -18.510902 -0.88632482 31 12
2.445245 -13.091315 -0.69795239 1 11
4.2656827 -17.93322 2.2633576 3 29
3.4074523 -18.242765 1.5150065 6 28
1.4132855 -4.870904 -0.20663017 3 13
2.5645077 -18.770073 -0.66155487 27 14
4.3873172 -18.444578 5.0801001 15 31
3.4471536 -18.455318 3.4230754 39 30
4.4113021 -18.545412 -0.44358155 24 16
5.3257275 -18.597519 -0.33766916 5 17
0.76585966 -3.2703943 -0.94027889 1 1
0.70105368 -3.8272657 -0.77819347 5 2
4.3477135 -18.565722 0 6 20
2.497685 -18.769258 -0.22043556 23 18
1.1310095 -4.8296666 -0.77171183 7 3
0.89867288 -4.9061294 -0.63487667 5 4
5.3264489 -18.600039 0.11244892 5 21
2.8718305 -12.263367 -1.3567054 5 5
1.6606548 -12.479259 -1.175185 1 6
4.3538308 -18.591845 0.44432598 27 24
2.5003231 -18.789082 0.22066839 23 22
2.9087017 -12.420815 -0.8920458 1 8
5.3352914 -18.630919 0.56400728 3 25
0.84597653 -4.618444 0.081956498 1 23
1.456112 -5.084765 -0.33897498 1 9
1.6829627 -12.646895 -0.74301672 4 10
4.3558378 -18.600414 1.1125485 23 27
4.3141532 -23.552279 0.97550935 2 26
4.3375378 -18.522268 -0.88613874 29 12
2.3995309 -13.099771 -0.69795239 1 11
3.3401577 -18.23494 1.5133792 6 28
5.2847137 -18.4543 -0.78206837 17 13
2.4905319 -18.715506 -0.65932125 27 14
4.3211422 -18.452255 5.0780296 18 31
3.3798726 -18.451756 3.4202054 39 30
4.3447132 -18.55291 -0.44339547 22 16
5.2705674 -18.650633 -0.33829746 8 17
3.3919957 -18.889744 -0.55853826 22 15
0.72242773 -3.1341686 -0.90038174 4 1
0.68353069 -3.8065262 -0.77348667 3 2
2.415714 -18.650932 -0.2189455 21 18
0.87663305 -4.881897 -0.6313411 4 4
5.2723694 -18.657009 0.11268139 5 21
3.3969092 -18.917109 -0.11170499 18 19
2.8290069 -12.273317 -1.3567054 5 5
1.6247585 -12.544225 -1.1807616 1 6
4.2844181 -18.58745 0.44386074 25 24
2.4208517 -18.690598 0.21941115 23 22
3.1449602 -13.644044 -0.97910184 1 8
2.2364671 -12.4547 -1.0330034 3 7
5.2615285 -18.618647 0.56307638 5 25
3.4021041 -18.946037 0.33599374 5 23
1.6382946 -12.648733 -0.7427842 4 10
4.2872977 -18.599943 1.1116182 23 27
4.2710633 -18.529512 -0.88576651 27 12
2.3559089 -13.119863 -0.69858038 1 11
4.3026795 -18.666674 2.3520784 34 29
3.2757826 -18.242563 1.5130539 6 28
5.218092 -18.464941 -0.78174269 11 13
2.4102981 -18.609118 -0.65527296 30 14
4.2523675 -18.448402 5.0728536 18 31
3.314054 -18.455694 3.4187706 39 30
4.2754359 -18.548481 -0.44293019 17 16
5.2021742 -18.669827 -0.33829746 5 17
3.3185847 -18.878422 -0.55784005 16 15
0.7211526 -3.181875 -0.91332138 3 1
0.66889536 -3.8051429 -0.77270222 2 2
4.2076783 -18.565149 0 18 20
2.3468394 -18.655691 -0.21889894 21 18
1.1051573 -4.876183 -0.77786094 12 3
0.86285597 -4.9085259 -0.63437158 1 4
5.1996584 -18.660797 0.11258841 5 21
3.3275514 -18.929432 -0.11170499 12 19
2.7831249 -12.279725 -1.3562771 3 5
1.5742968 -12.514531 -1.1774155 1 6
4.210959 -18.579626 0.44330242 25 24
2.3483369 -18.667595 0.21903862 23 22
2.8770773 -12.694263 -0.91018248 1 8
2.1914933 -12.46674 -1.0333289 1 7
5.2114968 -18.703283 0.56505454 3 25
3.3277931 -18.930807 0.33550507 5 23
3.7983394 -13.631674 -0.90691799 1 9
1.5914251 -12.650689 -0.74255162 4 10
4.2129178 -18.588268 1.1099902 21 27
3.333153 -18.961296 0.78434801 9 26
4.2075372 -18.564526 -0.88669711 21 12
2.311264 -13.14808 -0.69962716 1 11
3.2088981 -18.254448 1.5130539 6 28
5.1460886 -18.468544 -0.78109139 20 13
2.3445709 -18.637659 -0.65597099 30 14
4.1838684 -18.460096 5.0718184 18 31
3.2457068 -18.46384 3.4180532 39 30
1.1782553 -5.1987071 -0.12403907 6 16
0.090522848 -0.52516437 -0.24849954 10 0
5.139173 -18.683121 -0.33822763 5 17
3.2559624 -18.889322 -0.55784005 18 15
0.7248593 -3.2481594 -0.93165249 3 1
0.65360814 -3.7918787 -0.76956433 5 2
4.1617718 -18.649273 0 18 20
2.2849612 -18.663372 -0.21889894 21 18
1.0898417 -4.8836784 -0.77847576 8 3
2.1744006 -12.614689 -1.6293652 4 4
5.1451731 -18.704933 0.11275114 5 21
3.2634013 -18.93248 -0.1116585 18 19
1.5361758 -12.547357 -1.1800181 1 6
4.1658711 -18.667643 0.44507039 19 24
2.2878776 -18.687193 0.21917833 23 22
2.8419182 -12.73489 -0.91241467 1 8
2.1934807 -12.725382 -1.0541582 1 7
3.267715 -18.957504 0.33578432 3 23
1.3837291 -5.0304551 -0.33437005 0 9
4.1756053 -18.711264 1.1165018 19 27
4.1650963 -18.664171 -0.89079183 25 12
2.2683287 -13.15961 -0.69983649 1 11
3.1490228 -18.268917 1.5133792 6 28
5.082695 -18.477798 -0.78076571 23 13
2.2822666 -18.641363 -0.6558314 30 14
4.1201043 -18.462557 5.0687127 15 31
3.1831226 -18.466747 3.4166179 35 30
1.1610091 -5.2025857 -0.12403907 6 16
0.086879209 -0.5147531 -0.24342814 10 0
3.1880128 -18.888746 -0.557491 7 15
0.97365332 -4.4358096 -1.2713174 7 1
0.64232677 -3.8057399 -0.7719177 1 2
4.1052256 -18.702755 0 22 20
2.220274 -18.675205 -0.2189455 21 18
1.0736358 -4.891314 -0.7790907 12 3
2.1296947 -12.618289 -1.6288601 4 4
5.0651875 -18.668734 0.11242567 5 21
3.1979625 -18.947699 -0.11168174 6 19
2.6960657 -12.282845 -1.3545636 4 5
1.4923693 -12.552642 -1.1800181 1 6
4.1126885 -18.736755 0.44637316 25 24
2.2212181 -18.683147 0.21903862 20 22
2.7991598 -12.752527 -0.91297269 1 8
2.1410873 -12.685788 -1.0502527 1 7
5.0777869 -18.715172 0.56435639 3 25
3.1988606 -18.95302 0.33550507 1 23
4.11198 -18.733526 1.116967 21 27
3.2080035 -19.007191 0.78532499 1 26
4.1076322 -18.713718 -0.89246696 19 12
2.1505837 -12.742054 -0.67722732 1 11
3.9435437 -17.966158 2.2584829 3 29
3.083245 -18.268005 1.512403 6 28
5.0118871 -18.472284 -0.77978873 14 13
2.2162402 -18.641275 -0.65555215 30 14
4.0531492 -18.465502 5.0656066 15 31
3.1166799 -18.466105 3.4144657 35 30
4.1118307 -18.732847 -0.44628006 16 16
0.085081771 -0.51505321 -0.24342814 10 0
0.7167936 -3.3209145 -0.9510619 5 1
0.62903768 -3.8079591 -0.7719177 3 2
4.0635433 -18.82645 0 11 20
2.1536939 -18.670923 -0.21880582 21 18
1.0573884 -4.8988948 -0.77970558 21 3
2.087574 -12.637392 -1.6303754 4 4
5.0103273 -18.724941 0.11265814 5 21
2.6531723 -12.292182 -1.3545636 4 5
1.4471722 -12.545905 -1.1789026 2 6
4.0632877 -18.825266 0.44814116 12 24
4.0738497 -18.874201 -1.3502063 2 8
2.0915921 -12.661716 -1.047649 1 7
4.9845214 -18.628498 0.56121463 12 25
2.1529422 -18.664406 -1.0941765 3 10
4.0794172 -18.899996 1.1260366 9 27
4.0701008 -18.856833 -0.89860904 20 12
2.0950229 -12.682486 -0.6736685 1 11
3.8799655 -17.975933 2.2579956 3 29
3.0162072 -18.258989 1.5107757 6 28
1.3915457 -5.2005811 -0.21933086 1 13
2.1516116 -18.65287 -0.65569174 30 14
3.9886649 -18.479538 5.0656066 18 31
3.0515578 -18.47299 3.4137483 35 30
4.0725679 -18.868263 -0.44916472 16 16
0.083861791 -0.51892591 -0.24511862 10 0
3.0586176 -18.926331 -0.55795646 1 15
0.70839554 -3.3384686 -0.95537513 14 1
0.60009813 -3.7133296 -0.75230598 1 2
4.0085969 -18.891386 0 19 20
2.0880642 -18.674353 -0.21875925 21 18
1.0419229 -4.9102888 -0.78093547 21 3
2.0447156 -12.652436 -1.6313856 4 4
3.064328 -18.961664 -0.11163525 2 19
4.0158129 -18.925394 0.45018831 4 24
2.0813971 -18.614727 0.21806078 6 22
3.9971757 -18.837563 -1.346579 2 8
4.9143662 -18.626451 0.56063277 15 25
4.8615737 -18.426357 -1.2213333 3 9
4.0183935 -18.937557 1.127432 6 27
3.0675783 -18.981777 0.78337103 5 26
4.0025964 -18.86311 -0.89823681 19 12
2.0966249 -12.973643 -0.68874127 1 11
3.813899 -17.973831 2.2560456 3 29
2.9524546 -18.269407 1.5107757 6 28
4.8746467 -18.475906 -0.77848607 11 13
2.0851567 -18.64835 -0.65527296 30 14
3.9217308 -18.482012 5.062501 18 31
2.9870582 -18.48353 3.4137483 26 30
4.0041919 -18.870628 -0.44888559 16 16
0.083181664 -0.52637708 -0.24849954 10 0
3.9409978 -18.897434 0 11 20
2.0232983 -18.685503 -0.21880582 21 18
1.0255839 -4.9177651 -0.78155035 24 3
1.9974424 -12.639899 -1.6288601 4 4
4.8281312 -18.562035 0.11147251 8 21
1.0408829 -4.9911256 -0.54919374 22 5
1.359553 -12.555702 -1.1789026 2 6
1.1249949 -5.3944502 0.12822643 1 24
4.8231502 -18.542885 0.55760735 9 25
2.9964681 -18.961777 0.3350862 3 23
4.8062696 -18.477985 -1.2236357 3 9
2.018723 -18.64325 -1.0920835 24 10
3.9465599 -18.924105 1.1258041 6 27
3.003798 -19.00816 0.78402227 1 26
3.9375448 -18.880875 -0.89842296 4 12
2.0126698 -12.736259 -0.67576194 1 11
2.8874218 -18.271727 1.5101248 6 28
4.8081136 -18.485075 -0.77816045 28 13
2.0196209 -18.651541 -0.65513337 30 14
3.8556168 -18.488024 5.06043 18 31
2.9415634 -18.614336 3.4359899 9 30
3.9399314 -18.892319 -0.44907168 3 16
0.080790326 -0.52308148 -0.2468091 10 0
2.9190888 -18.899805 -0.5565601 5 15
0.77399158 -3.7772865 -1.0793798 2 1
0.57116604 -3.6980467 -0.74838364 5 2
1.957642 -18.688473 -0.21875925 21 18
1.0115844 -4.9368033 -0.78400999 16 3
1.9539125 -12.650716 -1.6293652 4 4
1.2695527 -4.951757 0.029710507 4 21
2.9312654 -18.978642 -0.111612 4 19
1.3148854 -12.552449 -1.1781591 2 6
1.1077627 -5.4061794 0.12841254 2 24
1.9605588 -18.71632 0.2190852 27 22
3.051764 -14.893428 -1.0630887 1 8
4.7544198 -18.544115 0.5571419 14 25
2.9284267 -18.960264 0.33487678 5 23
4.7476859 -18.517849 -1.2251707 3 9
1.952799 -18.642241 -1.0916183 27 10
3.880476 -18.937765 1.1258041 6 27
2.9325457 -18.986931 0.78271967 1 26
3.8756223 -18.914078 -0.89935356 2 12
1.9657588 -12.727416 -0.67492455 1 11
3.7640367 -18.369509 2.3023558 7 29
2.8242297 -18.285635 1.5104502 6 28
4.7395868 -18.486259 -0.77750909 11 13
1.9544997 -18.658478 -0.65513337 30 14
3.788729 -18.490015 5.0573244 18 31
3.8771696 -18.921629 -0.44944391 1 16
0.079504825 -0.52694494 -0.24849954 10 0
4.6801553 -18.522976 -0.3334806 16 17
2.8560827 -18.929647 -0.5571419 3 15
0.72203982 -3.5873797 -1.0243864 1 1
0.55123222 -3.6534767 -0.73896998 15 2
3.8097622 -18.928408 0 2 20
1.8919938 -18.691212 -0.21871267 10 18
0.99278611 -4.9325547 -0.78278011 22 3
1.9109263 -12.665307 -1.6303754 4 4
4.6856885 -18.544874 0.11117029 22 21
2.8650012 -18.988758 -0.111612 4 19
1.0107214 -5.0216641 -0.55176407 5 5
1.2758756 -12.604513 -1.1826204 1 6
3.8103094 -18.931126 0.4493508 4 24
1.8936052 -18.707132 0.21889894 16 22
2.5100346 -12.470845 -0.88953459 1 8
4.6867228 -18.548969 0.55679286 22 25
4.6722627 -18.491739 -1.2223567 3 9
1.887313 -18.64497 -1.0913858 24 10
3.8135612 -18.947283 1.1255715 11 27
3.8095779 -18.927492 -0.89935356 2 12
2.0095203 -13.318772 -0.70590746 1 11
2.7621694 -18.307207 1.5114266 6 28
1.287469 -5.0955057 -0.21412031 5 13
1.8893592 -18.665186 -0.65513337 30 14
3.7218781 -18.491764 5.0542188 18 31
3.8110988 -18.935047 -0.44944391 1 16
0.078721613 -0.53439236 -0.2518805 10 0
4.6145029 -18.53532 -0.33341077 22 17
2.7923186 -18.955326 -0.55760735 3 15
0.54705018 -3.7135854 -0.75073701 6 2
1.8275151 -18.705666 -0.21880582 8 18
0.97402948 -4.9282355 -0.78155035 21 3
1.8655475 -12.664049 -1.6293652 4 4
4.6170607 -18.545593 0.11107731 16 21
2.7969513 -18.986774 -0.11154226 4 19
0.99549943 -5.0368657 -0.55304921 3 5
1.8170171 -18.598211 -1.7443745 3 6
3.7473052 -18.960003 0.44972304 2 24
1.8294595 -18.725569 0.21903862 10 22
2.4688087 -12.491276 -0.89037168 1 8
4.6161504 -18.541939 0.55609465 19 25
2.7959898 -18.980247 0.33487678 3 23
4.6018996 -18.484695 -1.2208216 3 9
1.8229944 -18.659393 -1.0918509 27 10
3.7435274 -18.940889 1.1244087 6 27
0.68556452 -4.6538734 0.1916499 2 26
1.873365 -12.717117 -0.6736685 1 11
3.6349335 -18.391443 2.3018682 30 29
2.6976669 -18.312794 1.5111011 6 28
1.2735364 -5.1154819 -0.21477163 3 13
1.8245821 -18.675644 -0.65527296 30 14
3.6573064 -18.504642 5.0542188 18 31
3.3360295 -22.646242 4.1735549 7 30
0.072817624 -0.50594431 -0.23835671 10 0
4.5501542 -18.538868 -0.33320135 13 17
0.6080178 -3.1308959 -0.89283365 29 1
0.53193903 -3.6959674 -0.74681467 3 2
3.6701586 -18.898928 0 4 20
0.95843542 -4.935318 -0.78216529 7 3
1.2146829 -4.949029 0.029617514 4 21
0.97272629 -5.0089068 -0.54962212 6 5
3.6836503 -18.968399 0.44962999 2 24
1.7786263 -18.850994 0.22043556 33 22
2.7073507 -18.810951 -1.5514579 2 7
4.5527334 -18.549376 0.55586195 21 25
2.7307565 -18.973577 0.33459753 3 23
3.0438621 -12.401724 -0.81840074 1 9
1.7599839 -18.65341 -1.0911533 24 10
3.6791759 -18.94536 1.1239436 9 27
0.66728163 -4.6363416 0.19083574 6 26
1.8328918 -12.735121 -0.67429656 1 11
3.5708997 -18.387808 2.2999187 22 29
2.6369267 -18.321638 1.5111011 6 28
4.5404067 -18.499153 -0.77604365 22 13
1.7622675 -18.677614 -0.65513337 30 14
3.5922415 -18.497705 5.0490422 18 31
3.2575524 -22.633808 4.16925 7 30
3.672215 -18.909515 -0.4482342 1 16
1.2470437 -5.1586013 -0.092637375 4 17
2.6560042 -18.922419 -0.55609465 20 15
0.59420031 -3.1178639 -0.88852042 19 1
0.52339554 -3.7288754 -0.75309044 10 2
4.2923474 -22.522633 0 3 20
1.7149814 -18.880987 -0.22071496 12 18
1.7351788 -12.362096 -1.5889593 1 4
4.4841385 -18.549376 0.11091457 24 21
2.6637559 -18.977644 -0.11137953 22 19
0.94927901 -4.9810185 -0.54619503 9 5
1.6925424 -18.633945 -1.7466052 9 6
3.6084294 -18.934006 0.44851336 2 24
2.8461282 -14.93409 -1.0630887 1 8
2.6582937 -18.938728 -1.5612217 2 7
4.4851346 -18.553495 0.55551285 21 25
2.9986758 -12.404514 -0.81788909 1 9
1.694858 -18.659439 -1.0911533 24 10
3.6100287 -18.942396 1.1230134 9 27
0.6538707 -4.658432 0.1916499 1 26
4.4814372 -23.514818 -1.1150719 3 12
1.9405602 -13.825314 -0.73165673 1 11
3.4940546 -18.333862 2.2916312 18 29
2.5735073 -18.334679 1.5114266 6 28
4.4701672 -18.491579 -0.77506667 27 13
1.6963336 -18.675686 -0.65485412 30 14
3.5262012 -18.502541 5.0469713 21 31
3.1774282 -22.637247 4.1678152 7 30
4.487329 -23.545731 -0.55775708 2 16
0.064369962 -0.47052264 -0.221452 10 0
4.414134 -18.542946 -0.33271268 24 17
2.5818093 -18.872152 -0.55434924 18 15
0.58331364 -3.1199191 -0.88852042 14 1
0.50771827 -3.7112491 -0.7491681 15 2
1.652197 -18.92272 -0.22113402 11 18
2.3004496 -12.304215 -1.9474193 1 3
1.7016985 -12.438841 -1.5980506 3 4
4.415658 -18.549347 0.11082157 22 21
2.5790637 -18.852083 -0.11058911 15 19
0.929694 -4.9725738 -0.54490983 11 5
1.6264499 -18.627836 -1.7454897 9 6
3.5459919 -18.966139 0.44897863 6 24
1.6508056 -18.906784 0.22094777 6 22
2.3290522 -12.4572 -0.88618624 1 8
2.5662327 -18.758293 -1.5455996 2 7
4.4184937 -18.56126 0.55528015 21 25
2.5776298 -18.841604 0.33194476 17 23
2.9544342 -12.411021 -0.81763327 1 9
1.6304106 -18.673199 -1.0916183 24 10
3.5416856 -18.943106 1.1223158 8 27
3.5423753 -18.946796 -0.89786458 2 12
1.7433978 -12.743649 -0.67408723 1 11
3.4417117 -18.408384 2.2994308 30 29
2.5089531 -18.3396 1.5111011 6 28
4.4074445 -18.514845 -0.77539235 27 13
1.6318306 -18.689461 -0.65513337 30 14
3.4608855 -18.510939 5.0459361 21 31
3.0946586 -22.620907 4.1627922 7 30
3.5349679 -18.907177 -0.44758284 1 16
4.3484697 -18.554346 -0.33264288 24 17
2.4979632 -18.746298 -0.55039287 17 15
0.56686229 -3.0916259 -0.87989402 7 1
0.49165243 -3.6896713 -0.7444613 11 2
0.98397678 -5.366538 0 1 20
1.5834641 -18.896486 -0.22076151 14 18
2.2624767 -12.339384 -1.9517238 1 3
4.3499713 -18.560753 0.11079833 24 21
2.4984505 -18.749954 -0.10993817 18 19
0.91448301 -4.987524 -0.54619503 3 5
1.5604209 -18.621496 -1.7443745 9 6
1.5837981 -18.900473 0.22080807 6 22
2.2913127 -12.496653 -0.8884185 1 8
2.491262 -18.696007 -1.5397415 2 7
4.3491158 -18.557104 0.55469829 21 25
2.5002251 -18.763273 0.33040896 16 23
3.2153208 -13.71935 -0.90308052 1 9
1.5645539 -18.670818 -1.0911533 24 10
3.4741015 -18.947498 1.1218506 6 27
2.504868 -18.798117 0.77262431 14 26
3.3387706 -18.209414 2.2731071 10 29
2.4454491 -18.3522 1.5114266 6 28
4.3391433 -18.514551 -0.77474105 30 13
1.5655824 -18.683092 -0.65471452 30 14
3.3948572 -18.515306 5.0438657 21 31
3.0187986 -22.654978 4.1670971 7 30
4.2833171 -18.553076 -0.33236364 24 17
2.4223943 -18.651388 -0.54736745 17 15
0.47941411 -3.6912816 -0.7444613 11 2
1.5227159 -18.925554 -0.2210409 20 18
1.6169918 -12.450137 -1.5980506 3 4
4.2829981 -18.551693 0.11065885 11 21
2.422864 -18.655005 -0.10933372 18 19
2.223366 -12.356941 -1.3524216 6 5
1.4989794 -18.630539 -1.7447462 9 6
1.5217538 -18.913595 0.22090122 6 22
2.2470324 -12.488473 -0.88730234 1 8
2.4092233 -18.549978 -1.5270486 2 7
4.2839556 -18.555841 0.55423284 21 25
2.4240811 -18.664377 0.32852411 16 23
3.1698074 -13.729938 -0.90308052 1 9
1.5029496 -18.679882 -1.0913858 24 10
3.409128 -18.947124 1.1211529 8 27
2.4270735 -18.687418 0.76773936 17 26
3.3956389 -18.872156 -0.89321148 25 12
2.4206133 -18.637676 -0.98496282 30 11
3.3043799 -18.36496 2.2911439 29 29
2.3835495 -18.352301 1.5107757 6 28
4.2741256 -18.513262 -0.77408969 27 13
1.5036173 -18.688181 -0.65471452 30 14
3.3320704 -18.518856 5.0417953 21 31
3.4005253 -18.899313 -0.44683838 18 16
4.2099757 -18.54525 -0.33194476 22 17
2.3505142 -18.632372 -0.54655296 17 15
0.46735442 -3.7046878 -0.74681467 4 2
3.3314404 -18.91283 0 18 20
1.4511967 -18.903091 -0.22071496 19 18
0.67194414 -3.814676 -0.6026116 1 3
1.5703555 -12.448106 -1.5970405 3 4
1.1936522 -5.2581248 0.031337842 6 21
2.3559756 -18.675665 -0.10940348 16 19
1.4309895 -18.639875 -1.7451179 9 6
3.3381701 -18.951035 0.44776893 6 24
1.4511967 -18.903091 0.22071496 6 22
2.20609 -12.524133 -0.88925552 1 8
2.3287435 -18.459797 -1.5189121 2 7
4.2176867 -18.579218 0.55446559 14 25
2.3561571 -18.677103 0.32859391 14 23
3.0514181 -13.44172 -0.88338161 1 9
1.4344741 -18.685265 -1.0913858 24 10
3.3396599 -18.959494 1.1211529 19 27
2.3585644 -18.696186 0.76773936 15 26
3.3264458 -18.884476 -0.89321148 19 12
2.3497868 -18.626606 -0.9839161 25 11
3.2391124 -18.388678 2.2926061 29 29
2.3152709 -18.353003 1.5101248 6 28
4.2212839 -18.595064 -0.77685785 16 13
1.4344994 -18.685595 -0.6544354 27 14
3.2621615 -18.519529 5.0386891 17 31
2.3724751 -18.806456 3.4560792 49 30
3.330539 -18.907713 -0.44674534 16 16
4.16852 -18.64888 -0.33355039 16 17
2.289201 -18.644037 -0.54666936 17 15
0.53827482 -3.1162779 -0.8852855 6 1
3.2673428 -18.915892 0 18 20
1.5300342 -12.461122 -1.5980506 3 4
1.029619 -4.6062493 0.027432235 8 21
2.2935438 -18.679405 -0.10938023 18 19
2.1377213 -12.376081 -1.3528501 27 5
1.3688775 -18.640549 -1.7447462 9 6
1.3882103 -18.903811 0.22066839 10 22
2.3370576 -13.530116 -0.96012813 1 8
1.5484402 -12.611027 -1.0372343 1 7
4.1804733 -18.702356 0.5577237 17 25
2.2932332 -18.676874 0.32845432 16 23
3.0033433 -13.436182 -0.88235825 1 9
1.3713331 -18.673988 -1.0904555 21 10
3.2740505 -18.954723 1.1202228 6 27
2.2960651 -18.699938 0.76757658 15 26
3.2624438 -18.887529 -0.89283925 21 12
2.288492 -18.63826 -0.98412544 25 11
3.1578424 -18.28195 2.277982 10 29
2.2543969 -18.36058 1.5101248 6 28
4.1700583 -18.655762 -0.77881175 28 13
1.3725271 -18.690248 -0.6544354 27 14
3.199415 -18.522631 5.0366187 17 31
2.310097 -18.814219 3.4560792 40 30
3.2664587 -18.910772 -0.44655925 18 16
4.1085505 -18.686756 -0.33396927 11 17
2.2226861 -18.640001 -0.54632026 17 15
0.53895652 -3.1865015 -0.90469497 5 1
3.1999598 -18.919294 0 13 20
1.3194247 -18.868645 -0.22020273 21 18
0.64332634 -3.8035729 -0.60015196 4 3
1.4879365 -12.478207 -1.5995659 3 4
1.0152518 -4.6176291 0.02747873 4 21
2.2283261 -18.687298 -0.10938023 18 19
1.3035233 -18.641243 -1.7443745 9 6
1.3157977 -18.816774 0.2195974 10 22
2.1820111 -12.900822 -0.91492587 1 8
1.5020496 -12.596562 -1.0356071 1 7
4.1228914 -18.751982 0.55877095 14 25
2.2275505 -18.680794 0.32838446 13 23
4.1230502 -18.752705 -1.2305433 3 9
1.3064185 -18.682648 -1.0906881 21 10
0.95496768 -5.6461067 0.33348542 1 27
2.2303023 -18.703873 0.76741374 15 26
3.1938283 -18.883043 -0.89209473 6 12
2.2229447 -18.64217 -0.9839161 25 11
3.120491 -18.449448 2.2974811 41 29
2.1898203 -18.36438 1.5097994 6 28
4.1255093 -18.763889 -0.78271967 11 13
1.307835 -18.702904 -0.65471452 27 14
3.1328063 -18.522259 5.0335131 17 31
3.1990941 -18.914175 -0.44637316 7 16
2.1548128 -18.651995 -0.54643661 19 15
0.51281959 -3.1010482 -0.87989402 6 1
0.43078491 -3.7288611 -0.75073701 11 2
1.2460304 -18.809496 -0.21945772 14 18
0.62809187 -3.7981062 -0.59892213 2 3
1.4412822 -12.475695 -1.5985558 5 4
4.0726757 -18.852789 0.1121002 11 21
2.1593611 -18.691364 -0.10935697 16 19
2.0465112 -12.375366 -1.3511364 177 5
1.2351927 -18.645893 -1.7443745 9 6
1.2423291 -18.753622 0.21880582 10 22
2.1392713 -12.936291 -0.91687912 1 8
4.0760865 -18.868578 0.56179637 5 25
2.1397913 -18.521969 0.32545248 4 23
4.0812635 -18.892544 -1.2387297 3 9
1.2384641 -18.695278 -1.0911533 21 10
2.1608186 -18.703979 0.76708812 15 26
2.1536877 -18.642256 -0.98349744 25 11
3.0411913 -18.390253 2.2887065 18 29
2.1211257 -18.360399 1.5088229 6 28
4.0702128 -18.841389 -0.78532499 20 13
1.2390141 -18.703579 -0.65457493 27 14
3.0642688 -18.529802 5.0324774 17 31
2.6121156 -22.610394 4.149878 6 30
3.1330123 -18.945498 -0.44683838 3 16
2.0892444 -18.655428 -0.54632026 17 15
0.51060396 -3.1560543 -0.89499021 14 1
0.42955208 -3.8355865 -0.7719177 10 2
3.0670495 -18.957502 0 4 20
0.6129359 -3.7885706 -0.59707743 3 3
1.400373 -12.504309 -1.6015862 1 4
4.0101633 -18.882544 0.11219319 19 21
2.0941002 -18.698788 -0.10935697 16 19
2.0020287 -12.374584 -1.3502797 221 5
1.1705947 -18.658041 -1.7451179 9 6
3.0719676 -18.9879 0.44758284 6 24
1.1841195 -18.87361 0.22015618 10 22
2.0380197 -12.597045 -0.89232481 1 8
1.4100972 -12.59114 -1.0343053 1 7
2.0960422 -18.716127 0.32873353 17 23
4.0036788 -18.852011 -1.2351481 3 9
1.1731952 -18.69949 -1.0911533 21 10
3.0695145 -18.972738 1.1192925 6 27
2.096848 -18.723324 0.76757658 15 26
2.0560987 -12.708792 -0.59969312 1 12
2.0885983 -18.649658 -0.98349744 25 11
2.9795129 -18.416435 2.2906563 29 29
2.0556893 -18.355806 1.5078466 6 28
3.9986048 -18.828117 -0.78418517 17 13
1.1739665 -18.711782 -0.65471452 30 14
2.9977152 -18.528944 5.0293717 17 31
2.5432446 -22.709318 4.1663799 7 30
3.0655811 -18.948425 -0.44665229 3 16
3.9478338 -18.880749 -0.33669186 8 17
2.03106 -18.665874 -0.54643661 17 15
0.50189304 -3.1652513 -0.89714682 11 1
0.41495463 -3.8135216 -0.7672109 5 2
3.0062261 -18.959143 0 2 20
1.1281524 -18.933134 -0.22080807 65 18
0.60226893 -3.7982848 -0.59830725 4 3
3.9459121 -18.871557 0.1120537 8 21
2.0349145 -18.701298 -0.10933372 16 19
1.962521 -12.376884 -1.3498514 217 5
1.1117375 -18.657652 -1.7447462 9 6
1.1281524 -18.933134 0.22080807 10 22
2.0040598 -12.638855 -0.89483607 1 8
1.3713973 -12.603434 -1.0349561 1 7
3.9614937 -18.946077 0.56330907 1 25
2.0346389 -18.698765 0.32831466 16 23
1.1139694 -18.695108 -1.0906881 24 10
3.0080202 -18.970457 1.1185949 17 27
2.0375855 -18.725845 0.76741374 15 26
2.0167894 -12.719135 -0.59987926 1 12
2.0299995 -18.656128 -0.98349744 25 11
2.9197772 -18.41394 2.2891939 21 29
1.998014 -18.362175 1.5078466 6 28
3.9508882 -18.895355 -0.78646475 2 13
1.1147016 -18.707396 -0.6544354 27 14
2.937676 -18.526823 5.0262656 17 31
2.4723158 -22.721109 4.1670971 7 30
1.9654725 -18.668875 -0.54632026 17 15
0.49969044 -3.2240813 -0.91332138 6 1
0.39465883 -3.7486336 -0.7538749 15 2
1.0627283 -18.948938 -0.22094777 96 18
0.58779597 -3.7925522 -0.59707743 2 3
3.875989 -18.865625 0.11193746 8 21
1.9683657 -18.696356 -0.10926399 16 19
1.9211324 -12.395449 -1.3511364 116 5
1.0466031 -18.661419 -1.7447462 9 6
0.84581774 -5.4573488 0.12850559 4 24
1.0620562 -18.936956 0.22080807 10 22
2.1640506 -13.962794 -0.98803067 1 8
1.9639596 -18.654505 -1.5312796 2 7
3.8921163 -18.944122 0.56284368 1 25
1.9693551 -18.705755 0.32831466 13 23
2.5948126 -12.629748 -0.8263315 1 9
1.0489277 -18.702868 -1.0909206 21 10
2.9405587 -18.972946 1.1181297 10 27
1.9713703 -18.724895 0.76708812 15 26
2.9454105 -19.004253 -0.89581722 2 12
1.9648646 -18.663101 -0.98349744 25 11
2.828119 -18.247469 2.2672575 7 29
1.9359924 -18.388861 1.5094738 6 28
3.8849065 -18.909031 -0.78646475 2 13
1.0496174 -18.715164 -0.65457493 30 14
2.872395 -18.533144 5.0252304 17 31
2.3917527 -22.717861 4.1649451 7 30
2.9343324 -18.932774 -0.44581485 5 16
3.8151333 -18.903925 -0.336622 2 17
1.8986747 -18.659712 -0.54585475 10 15
0.48439652 -3.1991463 -0.90577322 11 1
0.38157117 -3.7499886 -0.7538749 10 2
0.99636716 -18.948538 -0.22090122 51 18
0.57159525 -3.7750411 -0.59400284 2 3
1.2753303 -12.533635 -1.6036066 99 4
3.8085287 -18.871199 0.11189097 8 21
1.9039006 -18.711071 -0.10931048 7 19
1.8796384 -12.413876 -1.3524216 66 5
0.98124659 -18.66098 -1.7443745 9 6
2.876009 -18.994301 0.44702452 4 24
0.99615705 -18.944542 0.22085464 10 22
1.9040476 -18.712515 0.32831466 6 23
2.5175433 -12.474386 -0.81558663 1 9
0.98321635 -18.698441 -1.0904555 21 10
2.8743124 -18.983095 1.1181297 8 27
1.9043776 -18.715757 0.76643676 7 26
1.8993014 -18.665871 -0.98328799 25 11
1.8705806 -18.383608 1.5084975 6 28
3.8101797 -18.879379 -0.78467363 2 13
0.98449236 -18.722706 -0.65471452 30 14
2.8076844 -18.543058 5.0252304 17 31
2.3136325 -22.737816 4.1670971 7 30
2.8694236 -18.950808 -0.44600093 3 16
1.8355832 -18.75441 -0.54841477 10 15
0.46143082 -3.1285794 -0.8852855 12 1
0.36755201 -3.7553298 -0.75465941 3 2
2.7968121 -18.962862 0 4 20
0.92399406 -18.960213 -0.22099434 51 18
1.2360866 -12.629269 -1.6152232 22 4
3.7352667 -18.88176 0.11186773 8 21
1.8371086 -18.769995 -0.1096127 9 19
0.90978229 -18.668589 -1.7447462 9 6
2.8007231 -18.989378 0.44665229 6 24
0.92282593 -18.936243 0.22071496 10 22
1.8240583 -18.636658 -1.5286758 21 7
1.8407557 -18.807257 0.32985049 9 23
0.91160876 -18.706068 -1.0906881 24 10
2.8008211 -18.990044 1.1178972 10 27
1.8387313 -18.786573 0.76904202 8 26
2.7961147 -18.958134 -0.89265305 4 12
1.8268398 -18.665075 -0.98286933 22 11
1.7992042 -18.382721 1.5078466 6 28
0.91259718 -18.726349 -0.65471452 30 14
2.7359021 -18.549881 5.0241957 17 31
2.7972221 -18.965641 -0.44609398 3 16
3.6706078 -18.883633 -0.33578432 2 17
0.45434976 -3.1529675 -0.89175528 12 1
0.35583493 -3.7643375 -0.75622833 4 2
2.7333424 -18.968073 0 6 20
0.86020678 -18.943193 -0.22076151 57 18
0.71932513 -4.9917684 -0.78462487 11 3
3.6695783 -18.878336 0.11177473 8 21
1.7872763 -18.907394 -0.11037987 22 19
1.7896256 -12.419136 -1.3515649 14 5
0.8478694 -18.671503 -1.7447462 9 6
2.738306 -19.00252 0.44674534 2 24
0.85984391 -18.935204 0.22066839 10 22
2.7147324 -18.83893 -1.3309536 2 8
1.7614956 -18.634663 -1.5280249 21 7
3.6833453 -18.949162 0.56179637 1 25
1.7885398 -18.920761 0.33173534 19 23
0.84993392 -18.716969 -1.0911533 24 10
2.7361228 -18.98737 1.1171995 8 27
1.7850728 -18.884083 0.77278709 12 26
2.7343709 -18.975212 -0.89302534 2 12
1.7645575 -18.667055 -0.98266 25 11
2.8341484 -19.66762 2.4398243 4 29
1.7386094 -18.392553 1.508172 6 28
0.85067391 -18.733265 -0.65485412 30 14
2.6710658 -18.535906 5.0179839 17 31
1.7779471 -18.808702 3.4445996 31 30
3.6204038 -18.97883 -0.33725032 2 17
1.7140414 -18.83416 -0.55039287 31 15
0.44870147 -3.1926787 -0.9025383 16 1
0.34518066 -3.7929001 -0.76171964 6 2
0.79323709 -18.926102 -0.22052869 34 18
0.7040959 -5.0099053 -0.78708458 6 3
1.6665181 -18.311966 -2.340508 8 4
3.6014068 -18.879244 0.11170499 8 21
1.720901 -18.909534 -0.11035663 7 19
1.7479227 -12.437123 -1.3528501 13 5
0.78318584 -18.686285 -1.7458614 9 6
2.6725123 -19.015923 0.44683838 2 24
2.6633918 -18.951029 -1.3382081 2 8
1.6964351 -18.640699 -1.5280249 21 7
0.78459138 -18.719822 -1.0911533 24 10
2.6692698 -18.992851 1.116967 6 27
1.7950559 -12.772493 -0.60080987 1 12
1.6997459 -18.677078 -0.98286933 22 11
2.5361707 -18.045803 2.2375214 3 29
1.6740329 -18.394541 1.5078466 6 28
4.4911757 -23.543579 -0.97648633 4 13
0.78493983 -18.728134 -0.65457493 27 14
2.6074204 -18.552771 5.0200548 17 31
1.6905234 -18.575741 3.4008336 13 30
2.665277 -18.964443 -0.4456287 29 16
3.5408921 -18.920589 -0.33599374 2 17
1.6479406 -18.836044 -0.55027652 28 15
0.43389517 -3.1675115 -0.89499021 15 1
0.32783699 -3.7471931 -0.75230598 3 2
2.5948822 -18.943098 0 22 20
0.67587608 -4.9340148 -0.77478635 2 3
1.6025889 -18.317673 -2.340508 8 4
3.534014 -18.883837 0.1116585 8 21
1.652794 -18.891518 -0.11021714 9 19
1.7034199 -12.435266 -1.3519932 11 5
0.71780276 -18.684925 -1.7454897 9 6
0.72409892 -18.84882 0.2195974 6 22
2.5901856 -18.908813 -1.3345808 2 8
1.6313583 -18.646507 -1.5280249 21 7
3.5480235 -18.958694 0.56133097 1 25
1.6539646 -18.904898 0.33124667 3 23
2.3460853 -12.536196 -0.81737745 1 9
0.71909076 -18.718452 -1.0909206 24 10
2.5894091 -18.903145 1.1111531 19 27
1.6545868 -18.91201 0.77343839 3 26
2.5763457 -18.807779 -0.88427752 2 12
1.634542 -18.682898 -0.98286933 22 11
2.4704711 -18.034876 2.2350838 3 29
1.6094681 -18.396301 1.5075212 6 28
3.5340848 -18.884214 -0.78271967 5 13
0.71971703 -18.734755 -0.65471452 27 14
2.5405474 -18.546446 5.0159135 15 31
1.6483092 -18.840258 3.4481871 40 30
2.5838683 -18.862696 -0.44302323 22 16
1.5818477 -18.837698 -0.55016017 29 15
0.42232668 -3.1651888 -0.89391196 5 1
0.31508338 -3.752223 -0.75309044 1 2
2.5070543 -18.789482 0 22 20
0.65537012 -18.76729 -0.21861956 10 18
0.66858143 -5.0107803 -0.78646964 7 3
1.5389721 -18.327106 -2.341013 8 4
3.4673553 -18.89212 0.11163525 8 21
1.5888501 -18.921087 -0.11035663 9 19
1.6610554 -12.449021 -1.3528501 9 5
0.6527164 -18.691298 -1.7458614 9 6
0.65606803 -18.787275 0.21885239 10 22
2.5062246 -18.783264 -1.325094 2 8
1.5669289 -18.660034 -1.5286758 21 7
3.4818258 -18.970964 0.56133097 1 25
1.5869617 -18.898598 0.33103725 3 23
2.2972686 -12.516825 -0.81558663 1 9
0.65374839 -18.720848 -1.0909206 21 10
2.5096793 -18.809156 1.1051066 19 27
1.5862221 -18.889791 0.77229857 3 26
1.568984 -18.684507 -0.98266 22 11
3.2056301 -24.025061 2.9760497 6 29
1.5455784 -18.405779 1.5078466 6 28
0.65459675 -18.745144 -0.65499377 27 14
2.4757943 -18.555201 5.0159135 17 31
1.585829 -18.885109 3.4553618 22 30
2.5021448 -18.752687 -0.44023168 24 16
3.402808 -18.893084 -0.3350862 27 17
1.5196916 -18.846827 -0.55027652 31 15
0.42524108 -3.2697051 -0.92302608 5 1
2.4344141 -18.718361 0 22 20
0.64890271 -4.9894533 -0.78278011 3 3
1.4788258 -18.340019 -2.3420231 8 4
3.408232 -18.923199 0.11175148 19 21
1.522881 -18.886381 -0.11012414 13 19
1.6202763 -12.458405 -1.3532784 6 5
0.59072965 -18.693357 -1.7458614 9 6
2.4368501 -18.737091 0.43967336 23 24
0.59376299 -18.789347 0.21885239 30 22
2.4228232 -18.629238 -1.3136539 2 8
1.5043997 -18.657179 -1.5280249 23 7
1.5229965 -18.887814 0.33075804 4 23
2.2571633 -12.532231 -0.81609827 1 9
0.59229428 -18.742872 -1.0920835 24 10
2.4318411 -18.698578 1.0981299 21 27
1.5229295 -18.886982 0.77197295 3 26
2.4230168 -18.630726 -0.87515736 29 12
1.5070146 -18.68961 -0.98266 22 11
1.4845334 -18.410805 1.5078466 6 28
3.3983803 -18.868502 -0.78109139 25 13
0.59268391 -18.755199 -0.65527296 27 14
2.4142489 -18.563309 5.0159135 15 31
1.5405895 -19.105997 3.494823 9 30
2.4265351 -18.65778 -0.43781233 21 16
3.3361421 -18.900908 -0.3350164 19 17
1.4535867 -18.84803 -0.55016017 35 15
0.40512308 -3.2023833 -0.90361667 9 1
2.359019 -18.647377 0 22 20
0.52783459 -18.779308 -0.21871267 21 18
0.63098615 -4.9877672 -0.78216529 7 3
1.4144926 -18.341114 -2.3415179 8 4
3.3379846 -18.911345 0.111612 16 21
1.4609439 -18.943428 -0.11042637 11 19
1.5772773 -12.467931 -1.3537067 6 5
0.52547354 -18.695307 -1.7458614 9 6
2.3628976 -18.678036 0.43809146 22 24
0.52828419 -18.795303 0.21889894 23 22
2.3657928 -18.70092 -1.3181185 2 8
1.4392643 -18.662317 -1.5280249 23 7
3.3407981 -18.927286 0.55935282 7 25
1.4576709 -18.900988 0.33089763 3 23
2.2064648 -12.500722 -0.81353998 1 9
0.52675313 -18.740831 -1.0918509 24 10
2.3640497 -18.687143 1.0969671 23 27
1.4557625 -18.876244 0.77132159 3 26
2.3559623 -18.623215 -0.87441295 27 12
1.441766 -18.694756 -0.98266 22 11
2.3738239 -18.764404 2.3223424 7 29
1.4193383 -18.403946 1.5068702 6 28
3.3311057 -18.872374 -0.78076571 23 13
0.52709961 -18.75316 -0.65513337 27 14
2.3484657 -18.563957 5.0138431 17 31
1.4738872 -19.111258 3.494823 9 30
2.3598864 -18.654234 -0.43753314 22 16
3.2661638 -18.909071 -0.3349466 22 17
1.3839095 -18.845257 -0.54992747 36 15
0.28094408 -3.8257294 -0.7672109 5 2
2.292119 -18.667809 0 24 20
0.45909876 -18.785118 -0.21875925 21 18
0.6218527 -5.0645833 -0.79384851 1 3
1.3463874 -18.334303 -2.340003 8 4
3.2672868 -18.915571 0.11156551 16 21
1.3874013 -18.892807 -0.1101009 16 19
1.5325385 -12.481523 -1.3545636 6 5
0.45675319 -18.689144 -1.7451179 9 6
2.2953975 -18.69451 0.43827754 21 24
0.45939192 -18.797113 0.21889894 23 22
1.5517515 -12.638 -0.89037168 1 8
1.3705615 -18.663492 -1.5276995 23 7
1.3848703 -18.858341 0.33005992 4 23
3.2803562 -18.991236 -1.2351481 3 9
0.4577679 -18.730661 -1.0911533 21 10
2.296515 -18.703611 1.0974323 23 27
2.2881756 -18.635691 -0.87459904 27 12
1.3735287 -18.703899 -0.98286933 25 11
1.3518746 -18.409025 1.5068702 6 28
3.2605522 -18.876583 -0.78044003 23 13
0.45806885 -18.742975 -0.65471452 27 14
2.2794673 -18.56477 5.0117722 17 31
1.4041188 -19.120457 3.4955404 9 30
2.2924733 -18.670694 -0.43771923 22 16
3.2034004 -18.899519 -0.33459753 13 17
1.3224555 -18.817604 -0.54899657 17 15
0.39612341 -3.3121572 -0.9338091 10 1
0.27002355 -3.8422434 -0.77034879 4 2
2.2334604 -18.674917 0 22 20
0.39531174 -18.562532 -0.21615164 14 18
1.7159656 -14.347921 -2.2481103 1 3
1.2890595 -18.342402 -2.340508 8 4
3.2058394 -18.91391 0.11149576 13 21
1.3185064 -18.76141 -0.10931048 7 19
1.4928464 -12.482327 -1.3541353 4 5
0.39320326 -18.463526 -1.7239267 7 6
2.2371302 -18.705601 0.43837065 21 24
0.39727044 -18.654507 0.21722263 13 22
1.5091969 -12.61904 -0.8886975 1 8
1.3122004 -18.67168 -1.5280249 21 7
1.3172064 -18.742912 0.32796565 4 23
2.2914302 -13.51905 -0.87877667 1 9
0.3933945 -18.472506 -1.076037 18 10
2.2363212 -18.698837 1.0967345 23 27
1.3193971 -18.774084 0.76676238 5 26
2.2296178 -18.642788 -0.87459904 27 12
1.3147613 -18.70812 -0.98286933 22 11
2.2285991 -18.63427 2.3043058 11 29
1.2937542 -18.409204 1.5065447 6 28
0.39373592 -18.488537 -0.64578032 25 14
2.2211325 -18.571838 5.0117722 17 31
1.3426632 -19.105145 3.4919529 9 30
2.2323811 -18.665894 -0.4374401 22 16
1.2513506 -18.790407 -0.54806566 10 15
0.38353762 -3.3097606 -0.93273079 7 1
0.25567847 -3.839294 -0.76956433 1 2
2.1631565 -18.667086 0 27 20
0.32656848 -18.523869 -0.21568601 21 18
1.6665509 -14.381598 -2.2524145 1 3
1.2218221 -18.347004 -2.340508 13 4
3.1345327 -18.913694 0.11142602 8 21
1.2555804 -18.853922 -0.10982194 18 19
0.632671 -5.4596715 -0.59203255 1 5
0.32510668 -18.440948 -1.721696 9 6
2.1676345 -18.70573 0.4381845 20 24
0.32685047 -18.539862 0.21587226 32 22
1.4647727 -12.640342 -0.8898136 1 8
1.2440211 -18.680346 -1.5283504 21 7
0.76615477 -4.6229591 0.13637643 5 25
1.2532843 -18.819443 0.3292222 4 23
0.32568622 -18.473824 -1.076037 21 10
2.1673117 -18.702942 1.0965019 23 27
1.2500461 -18.770819 0.76643676 5 26
2.1603534 -18.642897 -0.87422675 27 12
1.2461833 -18.712814 -0.98286933 25 11
2.1040735 -18.157227 2.2443459 10 29
1.226007 -18.409845 1.5062193 6 28
3.1359084 -18.921995 -0.78141701 2 13
0.32596886 -18.489855 -0.64578032 25 14
2.1526036 -18.576019 5.0107369 17 31
1.2734144 -19.121717 3.4941056 9 30
2.1639519 -18.67395 -0.4374401 22 16
3.0719197 -18.945646 -0.3350164 5 17
0.36682189 -3.2651448 -0.91979116 2 1
0.24128778 -3.8245049 -0.76642644 1 2
2.0979846 -18.674522 0 24 20
0.26219046 -18.544889 -0.21591882 23 18
1.1580231 -18.355116 -2.341013 8 4
3.0691345 -18.928469 0.11144926 8 21
1.4039321 -12.496641 -1.3545636 4 5
0.26084805 -18.449938 -1.7224396 9 6
2.0974169 -18.66947 0.43716097 14 24
0.26230359 -18.552891 0.21601196 26 22
1.4193053 -12.633481 -0.88897651 1 8
1.1785574 -18.680593 -1.5280249 23 7
0.74937344 -4.6216588 0.13626006 3 25
1.1926225 -18.90353 0.33061838 4 23
2.0521576 -12.656403 -0.82172656 1 9
0.26131311 -18.482832 -1.0765022 21 10
2.102906 -18.718328 1.0969671 23 27
1.191564 -18.886751 0.77099597 5 26
2.0952659 -18.650324 -0.87422675 27 12
1.1801031 -18.705091 -0.98224133 22 11
2.0402384 -18.160513 2.2438586 10 29
1.1619899 -18.41799 1.5065447 6 28
3.0698409 -18.932825 -0.78141701 2 13
0.26165292 -18.506868 -0.6463387 25 14
2.0877495 -18.583418 5.0107369 17 31
1.2019533 -19.051426 3.4804735 9 30
2.0983098 -18.677416 -0.43734705 22 16
3.0032644 -18.940453 -0.33473715 5 17
1.1237104 -18.858555 -0.54981112 52 15
0.33375549 -3.0672812 -0.86371952 1 1
2.0327873 -18.681732 0 24 20
0.1973719 -18.537693 -0.21582569 23 18
1.5639734 -14.373236 -2.2493401 1 3
1.0939466 -18.359045 -2.341013 8 4
3.0005393 -18.923267 0.11135628 11 21
1.1296393 -18.958054 -0.11037987 35 19
1.3603034 -12.501466 -1.3545636 4 5
0.17002994 -15.969664 -1.490823 3 6
2.0352654 -18.704506 0.43781233 22 24
0.19749965 -18.549692 0.21596538 26 22
2.0295622 -18.652092 -1.3119798 2 8
1.1126333 -18.672655 -1.5270486 23 7
1.1287727 -18.943512 0.33124667 4 23
2.007967 -12.663488 -0.82172656 1 9
0.19688134 -18.491617 -1.0769672 21 10
2.0366921 -18.717617 1.0965019 21 27
1.1265824 -18.906754 0.77164727 3 26
2.0301533 -18.657524 -0.87422675 25 12
1.1150423 -18.713083 -0.98245066 22 11
1.9961619 -18.345137 2.265795 14 29
1.0974567 -18.417955 1.5062193 6 28
0.19705224 -18.507669 -0.6463387 25 14
2.0228705 -18.590593 5.0107369 17 31
2.0326698 -18.680651 -0.43725401 24 16
1.0613908 -18.866169 -0.54992747 91 15
0.33004561 -3.1296618 -0.88097233 0 1
1.9704049 -18.684391 0 22 20
0.13592605 -18.542246 -0.21587226 23 18
1.5216897 -14.429441 -2.257334 1 3
1.0328361 -18.358612 -2.340508 8 4
2.9365437 -18.925207 0.11130977 13 21
1.0654169 -18.937735 -0.11024038 28 19
1.9736463 -18.715126 0.43790537 22 24
0.13604335 -18.558245 0.21605852 26 22
1.0516014 -18.692165 -1.5283504 23 7
1.0645987 -18.923191 0.33082783 4 23
0.13561752 -18.500156 -1.0774324 21 10
1.9741915 -18.720297 1.0962695 21 27
1.0632049 -18.898417 0.77115875 3 26
1.9678516 -18.660179 -0.8740406 25 12
1.0527562 -18.712692 -0.98224133 22 11
1.9419774 -18.414825 2.2735946 10 29
1.0368215 -18.429453 1.5068702 6 28
0.13567664 -18.508221 -0.6463387 25 14
1.9599943 -18.585672 5.0076313 17 31
1.0625229 -18.886295 3.4489045 54 30
1.9707105 -18.687288 -0.43725401 22 16
0.32771173 -3.2151003 -0.90469497 0 1
1.9055753 -18.695137 0 20 20
0.071213402 -18.546606 -0.21591882 23 18
0.56872481 -5.5796213 -0.87255698 0 3
0.9689526 -18.366068 -2.341013 8 4
2.8698621 -18.931387 0.11128653 13 21
1.0011994 -18.977289 -0.11044962 35 19
0.062866248 -16.3727 -1.5283723 15 6
1.908709 -18.725882 0.43799841 18 24
0.071274832 -18.562605 0.21610509 26 22
1.900124 -18.641655 -1.3103056 23 8
0.9859243 -18.687757 -1.5276995 23 7
0.83058548 -5.4790559 0.16127792 3 25
1.0000101 -18.954748 0.3313165 3 23
0.070990436 -18.488537 -1.0767348 21 10
1.9064012 -18.703239 1.0948741 8 27
0.99891239 -18.933943 0.77246147 3 26
1.9027008 -18.666935 -0.8740406 25 12
0.987638 -18.72024 -0.98245066 22 11
1.8700341 -18.346451 2.2643328 10 29
0.972902 -18.440926 1.5075212 6 28
2.8711259 -18.939726 -0.78044003 5 13
1.8954954 -18.596245 5.0086665 17 31
0.99700284 -18.897747 3.4503393 54 30
1.903843 -18.678143 -0.43688178 10 16
2.8063121 -18.958508 -0.33452773 5 17
0.92926079 -18.865131 -0.54969478 96 15
0.18969169 -3.8509734 -0.77113324 0 2
1.8387402 -18.685751 0 6 20
0.0064762845 -18.550741 -0.21596538 21 18
0.90444845 -18.36141 -2.340003 8 4
2.802592 -18.933376 0.11124004 16 21
0.93278718 -18.93672 -0.11019389 20 19
1.2322781 -12.522726 -1.3554204 111 5
0.0056742337 -16.253338 -1.5172192 12 6
1.8413756 -18.712532 0.43753314 8 24
0.0064804736 -18.56274 0.21610509 26 22
1.8346519 -18.644205 -1.3100265 23 8
0.92107993 -18.699049 -1.5283504 23 7
0.93266082 -18.934156 0.33089763 4 23
0.0056669568 -16.232494 -0.94534051 8 10
1.8450153 -18.749519 1.0971997 6 27
0.93143982 -18.909369 0.77132159 3 26
1.8363574 -18.661535 -0.87348229 25 12
0.9224844 -18.727562 -0.98266 22 11
1.8262008 -18.558321 2.2896814 3 29
0.90852696 -18.444208 1.5075212 6 28
2.8032427 -18.937771 -0.77995163 5 13
0.0056996173 -16.326048 -0.57011819 5 14
1.8305726 -18.602749 5.0086665 15 31
1.8433337 -18.732431 -0.43799841 10 16
0.86376852 -18.876249 -0.54992747 92 15
-0.058290977 -18.554653 -0.21601196 21 18
0.52341187 -5.5165644 -0.86210352 5 3
0.84089321 -18.376347 -2.3415179 8 4
2.7364848 -18.943045 0.11124004 13 21
0.86832494 -18.975822 -0.11040312 28 19
-0.050835747 -16.181572 -1.5105271 13 6
1.7911536 -18.878086 0.44125524 25 24
-0.0583161 -18.562651 0.21610509 26 22
1.768806 -18.64255 -1.3094685 23 8
0.85561955 -18.698168 -1.5280249 23 7
2.7450907 -19.002619 0.55877095 3 25
0.86765891 -18.961267 0.3313165 4 23
2.7412014 -18.975695 -1.2287524 3 9
-0.050606586 -16.108627 -0.93813133 16 10
0.86615831 -18.928474 0.77197295 5 26
1.771582 -18.67181 -0.87366837 25 12
0.85692424 -18.726679 -0.98245066 22 11
0.8441385 -18.447268 1.5075212 6 28
1.7659899 -18.612869 5.0097017 17 31
0.87422359 -19.104727 3.4869306 9 30
1.7900206 -18.866144 -0.44097611 29 16
2.6694241 -18.945955 -0.33396927 27 17
0.79804116 -18.883144 -0.55004382 50 15
0.1629678 -3.8561227 -0.7719177 1 2
1.7260762 -18.893318 0 9 20
-0.12308561 -18.558336 -0.21605852 21 18
0.50091577 -5.4829335 -0.85656929 2 3
0.77657467 -18.375208 -2.341013 8 4
2.6709018 -18.956442 0.11126328 24 21
0.79937893 -18.914799 -0.11003116 20 19
-0.10700325 -16.133505 -1.5060657 15 6
1.7256091 -18.888205 0.44134828 12 24
-0.12316518 -18.570333 0.21619821 26 22
1.7040831 -18.652584 -1.3097476 23 8
0.79017675 -18.697058 -1.5276995 23 7
2.6742792 -18.980412 0.55784005 4 25
2.6777308 -19.00491 -1.2300315 3 9
-0.10670401 -16.088387 -0.93696856 16 10
1.7278796 -18.913057 1.1060368 29 27
1.7063941 -18.677879 -0.87366837 23 12
0.79155022 -18.729557 -0.98245066 22 11
1.7164613 -18.788074 2.3164928 30 29
0.77923477 -18.43815 1.5065447 6 28
2.6642723 -18.909389 -0.77799767 25 13
-0.12275382 -18.508312 -0.6463387 25 14
1.7003046 -18.611227 5.0076313 15 31
0.80819446 -19.123392 3.4898007 9 30
1.7226987 -18.856346 -0.44060388 24 16
2.5939875 -18.912025 -0.33320135 22 17
0.14868198 -3.8527746 -0.77113324 1 2
1.6564676 -18.895535 0 6 20
-0.19114582 -18.561758 -0.21610509 23 18
0.48116153 -5.4886699 -0.85718423 2 3
0.70891446 -18.369999 -2.340003 8 4
2.5916209 -18.894772 0.11084482 22 21
0.72511101 -18.789698 -0.10928723 5 19
1.6327008 -18.624424 -2.0138531 11 5
-0.16576582 -16.09716 -1.5027199 15 6
1.6591624 -18.926275 0.44209275 4 24
-0.19131058 -18.577757 0.21629135 22 22
1.6357062 -18.658707 -1.3097476 23 8
0.72195035 -18.707796 -1.5283504 21 7
0.72485858 -18.783157 0.32810524 4 23
2.5690005 -18.729851 -1.2116117 3 9
-0.1660815 -16.127815 -0.93929404 19 10
1.6578504 -18.911308 1.1055717 29 27
0.72544694 -18.798403 0.76643676 3 26
1.6379243 -18.68401 -0.87366837 25 12
0.72305119 -18.736322 -0.98266 22 11
1.618117 -18.458063 2.2750571 10 29
0.71180367 -18.444866 1.5068702 6 28
2.5726802 -18.756681 -0.77132159 24 13
-0.19079536 -18.527725 -0.64703667 25 14
1.6310669 -18.605785 5.0045252 15 31
0.73809785 -19.126225 3.4898007 13 30
1.6535747 -18.862535 -0.44060388 24 16
2.5089841 -18.754032 -0.33026937 22 17
0.66069603 -18.732418 -0.5455057 8 15
0.13424571 -3.8062081 -0.76171964 1 2
1.5948063 -18.91288 0 6 20
-0.25269863 -18.561022 -0.21610509 21 18
0.64813274 -18.376217 -2.340508 8 4
2.510915 -18.768467 0.1100544 22 21
0.66237456 -18.780008 -0.10921749 13 19
1.570262 -18.621809 -2.0129964 11 5
-0.21952529 -16.124399 -1.5053222 22 6
1.5930306 -18.891821 0.4411622 6 24
-0.25307977 -18.589018 0.21643104 26 22
1.573822 -18.664026 -1.3097476 23 8
0.65990847 -18.710089 -1.5283504 21 7
2.5093644 -18.756876 0.55074203 19 25
0.66228491 -18.777466 0.32796565 16 23
2.5095217 -18.758051 -1.2128909 3 9
-0.22059597 -16.203043 -0.94371265 13 10
1.5951284 -18.9167 1.1055717 31 27
0.66296369 -18.796713 0.76627392 12 26
1.5759562 -18.689337 -0.87366837 23 12
0.66119629 -18.746601 -0.98307866 22 11
1.5772475 -18.704651 2.3047931 11 29
0.65077424 -18.451109 1.5071956 6 28
2.5030463 -18.709648 -0.76904202 24 13
-0.25228974 -18.530987 -0.64717627 25 14
1.569683 -18.614943 5.0055604 17 31
0.67522311 -19.144297 3.4926703 13 30
1.5906785 -18.863928 -0.44051084 26 16
2.4336934 -18.687323 -0.32894298 22 17
0.59543234 -18.738605 -0.54562205 17 15
0.12058537 -3.7948923 -0.75936621 1 2
1.5274912 -18.902384 0 11 20
-0.31769067 -18.572023 -0.21624477 23 18
1.1661446 -14.430796 -2.2524145 1 3
0.58423746 -18.386295 -2.3415179 8 4
2.4319565 -18.673986 0.10944997 21 21
1.5046113 -18.619249 -2.0121393 11 5
-0.27573904 -16.119553 -1.5049505 16 6
1.5283663 -18.913212 0.44153443 4 24
-0.31796432 -18.58802 0.21643104 26 22
1.5089859 -18.673384 -1.3100265 23 8
0.59484899 -18.720247 -1.5290014 23 7
2.4304523 -18.662437 0.54771656 17 25
0.59699094 -18.787655 0.32810524 14 23
2.4373288 -18.715239 -1.209565 3 9
-0.31690162 -18.525896 -1.0790603 21 10
1.5284456 -18.914194 1.1051066 27 27
0.59785628 -18.814888 0.76692522 21 26
1.5097446 -18.682774 -0.87311 23 12
0.59562922 -18.744801 -0.98286933 22 11
1.5189836 -18.797104 2.3155177 33 29
0.58649224 -18.457256 1.5075212 6 28
2.4253368 -18.623156 -0.76513416 27 13
-0.31717685 -18.541985 -0.64759511 25 14
1.5046968 -18.620308 5.0055604 17 31
0.6081447 -19.13867 3.4912355 13 30
1.5245011 -18.865381 -0.4404178 24 16
2.3641601 -18.635777 -0.32789579 21 17
0.53351641 -18.74847 -0.54585475 19 15
0.10766555 -3.783509 -0.75701278 1 2
1.4647995 -18.907345 0 11 20
-0.37927669 -18.570868 -0.21624477 21 18
1.442198 -18.615608 -2.904834 2 3
0.52337533 -18.392097 -2.3420231 8 4
2.3664939 -18.654175 0.10928723 21 21
0.53498489 -18.800074 -0.10931048 18 19
1.4425515 -18.620171 -2.0117111 11 5
-0.32976174 -16.146421 -1.507553 12 6
1.4644032 -18.902227 0.4411622 6 24
-0.37944007 -18.578867 0.2163379 26 22
1.4464374 -18.670328 -1.3094685 23 8
0.53287989 -18.726103 -1.5293268 23 7
2.3680482 -18.666426 0.54760021 17 25
0.53479868 -18.79353 0.32817504 14 23
1.6040995 -12.644508 -0.81686574 1 9
-0.37833467 -18.524742 -1.0790603 21 10
1.4660231 -18.923138 1.1053392 31 27
0.53511888 -18.804783 0.76643676 17 26
1.4480902 -18.691664 -0.8732962 23 12
0.53335172 -18.742682 -0.98266 22 11
0.52505505 -18.451126 1.5068702 6 28
2.3640692 -18.635061 -0.76529694 27 13
-0.37874487 -18.544827 -0.6477347 25 14
1.4426422 -18.621342 5.0045252 17 31
1.4628587 -18.882292 -0.44069692 28 16
2.3005648 -18.655825 -0.32810524 23 17
0.46827009 -18.758213 -0.5460875 19 15
0.09494774 -3.8034673 -0.76093513 0 2
1.3970231 -18.888409 0 15 20
-0.44371465 -18.55344 -0.21605852 10 18
1.3754611 -18.59688 -2.9011445 2 3
0.45927241 -18.397779 -2.3425281 4 4
2.3013659 -18.662321 0.10928723 21 21
0.46895957 -18.785833 -0.10921749 15 19
1.3787211 -18.640957 -2.0134246 11 5
-0.38745287 -16.200914 -1.5127578 6 6
1.3945804 -18.855381 0.43995252 6 24
-0.4442884 -18.577431 0.2163379 13 22
1.3815529 -18.679243 -1.3097476 23 8
0.4669151 -18.703934 -1.527374 21 7
2.3033669 -18.678549 0.54771656 17 25
0.46869639 -18.77529 0.32782599 13 23
1.557999 -12.634183 -0.81584245 1 9
-0.44328052 -18.535286 -1.0797579 21 10
1.3990781 -18.916193 1.1046414 27 27
0.4694764 -18.806536 0.76643676 15 26
1.3828369 -18.696604 -0.8732962 23 12
0.46812534 -18.752415 -0.98307866 22 11
1.4071089 -19.024773 2.342329 7 29
0.46064708 -18.452847 1.5068702 6 28
2.2985189 -18.639235 -0.76513416 27 13
-0.4432832 -18.535398 -0.64745545 17 14
1.3773496 -18.622414 5.00349 15 31
0.46666473 -18.693905 3.4094434 13 30
1.3942853 -18.851393 -0.43985948 26 16
2.2316968 -18.660158 -0.32803544 23 17
0.39585373 -18.587914 -0.54108393 12 15
1.3269428 -18.881432 0 18 20
-0.51281631 -18.591667 -0.21652415 10 18
1.3081218 -18.613623 -2.9029891 2 3
0.27769962 -13.039808 -1.6601747 2 4
2.2324743 -18.666658 0.10926399 21 21
0.3949075 -18.543482 -0.10779938 16 19
1.3095527 -18.633984 -2.0121393 11 5
-0.51008213 -18.49254 -1.7269011 9 6
1.322659 -18.820477 0.439022 6 24
-0.5132575 -18.607662 0.21671042 9 22
1.312521 -18.67622 -1.3091896 21 8
0.39301059 -18.454411 -1.5068702 21 7
2.2339411 -18.678923 0.54748386 17 25
0.39468375 -18.532974 0.32356763 14 23
1.5121558 -12.643772 -0.81609827 1 9
-0.51132298 -18.537527 -1.0799905 21 10
1.326378 -18.873394 1.1018509 12 27
0.39552292 -18.57238 0.75682986 14 26
1.314581 -18.705534 -0.87348229 23 12
0.39437294 -18.518381 -0.97072738 20 11
1.2719625 -18.099104 2.2277718 7 29
0.39292571 -18.450424 1.5065447 6 28
2.2292373 -18.639593 -0.76480842 27 13
-0.51121598 -18.533649 -0.64745545 20 14
1.3093563 -18.631189 5.0045252 17 31
0.39688787 -18.636473 3.3986809 43 30
