# .PCD v0.7 - Point Cloud Data file format
VERSION 0.7
FIELDS x y z intensity ring
SIZE 4 4 4 4 2
TYPE F F F F U
COUNT 1 1 1 1 1
WIDTH 1305
HEIGHT 1
VIEWPOINT 0 0 0 1 0 0 0
POINTS 1305
DATA ascii
-30.049416 21.624512 -1.292817 11 14
-36.73719 21.330072 -0.98849732 9 16
-2.9259281 1.9110293 -1.6296161 1 0
-43.813019 22.856234 -0.86256778 17 17
-37.823971 24.704201 -1.3147758 13 15
-4.9793983 2.9155579 -1.6152955 0 1
-6.8601336 4.4806008 -1.6387562 1 2
-61.808285 36.190239 0 55 20
-47.963001 34.783253 -0.68975753 28 18
-8.0221758 4.6971774 -1.4462677 13 3
-9.8435678 6.4291897 -1.496531 19 4
-73.420509 38.301769 0.48129624 30 21
-61.506104 40.171856 -0.42696646 27 19
-11.092117 6.4947023 -1.3845507 15 5
-12.651377 9.1749058 -1.4588503 6 6
-73.655708 43.127193 1.986114 30 24
-62.128815 45.056438 0.89347649 58 22
-16.283892 9.5346117 -1.3195134 15 8
-14.963644 9.7732964 -1.4590279 11 7
-33.953335 17.712664 1.1145165 13 25
-65.921082 43.055435 1.3743421 42 23
-18.495701 9.6487761 -1.3369685 13 9
-18.56506 13.463568 -1.3355697 8 10
-18.060387 10.574791 1.2188265 7 27
-69.483665 45.382294 3.3811471 42 26
-20.919508 12.248877 -1.1292174 7 12
-19.574642 12.784905 -1.2252895 18 11
-68.282677 44.597881 6.6578927 62 28
-24.79026 12.932502 -1.1391526 19 13
-29.924644 21.701653 -1.2908627 11 14
-36.575939 21.416096 -0.98626417 8 16
-2.9226034 1.9227142 -1.6313065 1 0
-43.46442 22.858057 -0.8571924 17 17
-37.51136 24.67787 -1.3067468 13 15
-4.9796553 2.9379263 -1.6185305 1 1
-6.8419604 4.5011702 -1.6379718 1 2
-61.698269 36.401108 0 55 20
-48.076721 35.109596 -0.69306356 29 18
-7.9691095 4.7016621 -1.4395038 12 3
-9.8155642 6.4574361 -1.4955209 13 4
-73.381592 38.591579 0.48187742 30 21
-61.29903 40.32724 -0.42645502 27 19
-11.060243 6.5253868 -1.3832656 15 5
-12.659475 9.2449951 -1.4633114 6 6
-68.056725 40.152508 1.8387185 30 24
-62.059799 45.321194 0.89464056 58 22
-16.736763 9.8744535 -1.3588562 7 8
-14.944473 9.8316288 -1.4603297 13 7
-21.264513 11.183065 0.69922006 5 25
-66.18222 43.539776 1.382789 43 23
-18.449469 9.7026262 -1.3359451 13 9
-18.539656 13.539188 -1.336965 8 10
-18.131838 10.697528 1.2260358 5 27
-68.254318 44.902966 3.3285532 43 26
-19.873894 11.725317 -1.0748689 6 12
-18.901423 12.434815 -1.1857235 10 11
-24.701254 12.990457 -1.1370358 19 13
-29.939674 21.864424 -1.2946317 11 14
-41.763958 24.640146 -1.1283554 10 16
-2.9007661 1.9228886 -1.6228542 1 0
-43.486835 23.063974 -0.85921687 17 17
-37.561626 24.899223 -1.3115177 13 15
-4.9759917 2.9592273 -1.6206871 1 1
-6.8262076 4.5250239 -1.6379718 1 2
-61.928387 36.828873 0 55 20
-48.037651 35.338814 -0.69427425 29 18
-7.8745165 4.6829829 -1.4253609 14 3
-9.7499685 6.4631562 -1.488955 17 4
-61.117886 40.514431 -0.42617604 27 19
-10.982707 6.5314274 -1.3764113 17 5
-12.646379 9.3032866 -1.4655422 8 6
-67.830231 40.338707 1.8363923 30 24
-61.82069 45.478283 0.89347649 58 22
-16.733059 9.9511671 -1.3613673 7 8
-14.913388 9.8859348 -1.4606552 15 7
-21.21122 11.249727 0.69875461 8 25
-18.574183 9.8511295 -1.3474575 13 9
-18.460123 13.580157 -1.3346394 8 10
-68.24041 45.235878 3.3355548 43 26
-19.819109 11.786445 -1.0741245 9 12
-19.470518 12.906811 -1.2242428 15 11
-24.638103 13.067233 -1.1362216 19 13
-29.856739 21.964058 -1.2943525 11 14
-41.663952 24.777594 -1.1279832 10 16
-2.8970511 1.9350159 -1.6245446 1 0
-43.547127 23.291082 -0.86200929 17 17
-37.461185 25.021303 -1.3110522 13 15
-4.9623284 2.9745989 -1.6196089 1 1
-6.8038483 4.5444679 -1.6364028 1 2
-67.971504 40.744579 0 62 20
-47.917213 35.508667 -0.6943208 29 18
-7.8242211 4.6901212 -1.4192117 13 3
-9.730649 6.4993544 -1.48946 14 4
-60.969437 40.72308 -0.42612952 27 19
-10.905265 6.5370097 -1.3695573 17 5
-12.629827 9.359231 -1.467401 8 6
-67.709595 40.587578 1.8369507 30 24
-61.822239 45.81287 0.8958047 58 22
-16.715334 10.019775 -1.3627625 7 8
-14.868844 9.9312887 -1.4596788 11 7
-21.136564 11.304843 0.69759101 8 25
-66.854431 44.65382 1.4033132 44 23
-18.402403 9.8424835 -1.3374802 13 9
-18.441481 13.66591 -1.3367324 8 10
-68.544067 45.782368 3.3581882 43 26
-19.764137 11.847339 -1.07338 9 12
-19.319056 12.903701 -1.2175438 7 11
-24.490139 13.098495 -1.1314996 13 13
-29.731709 22.032442 -1.2922585 11 14
-41.525761 24.892042 -1.1265874 10 16
-2.8962941 1.949165 -1.6279256 1 0
-43.33532 23.372702 -0.85942632 17 17
-37.224346 25.051458 -1.3058158 13 15
-4.9552107 2.9938941 -1.6206871 1 1
-6.7781816 4.5616207 -1.6340494 1 2
-67.596054 40.840935 0 62 20
-47.735279 35.632645 -0.69348264 29 18
-7.7604403 4.6887889 -1.410603 15 3
-9.8066607 6.5997438 -1.5046122 17 4
-10.498206 5.6621585 0.069324508 1 21
-60.767181 40.895454 -0.42571107 27 19
-10.770048 6.5071669 -1.3554204 14 5
-12.68325 9.4675846 -1.477439 6 6
-69.959961 42.269184 1.9019943 30 24
-61.501682 45.908764 0.89347649 58 22
-16.714407 10.098695 -1.3655527 7 8
-14.731552 9.9141273 -1.4495895 11 7
-21.086416 11.37286 0.6972419 5 25
-66.479164 44.739536 1.3987057 44 23
-10.389055 5.6032887 -0.75648987 3 9
-18.374462 13.715867 -1.335337 8 10
-17.085752 10.323059 1.1625479 14 27
-72.525192 48.808434 3.5615618 39 26
-19.712402 11.910057 -1.0728216 9 12
-19.58209 13.178471 -1.2370129 11 11
-10.412293 5.6158218 -0.48197424 3 13
-29.590549 22.088266 -1.2894666 10 14
-41.356464 24.987207 -1.1243541 10 16
-2.8921306 1.9618024 -1.6296161 1 0
-37.102497 25.167524 -1.3047687 13 15
-4.9442048 3.0120361 -1.6206871 1 1
-6.7322025 4.5666165 -1.6269892 2 2
-67.268288 40.980202 0 62 20
-47.681076 35.865067 -0.69460016 29 18
-7.7567058 4.7254267 -1.4130627 15 3
-8.8399582 5.9963584 -1.3596563 20 4
-60.587093 41.097698 -0.42550188 27 19
-10.515174 6.4059005 -1.32629 16 5
-12.664379 9.5259771 -1.4792979 9 6
-76.798698 46.786179 2.092566 30 24
-61.285061 46.097805 0.89277798 58 22
-16.827221 10.251234 -1.3778299 10 8
-14.73141 9.9926729 -1.4531696 6 7
-68.509117 46.471401 1.4449894 42 23
-18.413425 13.850332 -1.3418487 8 10
-17.047804 10.385613 1.1625479 19 27
-71.548698 48.533222 3.52232 40 26
-19.692505 11.996779 -1.0741245 9 12
-19.507212 13.232216 -1.2353381 11 11
-29.490229 22.182156 -1.2886291 10 14
-41.196312 25.097013 -1.122493 10 16
-2.888258 1.9739313 -1.6313065 1 0
-10.375358 5.6921158 -0.20656668 6 17
-36.925293 25.235971 -1.3016269 13 15
-4.9402261 3.0333073 -1.6228437 0 1
-6.7129827 4.5878754 -1.6262047 1 2
-67.090744 41.193832 0 62 20
-47.56834 36.040951 -0.69478643 29 18
-7.7401633 4.7524738 -1.4130627 15 3
-8.7403488 5.9734449 -1.3475345 24 4
-10.369749 5.6890392 0.068743326 4 21
-60.433361 41.302166 -0.42543212 27 19
-9.8657598 6.0575938 -1.2470381 6 5
-12.631049 9.5701265 -1.4792979 9 6
-67.593979 41.502823 1.8456976 30 24
-61.171593 46.347683 0.89347649 58 22
-16.723326 10.268151 -1.3722494 7 8
-14.703021 10.048533 -1.4538205 9 7
-68.171494 46.59066 1.4412897 42 23
-18.454062 10.124245 -1.3489926 9 9
-18.390427 13.933815 -1.3437091 8 10
-17.001238 10.438789 1.1618503 14 27
-73.325661 50.11319 3.6183889 38 26
-19.561977 12.011087 -1.0692853 12 12
-19.530159 13.347559 -1.2397343 11 11
-29.396685 22.27289 -1.2879311 10 14
-41.105045 25.238567 -1.1224 10 16
-2.8757238 1.9793875 -1.6279256 1 0
-36.785416 25.319744 -1.2996488 13 15
-4.93014 3.0496731 -1.6228437 0 1
-6.6557298 4.5812006 -1.6160066 2 2
-66.895935 41.38031 0 62 20
-47.531242 36.26157 -0.69599712 29 18
-7.7378054 4.7864313 -1.4155223 16 3
-8.6812696 5.9753985 -1.3414737 22 4
-60.243343 41.466053 -0.42506015 27 19
-9.8557634 6.0965524 -1.2483232 6 5
-12.627743 9.6337004 -1.4826438 9 6
-69.19381 42.801727 1.8932474 30 24
-61.001656 46.538143 0.89324361 58 22
-16.536476 10.22909 -1.3596932 13 8
-14.745152 10.149225 -1.4613061 11 7
-26.575104 14.69446 0.88377041 9 25
-67.614685 46.539818 1.4327728 42 23
-18.305105 10.12164 -1.3405502 9 9
-18.299673 13.960814 -1.3404534 8 10
-16.976715 10.501412 1.1625479 11 27
-73.405998 50.526031 3.6306012 38 26
-19.525436 12.077993 -1.0694714 9 12
-19.541727 13.450752 -1.243293 11 11
-74.234772 51.096485 7.3569765 53 28
-23.857172 13.191604 -1.1106576 12 13
-29.300413 22.353275 -1.2869539 10 14
-40.908897 25.305317 -1.1193292 10 16
-2.8833437 2.0002458 -1.636378 1 0
-46.434055 25.897953 -0.92804915 26 17
-36.675949 25.442997 -1.2990669 13 15
-4.9254665 3.0717983 -1.6250004 1 1
-6.6002216 4.5787344 -1.606593 2 2
-66.767586 41.640026 0 62 20
-47.420219 36.452591 -0.69632304 29 18
-7.6799679 4.7896609 -1.4081435 10 3
-8.6690922 6.0139604 -1.3429888 20 4
-60.097546 41.691128 -0.42510664 27 19
-12.601823 9.6871977 -1.4837592 9 6
-69.287567 43.211632 1.9001333 30 24
-60.811661 46.74678 0.89296424 58 22
-16.454861 10.262178 -1.3560659 18 8
-14.629239 10.148659 -1.453495 6 7
-26.496628 14.778128 0.88295591 9 25
-67.269508 46.666496 1.4290729 43 23
-18.239998 10.173107 -1.3385035 13 9
-18.197727 13.988849 -1.3367324 8 10
-79.354584 55.050205 3.9347661 32 26
-19.514942 12.170617 -1.0713326 9 12
-19.377426 13.442592 -1.2359661 11 11
-23.728382 13.234178 -1.1069125 18 13
-29.116873 22.382549 -1.2824867 10 14
-40.781948 25.433922 -1.1183988 10 16
-2.8562396 1.9947649 -1.6245446 1 0
-46.484955 26.11816 -0.93070197 26 17
-36.667942 25.608471 -1.3016269 13 15
-4.9060049 3.0811124 -1.6217654 0 1
-6.5568609 4.5792365 -1.5995327 2 2
-66.856606 41.987873 0 62 20
-47.276985 36.579372 -0.69590402 29 18
-7.6916575 4.8305826 -1.4130627 19 3
-8.6078634 6.0116329 -1.3364229 24 4
-62.874084 35.326599 0.41915524 30 21
-59.946575 41.866001 -0.42496717 27 19
-9.8005648 6.1550369 -1.2466097 17 5
-12.467377 9.6463175 -1.4714906 8 6
-67.143295 42.167923 1.8449532 30 24
-60.699284 46.964539 0.89347649 58 22
-14.577536 9.1551123 -1.2037177 6 8
-14.587475 10.187725 -1.4525187 9 7
-26.321093 14.788838 0.87865055 4 25
-68.483299 47.82795 1.4580439 41 23
-18.322788 10.29489 -1.3469459 9 9
-18.090521 13.997083 -1.3320813 8 10
-67.808731 42.585835 4.6632147 63 27
-79.197617 55.310707 3.9355805 32 26
-19.463072 12.22337 -1.0705881 12 12
-19.344919 13.510269 -1.2365941 11 11
-23.700623 13.316495 -1.1075639 18 13
-29.074858 22.495935 -1.283743 10 14
-40.793266 25.619347 -1.1209111 10 16
-2.861119 2.0130663 -1.6313065 1 0
-47.207802 26.741518 -0.9470374 29 17
-36.588142 25.7432 -1.301976 13 15
-4.8919654 3.0961576 -1.6206871 1 1
-6.5087595 4.5795245 -1.591688 2 2
-68.227226 43.181469 0 63 20
-47.167953 36.758919 -0.69618338 29 18
-7.5912552 4.8045564 -1.3976899 15 3
-8.5738468 6.0325079 -1.3344027 19 4
-62.687756 35.510353 0.41873679 30 21
-59.764099 42.049664 -0.42471144 27 19
-9.782383 6.1913357 -1.2470381 19 5
-12.408501 9.6701899 -1.4685165 9 6
-66.982185 42.393475 1.844581 30 24
-60.478203 47.131859 0.89263827 58 22
-14.54212 9.203805 -1.2034386 8 8
-14.542045 10.231696 -1.4515423 9 7
-73.874832 41.847431 2.4709499 30 25
-68.315941 48.066692 1.4580439 41 23
-16.067329 9.1015625 -1.1834705 10 9
-18.246286 14.219691 -1.3471975 8 10
-19.416914 12.289095 -1.070402 12 12
-19.313978 13.589201 -1.2376407 11 11
-70.03344 44.324631 10.176579 60 29
-23.563587 13.347922 -1.1033303 18 13
-29.097065 22.675917 -1.2882103 10 14
-40.683323 25.748749 -1.1203529 10 16
-2.850764 2.0214434 -1.6296161 1 0
-47.99498 27.420286 -0.96483886 32 17
-36.451138 25.847076 -1.3004632 13 15
-4.8870783 3.1182117 -1.6228437 0 1
-6.4407363 4.5670505 -1.5791365 2 2
-47.036041 36.934032 -0.69622993 29 18
-7.5436063 4.8132157 -1.3921558 13 3
-7.9399185 5.6301031 -1.2389438 10 4
-62.446033 35.676399 0.41799289 30 21
-59.589989 42.254562 -0.42457193 27 19
-9.7562695 6.2250104 -1.2466097 13 5
-12.376104 9.7180681 -1.4688882 9 6
-67.092659 42.808628 1.851932 30 24
-60.616474 47.597771 0.89724821 58 22
-16.23394 10.358104 -1.346579 5 8
-14.488183 10.273401 -1.4499151 9 7
-68.447487 39.105122 2.2941959 30 25
-74.602188 52.89954 1.5963367 36 23
-16.085848 9.1900978 -1.1873078 10 9
-19.698471 12.568656 -1.088456 9 12
-19.306398 13.689941 -1.2403623 11 11
-23.476328 13.412395 -1.1015391 18 13
-28.963448 22.742918 -1.2859768 10 14
-40.551586 25.874033 -1.1193292 10 16
-2.8322444 2.0224581 -1.6228542 1 0
-48.066692 27.673067 -0.96811992 32 17
-36.348961 25.956184 -1.2998815 13 15
-4.8767123 3.1343999 -1.6228437 0 1
-6.377677 4.5541921 -1.5673696 3 2
-46.712509 36.931038 -0.69324982 29 18
-7.5143051 4.8296547 -1.3896961 14 3
-7.8824563 5.6287298 -1.2328831 13 4
-62.251118 35.839359 0.41748139 30 21
-59.407234 42.421707 -0.42426971 27 19
-9.765686 6.27668 -1.2504653 5 5
-12.368805 9.7788115 -1.4718623 9 6
-66.913345 43.007084 1.8509085 30 24
-60.147686 47.552925 0.89263827 58 22
-14.457282 10.323702 -1.4502405 9 7
-67.697182 38.974777 2.2733672 30 25
-16.107178 9.273262 -1.1911453 10 9
-18.090185 14.30215 -1.3430115 8 10
-19.260899 13.753884 -1.2403623 11 11
-77.717621 55.496845 7.7960186 48 28
-23.646471 13.613801 -1.1116345 12 13
-28.825155 22.789248 -1.2831846 10 14
-40.43866 25.99106 -1.1185849 10 16
-2.8306975 2.0370605 -1.6262352 1 0
-48.089451 27.92135 -0.97063303 33 17
-36.172451 26.030851 -1.2969724 13 15
-4.8684239 3.1543474 -1.623922 0 1
-6.3354726 4.5592089 -1.5610938 3 2
-46.060635 36.690815 -0.68556672 28 18
-7.5264068 4.8765068 -1.3952303 16 3
-7.8102407 5.6204991 -1.2248019 16 4
-62.098591 36.055233 0.41734195 30 21
-59.244858 42.634495 -0.42422324 27 19
-9.8026915 6.351357 -1.2581762 5 5
-12.329766 9.8216 -1.4714906 9 6
-67.255318 43.576042 1.8647734 30 24
-59.866627 47.688339 0.89105517 57 22
-16.04068 10.393072 -1.3365341 5 8
-14.390222 10.355664 -1.4473113 9 7
-62.596657 45.046558 1.3461391 41 23
-16.242235 9.4304485 -1.203681 14 9
-18.078247 14.400704 -1.3460346 12 10
-67.290428 43.598789 4.6694937 63 27
-95.503738 68.727547 4.7936897 45 26
-19.647137 12.729766 -1.0905035 19 12
-19.187662 13.808055 -1.2388968 11 11
-23.437422 13.608067 -1.1041443 12 13
-28.707041 22.86735 -1.2816492 10 14
-40.279358 26.097788 -1.1168169 10 16
-2.8327332 2.0528181 -1.6313065 1 0
-47.968987 28.064514 -0.97007459 32 17
-36.027653 26.108429 -1.2948779 13 15
-4.8450341 3.1620538 -1.6196089 0 1
-6.2885585 4.5571771 -1.5532491 3 2
-66.0299 43.093628 0 62 20
-46.253853 37.096104 -0.69026971 28 18
-7.4241362 4.8452744 -1.3792427 15 3
-7.8526063 5.6906071 -1.2343981 23 4
-61.906185 36.218548 0.41685376 30 21
-59.093433 42.823681 -0.42415351 27 19
-10.371068 6.7685547 -1.3340009 17 5
-12.300236 9.8649254 -1.4718623 11 6
-66.276581 43.254623 1.8416033 30 24
-59.692554 47.874092 0.89082229 57 22
-15.859097 10.350251 -1.3242569 12 8
-14.404226 10.438419 -1.4521933 9 7
-67.889336 39.719021 2.2890759 30 25
-62.479324 45.277359 1.3468372 41 23
-16.276339 9.5225592 -1.2085419 10 9
-18.058432 14.483062 -1.3481277 8 10
-66.349586 43.302273 4.6141458 63 27
-19.588085 12.783931 -1.0895728 19 12
-19.177347 13.897391 -1.2411997 3 11
-77.80928 56.386639 7.844512 48 28
-23.692291 13.861302 -1.1183106 12 13
-28.543736 22.892393 -1.2777405 10 14
-40.08543 26.16128 -1.1138391 10 16
-2.8226221 2.0605564 -1.6296161 1 0
-47.794933 28.18709 -0.96853876 32 17
-35.962132 26.252892 -1.2958088 13 15
-4.8307476 3.1768305 -1.6185305 0 1
-6.2377644 4.5536613 -1.5446199 5 2
-65.929192 43.356823 0 62 20
-46.173862 37.297546 -0.69101477 28 18
-7.5062475 4.9363117 -1.3976899 16 3
-7.8166704 5.7062864 -1.2318728 16 4
-61.810383 36.452709 0.41706294 30 21
-58.985592 43.060364 -0.42445573 27 19
-10.603238 6.9729767 -1.3669869 21 5
-12.219253 9.8702621 -1.4662857 11 6
-65.971497 43.384644 1.8373228 30 24
-59.546856 48.099758 0.89114821 57 22
-15.806201 10.394586 -1.3228618 15 8
-14.461081 10.556805 -1.4616315 11 7
-67.974129 40.087784 2.2966397 30 25
-62.301506 45.48103 1.3464183 41 23
-17.931252 10.574965 -1.3341544 9 9
-18.035721 14.568591 -1.3502207 8 10
-66.945381 44.025097 4.6662378 63 27
-19.529987 12.843449 -1.0888283 19 12
-21.370996 15.601147 -1.3866937 9 11
-23.63343 13.937829 -1.1178221 12 13
-28.420111 22.956718 -1.275786 10 14
-39.713203 26.116478 -1.1060227 10 16
-2.8238115 2.0773325 -1.6346875 1 0
-47.674114 28.351856 -0.96818972 32 17
-35.888214 26.401108 -1.2966233 13 15
-4.8447566 3.2115407 -1.627157 0 1
-6.205235 4.5648718 -1.5406976 6 2
-85.953888 56.977978 0 63 20
-45.971699 37.413513 -0.69003689 28 18
-7.5078712 4.9768929 -1.4013793 17 3
-7.7413673 5.6949248 -1.2232866 16 4
-58.80159 43.257301 -0.42426971 27 19
-10.567665 7.0051999 -1.3657017 17 5
-12.195349 9.9250383 -1.4677728 11 6
-65.798706 43.617306 1.8369507 30 24
-59.726913 48.608028 0.89650309 58 22
-15.957571 10.578115 -1.3387663 17 8
-14.428714 10.614461 -1.4622823 11 7
-67.912659 40.387741 2.2995486 30 25
-62.176277 45.739883 1.3473258 41 23
-17.737978 10.548798 -1.322642 8 9
-18.006981 14.654764 -1.3520812 8 10
-66.753624 44.250309 4.6641455 63 27
-19.522747 12.941434 -1.0910618 16 12
-21.294367 15.665168 -1.3854376 14 11
-23.860432 14.189829 -1.1310111 6 13
-28.292368 23.025402 -1.2738316 10 14
-39.560551 26.224295 -1.1044408 10 16
-2.8078051 2.0807016 -1.6296161 1 0
-47.571434 28.516043 -0.96811992 32 17
-35.770138 26.507177 -1.2956923 13 15
-4.8175011 3.2177358 -1.6217654 0 1
-6.1482954 4.5561457 -1.5304995 5 2
-45.732552 37.485008 -0.68840712 28 18
-7.5101738 5.0162425 -1.4050689 19 3
-7.6991248 5.7053752 -1.2197511 22 4
-67.733627 40.601994 0.45897847 30 21
-58.640598 43.455151 -0.4242 27 19
-10.582834 7.068553 -1.3708423 14 5
-12.123668 9.9372501 -1.4633114 11 6
-65.978592 44.068836 1.8462559 30 24
-59.566158 48.823822 0.8966428 58 22
-16.023413 10.702458 -1.347416 15 8
-14.420403 10.686125 -1.4652116 14 7
-70.209557 42.086155 2.382282 30 25
-62.077282 46.001877 1.3486521 41 23
-17.687355 10.602442 -1.3216188 13 9
-17.89395 14.666902 -1.34743 8 10
-67.917046 45.363583 4.7564697 62 27
-19.500713 13.02504 -1.0923647 16 12
-21.085503 15.625245 -1.375389 9 11
-23.851892 14.297689 -1.1329651 6 13
-28.094343 23.027725 -1.268527 10 14
-39.452148 26.351126 -1.1039755 10 16
-2.7921731 2.0834973 -1.6245446 1 0
-47.521111 28.700521 -0.9690274 32 17
-35.627563 26.585003 -1.2937143 13 15
-4.8036075 3.2315433 -1.6206871 0 1
-6.0797119 4.5366325 -1.5171635 6 2
-45.456837 37.511723 -0.68612546 28 18
-7.4869385 5.0367074 -1.403839 18 3
-7.7310448 5.7688441 -1.2278323 19 4
-67.458237 40.741611 0.45802534 30 21
-58.515404 43.663727 -0.42433947 27 19
-10.516438 7.0747499 -1.3652732 15 5
-12.121366 10.002748 -1.4670292 9 6
-66.492371 44.731583 1.8647734 30 24
-59.314461 48.947262 0.89529246 58 22
-15.92824 10.715446 -1.3423936 7 8
-14.400864 10.74581 -1.466839 11 7
-70.401588 42.519257 2.3935692 30 25
-70.469894 52.584072 1.5347646 38 23
-17.669184 10.671358 -1.3228979 13 9
-17.786694 14.67787 -1.3430115 8 10
-67.66684 45.52169 4.7494931 62 27
-19.503826 13.120859 -1.0949705 13 12
-21.132818 15.769139 -1.3818787 9 11
-27.801991 22.942657 -1.2587551 10 14
-39.351273 26.472883 -1.1036034 10 16
-2.7964752 2.1019433 -1.6313065 1 0
-47.413815 28.862059 -0.96888781 32 17
-35.53455 26.709196 -1.2937143 13 15
-4.798676 3.2526133 -1.6228437 0 1
-6.0450268 4.543685 -1.5124567 6 2
-68.535774 46.454559 0 61 20
-45.064159 37.452858 -0.68216753 27 18
-7.3417158 4.9763231 -1.3798577 12 3
-7.7076898 5.7934093 -1.2273271 21 4
-67.281456 40.956024 0.45779285 30 21
-58.356247 43.8629 -0.42429298 27 19
-10.29745 6.979763 -1.3399985 16 5
-12.12007 10.073 -1.4711188 9 6
-66.531128 45.095776 1.8702635 30 24
-59.118641 49.133549 0.89491999 58 22
-16.263981 11.023965 -1.3739235 7 8
-14.347332 10.784031 -1.4652116 11 7
-69.624336 42.382198 2.3721585 30 25
-61.660423 46.346451 1.3464183 41 23
-16.857813 10.261803 -1.2648244 7 9
-17.726139 14.732208 -1.3423138 8 10
-67.481094 45.739677 4.747633 62 27
-93.576591 70.33593 4.7692652 45 26
-19.613361 13.294225 -1.1037183 16 12
-19.912165 14.966783 -1.3054682 8 11
-21.514496 13.09645 -1.0261493 10 13
-27.561874 22.906694 -1.251496 10 14
-39.288418 26.630268 -1.1044408 10 16
-2.7858627 2.1099899 -1.6296161 1 0
-47.259991 29.006353 -0.96791047 32 17
-35.394985 26.807875 -1.2922015 13 15
-4.7867227 3.2701793 -1.6228437 0 1
-6.0345864 4.5705471 -1.5140256 6 2
-68.285789 46.651287 0 61 20
-44.920452 37.612633 -0.68207437 27 18
-7.4278612 5.0745449 -1.3995347 13 3
-7.6547732 5.7976632 -1.2222764 19 4
-67.103615 41.1856 0.45760685 30 21
-48.217968 36.519901 -0.35155106 22 19
-9.2702332 6.3332109 -1.20934 8 5
-12.098337 10.130137 -1.4729776 9 6
-66.378609 45.348343 1.8706356 30 24
-59.036293 49.43206 0.89641005 58 22
-16.193813 11.063243 -1.3714123 13 8
-14.291821 10.824509 -1.4635843 11 7
-61.372181 46.482792 1.3438352 41 23
-16.585342 10.179441 -1.2471721 7 9
-17.601604 14.738113 -1.336965 8 10
-19.590899 13.384053 -1.1052072 6 12
-19.822149 15.013136 -1.3031654 8 11
-20.917936 12.83862 -0.99993372 10 13
-27.526772 23.04862 -1.2537296 10 14
-39.124516 26.728973 -1.1025798 10 16
-2.7784803 2.1197016 -1.6296161 1 0
-35.002377 26.7033 -1.2812635 12 15
-4.7879696 3.2956042 -1.627157 0 1
-6.0154767 4.5892048 -1.5132412 7 2
-68.181831 46.930187 0 61 20
-44.810287 37.787262 -0.68240035 27 18
-7.4328923 5.1161289 -1.403839 13 3
-7.6723456 5.8532295 -1.2283374 14 4
-66.915215 41.392235 0.45730466 30 21
-47.982063 36.605499 -0.35076064 22 19
-9.2578974 6.3722968 -1.2106252 6 5
-12.117706 10.218522 -1.4796697 11 6
-67.270699 46.303051 1.9003195 30 24
-58.838913 49.617207 0.89603746 58 22
-16.283285 11.207936 -1.3822943 10 8
-14.215912 10.845314 -1.4596788 11 7
-69.190056 42.799397 2.3677368 30 25
-61.190472 46.682186 1.3434165 40 23
-16.413914 10.153275 -1.2369388 15 9
-17.571419 14.817486 -1.3385929 8 10
-19.705336 13.563366 -1.1143274 7 12
-20.009659 12.377521 -0.95857513 9 13
-27.265842 22.992521 -1.2454933 10 14
-38.925564 26.792828 -1.0996021 10 16
-2.7685616 2.1266947 -1.6279256 1 0
-46.667721 29.081993 -0.95981252 31 17
-35.0373 26.914209 -1.2858015 12 15
-4.7833471 3.315851 -1.6293135 0 1
-5.9971161 4.6067371 -1.5124567 7 2
-60.20187 41.732376 0 57 20
-44.45911 37.744083 -0.67895454 26 18
-7.4061422 5.1339922 -1.4019943 12 3
-7.5994005 5.8375459 -1.2197511 16 4
-66.971092 41.734474 0.45862976 30 21
-47.812843 36.727852 -0.35041192 22 19
-9.1942263 6.3735046 -1.2050561 11 5
-12.123226 10.292155 -1.4845028 12 6
-59.158882 50.223625 0.90344119 59 22
-16.278824 11.284599 -1.3850845 13 8
-14.170388 10.885108 -1.4587024 11 7
-67.425728 42.017792 2.3121157 30 25
-61.806057 47.476864 1.3603802 42 23
-16.468241 10.262538 -1.2435905 15 9
-17.534369 14.886007 -1.3395231 8 10
-19.56502 13.562614 -1.1089298 10 12
-19.811367 15.218275 -1.3092364 8 11
-27.177263 23.072456 -1.2449348 10 14
-38.652462 26.79417 -1.0943912 10 16
-2.7611206 2.1363466 -1.6279256 1 0
-46.169659 28.995865 -0.95164484 30 17
-35.03484 27.107313 -1.2891761 12 15
-4.7591105 3.3237073 -1.6250004 0 1
-5.9778957 4.6252441 -1.5116721 7 2
-63.004005 44.001263 0 60 20
-44.178112 37.771694 -0.67667294 26 18
-7.3006825 5.0987115 -1.3853917 9 3
-7.5695601 5.8567543 -1.2182359 11 4
-66.889359 42.00843 0.45907149 30 21
-57.757111 44.688091 -0.42443246 27 19
-9.3088627 6.5012012 -1.2230483 15 5
-12.078141 10.32665 -1.4833875 9 6
-67.455582 47.110191 1.9145565 30 24
-59.040955 50.479225 0.90432596 59 22
-16.262232 11.357353 -1.3870378 7 8
-14.189057 10.97842 -1.4645605 11 7
-67.292191 42.261417 2.3125811 30 25
-16.45936 10.336948 -1.2456372 11 9
-17.470154 14.936748 -1.3385929 8 10
-93.454697 72.308189 4.8140435 45 26
-19.393072 13.543896 -1.1018569 6 12
-19.830786 15.343564 -1.3140514 8 11
-19.72187 12.385899 -0.94880539 9 13
-27.050976 23.128223 -1.242841 10 14
-38.496399 26.885437 -1.0926232 10 16
-2.7536464 2.1459718 -1.6279256 1 0
-45.807941 28.992161 -0.94626945 29 17
-34.832775 27.145878 -1.2852198 12 15
-4.738029 3.3336504 -1.6217654 0 1
-5.9493389 4.6364388 -1.5085343 8 2
-62.817318 44.19791 0 60 20
-44.088425 37.962215 -0.67732483 26 18
-7.2311206 5.0877752 -1.3755531 9 3
-7.7149491 6.0124145 -1.2450048 12 4
-66.782867 42.267334 0.45935044 30 21
-57.59446 44.884518 -0.42438596 27 19
-9.1234846 6.4192319 -1.2016289 11 5
-12.051074 10.376544 -1.4845028 12 6
-59.012897 50.812893 0.90660763 60 22
-16.219225 11.411755 -1.3867587 10 8
-14.153793 11.030335 -1.4648862 14 7
-67.357101 42.630772 2.319912 30 25
-61.551949 47.96867 1.3621254 42 23
-16.413055 10.387936 -1.2448696 7 9
-17.420935 15.000248 -1.3388255 8 10
-92.965294 72.449715 4.8018312 45 26
-19.381624 13.636802 -1.1039044 10 12
-19.682581 15.33903 -1.307771 8 11
-19.715664 12.478179 -0.95059651 13 13
-26.945841 23.201641 -1.2417241 10 14
-38.372887 26.998945 -1.0917858 10 16
-2.7493668 2.1573293 -1.6296161 1 0
-45.718296 29.148211 -0.94640917 29 17
-34.676506 27.209408 -1.2827761 12 15
-4.7363768 3.356025 -1.6250004 0 1
-5.9154162 4.6416144 -1.5038275 12 2
-59.654709 42.269165 0 56 20
-43.889763 38.045334 -0.67620724 26 18
-7.2916079 5.1665692 -1.3903111 11 3
-7.7417941 6.0747075 -1.2525808 18 4
-48.118107 37.75655 -0.3554799 22 19
-9.1378422 6.4747443 -1.2063413 18 5
-12.022617 10.421667 -1.4852463 10 6
-58.913586 51.068562 0.90767854 60 22
-16.194317 11.474706 -1.3878748 10 8
-14.154775 11.106743 -1.4687915 11 7
-61.493225 48.251526 1.3643593 42 23
-16.667986 10.626861 -1.266871 11 9
-17.374113 15.06055 -1.339058 8 10
-63.904144 50.143288 3.3093395 44 26
-19.401501 13.7472 -1.1076269 10 12
-19.691027 12.554234 -0.95141065 13 13
-26.690536 23.136385 -1.2334878 9 14
-38.276615 27.121422 -1.0915997 10 16
-2.7499735 2.1741362 -1.6346875 1 0
-45.597702 29.306921 -0.94612986 29 17
-34.366409 27.170174 -1.2749799 12 15
-4.72718 3.3755991 -1.6260786 0 1
-5.8829808 4.6511002 -1.4999051 9 2
-59.492878 42.482857 0 56 20
-43.647606 38.116482 -0.67462409 26 18
-7.2726235 5.1932573 -1.3903111 14 3
-7.7350426 6.115345 -1.2551062 21 4
-47.982548 37.935127 -0.35550317 22 19
-9.052557 6.4642777 -1.1982019 18 5
-11.972342 10.455181 -1.4837592 9 6
-63.106461 55.10947 0.9753831 60 22
-16.168388 11.545573 -1.3892699 10 8
-14.117103 11.161018 -1.469117 11 7
-16.602062 10.67061 -1.2648244 7 9
-17.300755 15.108364 -1.3376627 8 10
-22.215752 15.863893 -1.2716025 8 12
-19.540552 15.448812 -1.3054682 8 11
-19.702038 12.663052 -0.95417875 13 13
-26.539322 23.176199 -1.2304167 9 14
-38.147667 27.240604 -1.0907621 10 16
-2.7257304 2.1696973 -1.6245446 1 0
-45.463337 29.434059 -0.94536197 29 17
-34.366837 27.356201 -1.2783544 12 15
-4.7097054 3.3867588 -1.623922 0 1
-5.8460436 4.6534843 -1.4944139 9 2
-59.299706 42.642544 0 56 20
-43.433853 38.184425 -0.67327374 26 18
-7.2810335 5.2358065 -1.3952303 13 3
-7.4663591 5.943265 -1.2147005 13 4
-47.837708 38.07909 -0.35536367 22 19
-9.0601301 6.5151587 -1.2020574 12 5
-11.913678 10.473788 -1.480785 9 6
-62.66803 55.093956 0.97142518 60 22
-16.14621 11.610774 -1.3906651 10 8
-14.036344 11.17301 -1.4645605 7 7
-60.206772 47.924938 1.343207 40 23
-16.499569 10.682218 -1.2597078 7 9
-17.271553 15.184109 -1.3392906 8 10
-22.224659 15.981798 -1.275139 8 12
-19.504841 15.525966 -1.3065149 8 11
-19.659937 12.728316 -0.95417875 13 13
-26.555391 23.3459 -1.2347442 9 14
-38.073357 27.37863 -1.0912274 10 16
-2.7181399 2.1791985 -1.6245446 1 0
-45.316772 29.564169 -0.94445443 29 17
-34.311687 27.508512 -1.2798672 12 15
-4.6947351 3.4009187 -1.6228437 0 1
-5.7899804 4.6419678 -1.4842157 11 2
-59.173168 42.865711 0 56 20
-43.264359 38.303993 -0.67271495 25 18
-7.2947206 5.2843776 -1.4013793 13 3
-7.4115124 5.9419889 -1.2091445 16 4
-65.862106 42.96772 0.45704895 30 21
-47.74506 38.27837 -0.35566589 22 19
-9.06954 6.5700769 -1.2063413 16 5
-11.832314 10.475711 -1.4752084 9 6
-74.928513 54.279057 2.1529572 30 24
-58.360619 51.66943 0.90744579 60 22
-16.173443 11.716225 -1.3965245 8 8
-14.028361 11.246878 -1.4678152 7 7
-60.20137 48.264896 1.3468372 41 23
-16.405346 10.702669 -1.2553587 7 9
-17.194525 15.22313 -1.3374301 8 10
-22.087839 16.000679 -1.2704858 8 12
-19.45364 15.596455 -1.3067242 4 11
-19.605347 12.790315 -0.95369029 13 13
-26.548563 23.504705 -1.2382342 10 14
-37.916023 27.466795 -1.0894594 10 16
-2.7133379 2.1909504 -1.6262352 1 0
-45.099674 29.64747 -0.94208091 28 17
-33.972824 27.43218 -1.2707909 12 15
-4.6890588 3.4218256 -1.6250004 0 1
-5.7523813 4.6448998 -1.4787245 13 2
-58.990879 43.048405 0 56 20
-43.079643 38.409519 -0.67192334 25 18
-7.3528571 5.3657241 -1.4161373 12 3
-7.4092507 5.982779 -1.212175 15 4
-65.711723 43.19735 0.45704895 30 21
-47.79166 38.590534 -0.35701424 23 19
-9.0786781 6.6251364 -1.2106252 10 5
-11.804596 10.524898 -1.4763237 11 6
-57.935101 51.654541 0.90362746 59 22
-16.219479 11.836113 -1.4040582 8 8
-13.979716 11.28826 -1.466839 7 7
-60.213017 48.620457 1.3508861 41 23
-16.26782 10.694084 -1.2476838 15 9
-17.165129 15.304312 -1.3392906 8 10
-21.989897 16.047056 -1.2680662 8 12
-19.414623 15.676808 -1.307771 8 11
-19.497128 12.816955 -0.95059651 22 13
-26.391762 23.530716 -1.2347442 9 14
-37.748859 27.547108 -1.0874122 10 16
-2.7084851 2.2026963 -1.6279256 1 0
-44.982563 29.795897 -0.94180161 28 17
-33.867546 27.543041 -1.2704418 12 15
-4.6801887 3.4404557 -1.6260786 0 1
-5.733088 4.662478 -1.47794 10 2
-58.84024 43.254078 0 56 20
-42.85601 38.479511 -0.67052644 25 18
-7.337266 5.3937016 -1.4167522 11 3
-7.5668707 6.1538157 -1.2414693 13 4
-47.681477 38.777328 -0.35720024 23 19
-9.1099691 6.6968341 -1.2179078 9 5
-11.755927 10.5554 -1.4748366 11 6
-68.963997 50.696159 1.9916971 30 24
-57.602642 51.720203 0.90125275 59 22
-16.190922 11.902117 -1.4051744 8 8
-13.875269 11.284169 -1.4600042 6 7
-66.833893 44.269947 2.333061 30 25
-59.893978 48.709236 1.3475353 41 23
-16.230389 10.75081 -1.2476838 11 9
-17.10268 15.356138 -1.3385929 8 10
-21.924086 16.116627 -1.2675078 8 12
-19.393867 15.772212 -1.3100739 4 11
-19.52557 12.933496 -0.95417875 9 13
-26.279711 23.596001 -1.2333481 9 14
-37.6138 27.650301 -1.0862956 10 16
-2.708806 2.2195017 -1.632997 1 0
-44.720055 29.85841 -0.93859041 28 17
-33.741627 27.646721 -1.269511 12 15
-4.6675467 3.4575865 -1.6260786 0 1
-5.7038245 4.6735163 -1.4748021 11 2
-58.668449 43.45993 0 56 20
-42.753254 38.671207 -0.67113179 25 18
-7.2412238 5.3640938 -1.4019943 14 3
-7.5504036 6.1865387 -1.2424793 13 4
-47.693729 39.078587 -0.35836264 23 19
-9.133297 6.7656879 -1.2243335 12 5
-11.731929 10.611774 -1.4766954 11 6
-57.36227 51.885368 0.90046114 59 22
-16.127949 11.947128 -1.4035002 8 8
-13.830734 11.332423 -1.4596788 9 7
-59.711948 48.9259 1.3474654 41 23
-15.995005 10.679446 -1.2325898 10 9
-17.049248 15.421399 -1.3388255 8 10
-22.240519 16.475147 -1.2892845 9 12
-19.491331 13.013852 -0.95483005 13 13
-26.184162 23.684118 -1.2329295 9 14
-37.447933 27.740368 -1.0844345 10 16
-2.687062 2.217406 -1.6245446 1 0
-44.542557 29.965208 -0.93705457 27 17
-33.580162 27.71088 -1.2670673 12 15
-4.6523628 3.4715538 -1.6250004 0 1
-5.681427 4.6884031 -1.4732332 10 2
-58.561283 43.697933 0 56 20
-42.585487 38.790573 -0.67061955 25 18
-7.2794762 5.4318838 -1.4130627 14 3
-7.7123933 6.3643885 -1.2727838 16 4
-68.659851 46.18969 0.48094752 30 21
-47.594063 39.275372 -0.35864159 23 19
-9.0522528 6.754715 -1.2166226 9 5
-11.70365 10.660706 -1.4778107 9 6
-73.195419 54.617805 2.1251345 30 24
-57.180817 52.085274 0.90046114 59 22
-16.18849 12.079714 -1.4124291 8 8
-13.751121 11.347641 -1.4554478 9 7
-67.795952 45.608513 2.3779767 30 25
-59.553162 49.144207 1.3477447 41 23
-15.90795 10.701789 -1.2287524 7 9
-16.933319 15.424343 -1.3339417 8 10
-22.435867 16.741455 -1.3039882 9 12
-19.252785 15.887701 -1.3081896 8 11
-20.002895 13.456591 -0.9821853 14 13
-26.133841 23.804979 -1.234465 9 14
-37.37011 27.88526 -1.0849929 10 16
-2.6820929 2.22909 -1.6262352 1 0
-44.421127 30.109299 -0.93670553 27 17
-33.47707 27.822824 -1.2668345 12 15
-4.6402154 3.4877734 -1.6250004 0 1
-5.6107278 4.6630816 -1.4591128 11 2
-58.385994 43.885273 0 56 20
-42.432129 38.922779 -0.67034018 25 18
-7.2130771 5.4216404 -1.403839 10 3
-7.5802689 6.2999687 -1.2546011 19 4
-68.299538 46.294437 0.47955266 30 21
-55.959297 46.507828 -0.42289811 27 19
-9.0317965 6.7886629 -1.2170509 11 5
-11.657558 10.69342 -1.4766954 9 6
-73.061836 54.916233 2.1268094 30 24
-56.889584 52.184532 0.89873821 58 22
-16.194065 12.172113 -1.4166144 8 8
-13.683828 11.372643 -1.4525187 11 7
-59.553478 49.494953 1.3516541 41 23
-16.161272 10.95435 -1.2512654 7 9
-16.882317 15.486065 -1.3341744 8 10
-22.220778 16.702036 -1.2948681 13 12
-19.424536 16.143749 -1.3236811 4 11
-19.949183 13.521852 -0.98185968 14 13
-26.003447 23.852831 -1.2322315 9 14
-37.282124 28.022753 -1.085272 10 16
-2.6802473 2.242624 -1.6296161 1 0
-44.251678 30.20908 -0.93523955 27 17
-33.476624 28.010653 -1.2703255 12 15
-4.6194105 3.4961672 -1.6217654 0 1
-5.5621448 4.6539731 -1.4504836 11 2
-58.214642 44.059326 0 56 20
-42.123577 38.897739 -0.66749978 25 18
-7.169847 5.426446 -1.3989198 14 3
-7.6749792 6.4218297 -1.2737938 20 4
-68.287704 46.617638 0.48055232 30 21
-55.81398 46.700829 -0.42296785 27 19
-10.708972 8.1050072 -1.4466671 16 5
-11.642518 10.75093 -1.4792979 9 6
-72.821953 55.114761 2.1251345 30 24
-56.736801 52.391876 0.89906418 58 22
-16.194977 12.257051 -1.4202418 8 8
-13.701078 11.464005 -1.458377 13 7
-68.286369 46.61673 2.4062526 30 25
-59.520924 49.802513 1.3546557 41 23
-16.174311 11.041638 -1.2551029 11 9
-16.813269 15.525703 -1.332779 8 10
-22.216251 16.814207 -1.2978462 13 12
-19.389278 16.223452 -1.3249372 8 11
-19.999962 13.653278 -0.9865818 14 13
-25.900711 23.917227 -1.2311146 9 14
-37.16349 28.126917 -1.0845276 10 16
-2.6724021 2.2519667 -1.6296161 1 0
-44.066864 30.308979 -0.93356419 27 17
-33.320545 28.078392 -1.2681146 12 15
-4.6224942 3.523948 -1.627157 0 1
-5.5668602 4.6910539 -1.4559748 13 2
-58.082748 44.279251 0 56 20
-41.911381 38.973736 -0.66628909 24 18
-7.1665769 5.4634237 -1.4019943 14 3
-7.5645194 6.3744316 -1.2591467 20 4
-68.312401 46.98494 0.48187742 30 21
-55.687321 46.926315 -0.42324683 27 19
-9.7697411 7.4479399 -1.3232913 8 5
-11.596168 10.783371 -1.4781826 9 6
-56.641434 52.671333 0.90046114 59 22
-16.171131 12.328025 -1.421916 8 8
-13.654878 11.506624 -1.457726 11 7
-68.083694 46.827637 2.4048564 30 25
-59.31918 49.986794 1.3540276 41 23
-16.178425 11.127442 -1.2584287 3 9
-16.732649 15.559828 -1.330686 8 10
-22.160599 16.894081 -1.2980323 13 12
-19.405836 16.352814 -1.3299614 4 11
-19.912663 13.695833 -0.98462784 9 13
-25.793644 23.98572 -1.229998 9 14
-37.007832 28.212837 -1.0828526 10 16
-2.6700535 2.2659724 -1.632997 1 0
-44.000252 30.489937 -0.93440181 27 17
-33.133926 28.119497 -1.2647401 12 15
-4.6040559 3.5353692 -1.6250004 0 1
-5.5594234 4.71807 -1.4583282 13 2
-57.940529 44.491463 0 56 20
-41.690418 39.040501 -0.66493869 24 18
-7.1662722 5.5028481 -1.4056838 17 3
-7.475666 6.3443122 -1.2480352 18 4
-63.272285 43.844479 0.44740114 30 21
-55.44389 47.053108 -0.42264238 27 19
-10.705751 8.2207489 -1.4539496 8 5
-11.543922 10.81017 -1.4763237 11 6
-56.49519 52.904255 0.90106648 59 22
-16.105848 12.367383 -1.4199628 8 8
-13.559919 11.507785 -1.4518678 9 7
-79.280869 54.937611 2.8071201 30 25
-59.345596 50.364338 1.3586351 41 23
-17.294415 11.984151 -1.3484809 9 9
-16.678236 15.618137 -1.330686 8 10
-22.126846 16.990797 -1.2995212 9 12
-19.40955 16.472143 -1.3341483 4 11
-21.099916 14.621169 -1.0458516 11 13
-25.689337 24.056477 -1.2290207 9 14
-36.693455 28.176226 -1.0765251 10 16
-2.6566162 2.2705681 -1.6296161 1 0
-43.850925 30.613585 -0.93349433 27 17
-32.929192 28.144062 -1.2606674 12 15
-4.5977802 3.5561321 -1.627157 0 1
-5.5339761 4.7298021 -1.4559748 12 2
-57.78487 44.693443 0 56 20
-41.492783 39.128166 -0.66396087 24 18
-7.2158012 5.5810285 -1.4192117 16 3
-7.4685569 6.3832579 -1.2505605 19 4
-84.689789 59.124367 0.60030097 30 21
-55.267147 47.235962 -0.4225494 27 19
-10.654969 8.2410374 -1.4509509 6 5
-11.465552 10.812146 -1.4711188 9 6
-61.811783 47.808041 1.8183401 31 24
-59.470367 56.081234 0.9516353 62 22
-16.065735 12.425969 -1.4202418 8 8
-13.507544 11.544685 -1.4505659 6 7
-59.224159 50.617958 1.3598915 42 23
-17.530689 12.238676 -1.3702265 14 9
-16.65848 15.709135 -1.3334767 8 10
-22.026316 17.036152 -1.2971016 9 12
-19.546274 16.705893 -1.3475463 4 11
-26.655853 18.609215 -1.3244523 9 13
-25.570309 24.113092 -1.2273456 9 14
-36.604366 28.31148 -1.0768043 10 16
-2.6514215 2.2821927 -1.6313065 1 0
-43.779778 30.791775 -0.93426222 27 17
-32.685291 28.13364 -1.255082 12 15
-4.5671072 3.5579562 -1.6206871 0 1
-5.5233769 4.754209 -1.4575437 11 2
-57.62851 44.894878 0 56 20
-41.277637 39.198402 -0.66270363 24 18
-7.2336922 5.6353312 -1.4265908 14 3
-7.2958608 6.2798619 -1.2253069 6 4
-84.495987 59.428837 0.60039401 30 21
-55.026131 47.363365 -0.42196822 27 19
-8.665307 6.7506151 -1.1832082 3 5
-11.413301 10.838389 -1.46926 9 6
-61.581432 47.974361 1.8164792 31 24
-59.419262 56.426197 0.95396358 62 22
-16.044298 12.49914 -1.422195 8 8
-13.482271 11.604772 -1.4521933 9 7
-59.013763 50.795692 1.3591237 41 23
-17.517248 12.320464 -1.3725289 9 9
-16.623814 15.786439 -1.3351046 12 10
-21.963562 17.110479 -1.2969155 13 12
-19.608936 16.878258 -1.3559201 13 11
-26.626692 18.727438 -1.3262434 18 13
-25.604832 24.315065 -1.2330689 9 14
-36.536869 28.463659 -1.0777348 10 16
-2.6379609 2.2866845 -1.6279256 1 0
-43.685089 30.95365 -0.93454152 27 17
-32.532513 28.200415 -1.2529875 11 15
-4.5637517 3.5810096 -1.623922 0 1
-5.4711838 4.7426295 -1.4481301 13 2
-57.484039 45.105633 0 56 20
-41.050953 39.25655 -0.66126013 24 18
-7.238853 5.6800647 -1.43151 15 3
-7.2229257 6.2611055 -1.2167207 15 4
-62.711781 44.435268 0.4467037 30 21
-54.854431 47.5499 -0.4219217 27 19
-9.4833317 7.4412255 -1.2984447 10 5
-11.384035 10.886421 -1.4703753 8 6
-61.161919 47.991531 1.8090348 31 24
-56.172253 53.716873 0.90483814 59 22
-15.956621 12.52058 -1.4182886 8 8
-13.396494 11.612589 -1.4473113 15 7
-58.802853 50.972542 1.3583556 41 23
-17.343855 12.289219 -1.3622957 14 9
-16.597469 15.871967 -1.3374301 8 10
-21.922565 17.201839 -1.2980323 9 12
-19.365786 16.786997 -1.3431501 9 11
-26.639427 18.875721 -1.3301513 18 13
-25.514027 24.398766 -1.2327899 9 14
-36.50021 28.640387 -1.0795958 10 16
-2.6299622 2.2958796 -1.6279256 1 0
-43.225208 30.855013 -0.92700201 26 17
-32.210976 28.119234 -1.2443767 11 15
-4.554245 3.5993078 -1.6250004 0 1
-5.425046 4.7359056 -1.4402854 13 2
-57.326233 45.306026 0 56 20
-40.88773 39.374645 -0.66084105 24 18
-7.2437887 5.724906 -1.4364294 17 3
-7.1382504 6.2314825 -1.2061141 5 4
-62.5107 44.62138 0.44637823 30 21
-54.664001 47.720066 -0.42173573 27 19
-9.4260969 7.4496264 -1.2941608 10 5
-11.380388 10.959247 -1.4748366 8 6
-56.001675 53.929283 0.90511757 59 22
-15.87212 12.544044 -1.4146613 8 8
-13.343862 11.648798 -1.4460095 13 7
-88.509277 77.265991 2.0507975 44 23
-17.58676 12.553779 -1.3848088 9 9
-16.639757 16.023989 -1.345337 8 10
-63.74847 55.650539 3.4475813 41 26
-20.213455 15.975084 -1.2001308 8 12
-19.58993 17.101433 -1.3628284 9 11
-25.373985 24.434999 -1.2301375 9 14
-36.443932 28.802343 -1.0808985 10 16
-2.627377 2.3098328 -1.6313065 1 0
-42.974373 30.902975 -0.92393041 25 17
-31.923441 28.06518 -1.2370459 11 15
-4.5506945 3.6223803 -1.6282352 0 1
-5.411427 4.7574029 -1.44107 12 2
-57.164608 45.503372 0 56 20
-40.715584 39.483715 -0.66028225 23 18
-7.2546849 5.7747731 -1.4425784 19 3
-7.1671166 6.3009005 -1.2147005 11 4
-62.390289 44.865005 0.44663399 30 21
-54.53614 47.944916 -0.42203796 27 19
-9.4031467 7.4849615 -1.2945892 4 5
-11.396387 11.051584 -1.4819003 9 6
-60.881699 48.4622 1.8107098 31 24
-55.778629 54.091022 0.90455878 59 22
-15.803261 12.579492 -1.4124291 8 8
-13.342041 11.729525 -1.4502405 13 7
-17.549313 12.619754 -1.3853204 9 9
-16.534988 16.034716 -1.3413836 8 10
-20.154444 16.043058 -1.1999446 4 12
-19.509115 17.151247 -1.3613631 9 11
-26.331776 18.935244 -1.3213586 18 13
-25.242624 24.478897 -1.227904 9 14
-36.27121 28.872103 -1.0787584 10 16
-2.6165845 2.3165865 -1.6296161 1 0
-42.807941 31.01055 -0.92267388 25 17
-31.798344 28.152582 -1.2359986 11 15
-4.5410275 3.6406515 -1.6293135 0 1
-5.3830414 4.7658625 -1.437932 11 2
-57.049114 45.737652 0 56 20
-40.568935 39.617207 -0.6601426 23 18
-7.222147 5.7901697 -1.4401187 16 3
-7.1213121 6.3048358 -1.2106597 18 4
-62.103729 44.988632 0.44570407 30 21
-54.3475 48.116425 -0.42187524 27 19
-10.4878 8.4083223 -1.4479522 12 5
-11.332097 11.066252 -1.4785544 9 6
-60.696564 48.6619 1.8102446 31 24
-55.666748 54.360832 0.90581602 59 22
-15.721895 12.604623 -1.4090807 11 8
-13.25923 11.739026 -1.4456841 6 7
-58.107147 51.445015 1.3546557 41 23
-17.50839 12.683272 -1.3855762 9 9
-16.52463 16.136971 -1.3451045 8 10
-63.370689 50.805813 4.7301908 62 27
-63.882092 56.557846 3.4760766 40 26
-19.452122 17.221886 -1.3615724 9 11
-26.116634 18.91918 -1.3138683 9 13
-24.810957 24.228905 -1.2110125 9 14
-36.139008 28.973515 -1.0778278 10 16
-2.6030705 2.3208811 -1.6262352 1 0
-42.63805 31.114998 -0.92134744 25 17
-31.72077 28.282036 -1.2368132 11 15
-4.5103111 3.6419613 -1.6228437 0 1
-5.3663726 4.7846241 -1.437932 11 2
-56.870445 45.92144 0 56 20
-40.427544 39.755775 -0.66009599 23 18
-7.131165 5.7582345 -1.4259758 14 3
-7.057797 6.2926869 -1.2035887 15 4
-61.917233 45.183926 0.44549483 30 21
-54.215031 48.33778 -0.42215419 27 19
-10.436727 8.427392 -1.4449534 18 5
-11.313276 11.125288 -1.4811568 9 6
-55.565056 54.641754 0.90725952 60 22
-15.693326 12.671962 -1.410476 11 8
-13.292564 11.851565 -1.4538205 6 7
-57.837658 51.567688 1.3525615 41 23
-17.476908 12.753724 -1.3865995 9 9
-16.496672 16.222553 -1.34743 12 10
-21.475075 17.340578 -1.285748 13 12
-19.511148 17.396015 -1.3699461 9 11
-61.719517 55.028732 6.7503228 61 28
-26.085943 19.036144 -1.3156594 18 13
-25.111019 24.69376 -1.2298583 9 14
-36.015877 29.081903 -1.0771765 10 16
-2.5976505 2.332375 -1.6279256 1 0
-42.464729 31.216269 -0.91995126 25 17
-31.601027 28.373888 -1.2359986 11 15
-4.5005589 3.6601133 -1.623922 0 1
-5.3146167 4.7718811 -1.4285184 12 2
-56.740833 46.144909 0 56 20
-40.157791 39.767193 -0.6579541 23 18
-7.212213 5.865387 -1.4462677 18 3
-7.0859804 6.3623509 -1.212175 23 4
-61.810696 45.437691 0.44586679 30 21
-54.034065 48.516037 -0.4220612 27 19
-10.459699 8.5064287 -1.4522361 16 5
-11.288523 11.178723 -1.4830157 8 6
-60.646996 49.321629 1.8189914 31 24
-15.679952 12.751839 -1.4132661 11 8
-13.346039 11.983124 -1.4642351 14 7
-74.204544 54.548542 2.6802855 30 25
-57.725746 51.830715 1.3541671 41 23
-16.383194 16.223841 -1.3427789 8 10
-61.073895 54.836948 3.344022 43 26
-21.436113 17.433081 -1.287051 9 12
-19.500834 17.509384 -1.373505 9 11
-61.595284 55.305096 6.7578087 60 28
-25.913069 19.048969 -1.310286 18 13
-25.044552 24.800953 -1.2308354 9 14
-35.755917 29.078768 -1.0724308 10 16
-2.5921822 2.3438601 -1.6296161 1 0
-42.413364 31.40715 -0.92120785 25 17
-31.584831 28.559114 -1.2392567 11 15
-4.4937148 3.6806827 -1.6260786 0 1
-5.2950177 4.7877731 -1.427734 12 2
-56.591785 46.352829 0 56 20
-39.868626 39.757439 -0.65548617 23 18
-7.1611176 5.8654814 -1.4401187 18 3
-7.0431256 6.3684187 -1.2086395 21 4
-61.619568 45.629368 0.44563434 30 21
-53.74868 48.599739 -0.42115456 27 19
-10.426865 8.5403681 -1.4518077 18 5
-11.269175 11.237746 -1.4856181 10 6
-60.424965 49.492485 1.8175027 31 24
-52.78904 52.641819 0.86791259 5 22
-15.656953 12.824195 -1.4152193 8 8
-13.298215 12.024292 -1.4635843 14 7
-57.396145 51.897793 1.3506767 41 23
-17.393862 12.880177 -1.3871113 10 9
-16.298189 16.252735 -1.3404534 8 10
-60.953255 55.114143 3.34793 43 26
-21.402948 17.530588 -1.288726 9 12
-19.492928 17.625572 -1.3772732 14 11
-61.30722 55.4342 6.7473931 61 28
-25.820726 19.120281 -1.3089834 18 13
-25.020103 24.950327 -1.2339066 9 14
-35.644913 29.195801 -1.0721517 10 16
-2.5866652 2.355335 -1.6313065 1 0
-42.248974 31.514357 -0.92002106 25 17
-31.461298 28.647657 -1.2383258 11 15
-4.4867821 3.7012484 -1.6282352 0 1
-5.2202697 4.7534118 -1.4120446 11 2
-56.494438 46.603542 0 57 20
-39.740887 39.9077 -0.65567237 23 18
-7.1253552 5.8778672 -1.4370443 16 3
-7.0853992 6.4517393 -1.2197511 14 4
-61.443893 45.832233 0.44551811 30 21
-53.652641 48.854389 -0.42173573 27 19
-10.366312 8.5514059 -1.4475238 16 5
-11.201775 11.248794 -1.4819003 8 6
-59.940269 49.446091 1.8081044 31 24
-15.609015 12.87623 -1.4149402 8 8
-13.144144 11.96864 -1.4512168 11 7
-57.21759 52.100521 1.3507465 41 23
-17.294399 12.900239 -1.3827621 9 9
-16.292074 16.360458 -1.3446393 8 10
-64.933144 59.126057 3.5778446 39 26
-21.270733 17.546711 -1.2844452 9 12
-19.392887 17.658546 -1.3745518 9 11
-58.536995 53.301926 6.4629436 63 28
-25.628883 19.1171 -1.302633 17 13
-24.735401 24.839226 -1.2241347 9 14
-35.481087 29.269154 -1.0702906 10 16
-2.5730839 2.3594499 -1.6279256 1 0
-42.001221 31.558334 -0.91701925 24 17
-31.246176 28.651917 -1.2337878 11 15
-4.473835 3.7168877 -1.6282352 0 1
-5.171845 4.742445 -1.4034154 9 2
-56.331417 46.800461 0 57 20
-39.606972 40.051865 -0.65576553 23 18
-7.095674 5.8951263 -1.4351995 13 3
-6.9692488 6.3906164 -1.2035887 18 4
-61.289928 46.051235 0.44556457 30 21
-10.314985 8.5697489 -1.4445251 16 5
-11.15684 11.282162 -1.4811568 8 6
-59.767307 49.655022 1.8081044 31 24
-54.886719 55.503246 0.90874958 60 22
-15.554766 12.922988 -1.4141033 8 8
-13.081717 11.995588 -1.4489386 13 7
-57.053066 52.316154 1.3511654 41 23
-17.268412 12.974916 -1.3842971 14 9
-16.234865 16.417229 -1.3446393 8 10
-87.679428 80.399712 4.8466091 45 26
-21.203207 17.615746 -1.2840729 9 12
-19.322296 17.718035 -1.3739237 9 11
-25.443773 19.117613 -1.2966084 17 13
-24.600763 24.877098 -1.2217617 9 14
-35.141857 29.196056 -1.0631255 10 16
-2.5736518 2.3748965 -1.632997 1 0
-41.84446 31.646702 -0.91576272 24 17
-31.126631 28.722816 -1.2326242 11 15
-4.4532714 3.7235115 -1.6250004 0 1
-5.0848575 4.6921697 -1.3838037 9 2
-56.1964 46.987465 0 57 20
-39.402454 40.096214 -0.65446174 23 18
-7.0195079 5.8692174 -1.4235162 13 3
-6.9258094 6.3909502 -1.1995481 13 4
-61.173668 46.265263 0.44577381 30 21
-10.284962 8.5995598 -1.4440967 16 5
-11.129717 11.325678 -1.4822721 6 6
-59.660107 49.883575 1.8095932 31 24
-54.913933 55.880802 0.91210222 60 22
-15.511031 12.969231 -1.4138242 8 8
-13.0469 12.039328 -1.449264 15 7
-85.904335 79.270203 2.0403259 44 23
-17.227566 13.0291 -1.3842971 14 9
-16.155224 16.439669 -1.3423138 8 10
-21.126307 17.664328 -1.28277 9 12
-19.345804 17.851788 -1.379576 9 11
-58.709587 54.175625 6.5215254 63 28
-25.338964 19.1637 -1.2943288 17 13
-24.483265 24.914341 -1.2198073 9 14
-34.899643 29.18062 -1.058566 9 16
-2.5573785 2.3764632 -1.6279256 1 0
-41.651009 31.729568 -0.91394764 24 17
-31.064249 28.866686 -1.2341368 11 15
-4.4402456 3.7390347 -1.6250004 0 1
-5.0828123 4.7232418 -1.3877261 9 2
-56.013664 47.167892 0 57 20
-39.220341 40.190582 -0.65376329 22 18
-7.0413027 5.929328 -1.4321249 13 3
-6.9238038 6.4339967 -1.2030838 20 4
-60.976788 46.451866 0.44551811 30 21
-10.291384 8.666151 -1.4492373 16 5
-11.042826 11.316006 -1.4759519 6 6
-59.71196 50.282146 1.8164792 31 24
-54.908478 56.266815 0.91526854 61 22
-15.468714 13.025868 -1.4141033 11 8
-12.978508 12.060376 -1.446335 11 7
-17.181976 13.08916 -1.3842971 14 9
-16.044746 16.441664 -1.3378953 8 10
-19.327257 17.959999 -1.3827162 14 11
-25.195606 19.193909 -1.2904209 17 13
-24.398932 25.002518 -1.2199469 9 14
-34.708855 29.227573 -1.0558674 9 16
-2.5543623 2.3903291 -1.6313065 1 0
-41.543175 31.87719 -0.91401744 24 17
-30.922434 28.936691 -1.2325078 11 15
-4.4330435 3.7594931 -1.627157 0 1
-5.0319285 4.7087936 -1.3783125 9 2
-55.885292 47.394161 0 57 20
-39.035286 40.281273 -0.65301824 22 18
-6.9843907 5.9231925 -1.424746 15 3
-6.9389701 6.493371 -1.2096497 20 4
-60.795235 46.649811 0.4453786 30 21
-10.321735 8.7534657 -1.4578052 16 5
-10.992174 11.34304 -1.4744648 8 6
-59.63063 50.570438 1.8193636 31 24
-54.522476 56.26281 0.91210222 60 22
-15.404895 13.064297 -1.4124291 8 8
-12.933424 12.10288 -1.4460095 11 7
-78.84816 60.5023 2.8924136 30 25
-17.190023 13.190364 -1.3886462 15 9
-16.01227 16.523375 -1.3399882 8 10
-19.188622 17.956388 -1.3772732 14 11
-25.17285 19.3158 -1.2927005 17 13
-24.172415 24.943989 -1.2129669 9 14
-34.469387 29.232157 -1.0516801 9 16
-2.5376706 2.3922153 -1.6262352 1 0
-41.489346 32.078167 -0.91541368 24 17
-30.755068 28.992235 -1.2300642 11 15
-4.4133773 3.7707112 -1.6250004 0 1
-5.0231991 4.7352772 -1.3806659 9 2
-55.717293 47.603867 0 57 20
-38.754292 40.285717 -0.65078318 22 18
-6.9115496 5.9051051 -1.4142926 12 3
-6.9122362 6.5160379 -1.2091445 10 4
-60.633347 46.879662 0.44544837 30 21
-10.289583 8.7912369 -1.4578052 14 5
-10.931199 11.36316 -1.4718623 6 6
-59.396236 50.747093 1.8178749 31 24
-54.618145 56.776455 0.91717768 61 22
