# .PCD v0.7 - Point Cloud Data file format
VERSION 0.7
FIELDS x y z intensity ring
SIZE 4 4 4 4 2
TYPE F F F F U
COUNT 1 1 1 1 1
WIDTH 1322
HEIGHT 1
VIEWPOINT 0 0 0 1 0 0 0
POINTS 1322
DATA ascii
-4.8312321 8.6693182 -1.5440385 4 3
-4.3259897 8.7414417 -1.2414693 9 4
-4.8980131 8.7891531 -1.0838223 3 5
-8.7704706 20.141836 -2.0507181 5 6
-13.109457 23.524033 -1.8831458 5 8
-10.013776 20.234638 -1.8430681 3 7
-14.696072 23.582674 -1.780834 8 9
-13.121398 23.54546 -1.2555958 4 12
-11.654453 23.549923 -1.3770639 4 11
-0.21713568 0.44264218 -0.22990435 10 0
-2.8210809 5.1040597 -1.6325485 2 1
-3.7243338 7.5922446 -1.6913157 2 2
-4.7875547 8.6619167 -1.5397341 8 3
-4.2954478 8.7564898 -1.2414693 6 4
-4.8576818 8.7887945 -1.0816803 3 5
-8.6906404 20.150387 -2.0484874 5 6
-13.034976 23.58362 -1.8842618 5 8
-9.9184961 20.21936 -1.8385117 3 7
-10.149593 23.533159 -1.492545 4 10
-13.027526 23.570141 -1.2544791 4 12
-11.911333 21.550661 6.597815 5 31
-0.2108335 0.43361664 -0.22483292 10 0
-2.8013945 5.1104994 -1.6314702 2 1
-3.6995223 7.6087265 -1.6921 1 2
-4.7515883 8.6681795 -1.5378895 9 3
-4.2544432 8.750021 -1.2384388 9 4
-4.8288832 8.809185 -1.0821086 2 5
-8.610857 20.158625 -2.0462568 5 6
-9.8304205 20.21801 -1.8352573 3 7
-14.499749 23.633665 -1.7769964 8 9
-10.017183 23.450933 -1.4851032 4 10
-12.914435 23.559414 -1.2515012 4 12
-11.845316 21.609053 6.6029916 5 31
-0.20144957 0.41802096 -0.21638057 10 0
-2.7835398 5.1202464 -1.6314702 2 1
-3.6729419 7.6215935 -1.6921 1 2
-4.7137527 8.6708212 -1.5354298 10 3
-4.2100945 8.7362194 -1.2343981 9 4
-4.7886086 8.8085165 -1.0799668 2 5
-8.5357876 20.177557 -2.0451415 5 6
-12.795689 23.537325 -1.8733798 5 8
-9.7442122 20.219875 -1.832328 3 7
-14.346601 23.568199 -1.7682981 8 9
-10.062844 23.787331 -1.5041729 4 10
-12.814949 23.572752 -1.249826 4 12
-11.343034 23.537533 -1.3693181 4 11
-2.7711344 5.1401024 -1.6347049 2 1
-3.6480072 7.6379061 -1.6928844 1 2
-4.6778321 8.6767845 -1.5335851 10 3
-4.1761556 8.743701 -1.2333881 9 4
-4.752172 8.8146753 -1.0786816 2 5
-8.445302 20.159473 -2.0403085 5 6
-12.724815 23.602919 -1.875054 5 8
-9.659831 20.224983 -1.8297244 3 7
-14.249804 23.594215 -1.7665074 8 9
-9.8455181 23.501879 -1.4839405 4 10
-12.683291 23.525894 -1.2449868 4 12
-11.243592 23.540936 -1.3672246 4 11
-2.751358 5.1463485 -1.6336268 2 1
-3.6213217 7.6505947 -1.6928844 1 2
-4.6363325 8.6721487 -1.5298955 9 3
-4.142211 8.7510529 -1.2323779 6 4
-4.7232466 8.8347187 -1.0791099 1 5
-8.3565626 20.14469 -2.0358469 5 6
-9.582346 20.244169 -1.8284225 3 7
-9.7435236 23.488155 -1.4809173 4 10
-12.572829 23.517174 -1.2421949 4 12
-2.7333782 5.1559205 -1.6336268 2 1
-3.5912642 7.6560864 -1.6913157 1 2
-4.600481 8.6778021 -1.5280509 12 3
-4.106585 8.7546806 -1.2308626 7 4
-4.6849294 8.8370962 -1.0773964 1 5
-8.2816582 20.16268 -2.0347316 5 6
-12.501786 23.581888 -1.8664042 5 8
-9.4980812 20.248615 -1.8258189 3 7
-14.074539 23.675964 -1.7652282 8 9
-12.477567 23.536203 -1.2408921 4 12
-11.053526 23.564611 -1.3640845 4 11
-2.7153623 5.1654315 -1.6336268 2 1
-3.5645158 7.6685772 -1.6913157 1 2
-4.5572858 8.6693201 -1.5237465 8 3
-4.070981 8.7581692 -1.2293475 9 4
-9.2895975 17.671593 -2.1505091 4 5
-8.1992188 20.161953 -2.0317574 5 6
-12.3674 23.526493 -1.8585914 5 8
-10.927981 23.510086 -2.1164527 4 7
-13.890412 23.553036 -1.7524368 8 9
-9.568778 23.529713 -1.4792894 4 10
-12.371157 23.53364 -1.2384723 4 12
-10.919001 23.490765 -1.3575948 4 11
-2.6973164 5.1748776 -1.6336268 2 1
-3.5377276 7.6809726 -1.6913157 1 2
-4.5215178 8.6746588 -1.5219017 8 3
-4.0320868 8.7543049 -1.2268221 7 4
-9.2315369 17.710962 -2.1513658 4 5
-8.1183834 20.164589 -2.029155 5 6
-13.767802 23.532467 -1.7473202 8 9
-9.4776421 23.540743 -1.4778941 4 10
-12.257544 23.516441 -1.2353083 4 12
-10.825244 23.503336 -1.3561294 4 11
-13.778557 23.55085 -1.1116345 6 13
-2.6792374 5.1842604 -1.6336268 2 1
-3.5141525 7.7004094 -1.6928844 2 2
-4.4821382 8.6728306 -1.5188272 9 3
-3.9965632 8.7574949 -1.2253069 7 4
-9.1970491 17.796072 -2.1577914 4 5
-8.0391026 20.170603 -2.0269244 5 6
-10.679181 23.400826 -2.0998545 4 7
-12.180889 23.569731 -1.2358667 4 12
-10.749775 23.555513 -1.3569669 4 11
-2.6593666 5.1901541 -1.6325485 2 1
-3.4872496 7.7126307 -1.6928844 1 2
-4.4464278 8.6778727 -1.5169824 9 3
-3.9610629 8.7605476 -1.2237917 6 4
-9.147563 17.852846 -2.1607902 4 5
-7.9496388 20.150381 -2.0220912 5 6
-12.056677 23.530418 -1.8488256 5 8
-10.605639 23.456129 -2.1014817 4 7
-9.2822914 23.528328 -1.4730103 4 10
-10.632919 23.516462 -1.3525707 4 11
-2.6482863 5.2087831 -1.6357833 2 1
-3.4565847 7.7092299 -1.6897466 1 2
-4.4119797 8.6777048 -1.5145228 9 3
-3.9286528 8.762085 -1.2222764 6 4
-9.1130638 17.924034 -2.165931 4 5
-7.8790503 20.15671 -2.0202324 5 6
-11.975465 23.553949 -1.8477094 5 8
-10.466658 23.343815 -2.0884635 4 7
-13.499174 23.618641 -1.7434827 8 9
-10.542648 23.513298 -1.3504771 4 11
-2.6257098 5.211576 -1.6336268 2 1
-3.4298959 7.7254343 -1.6905313 1 2
-4.3730292 8.6796999 -1.5120631 9 3
-3.8884592 8.7582941 -1.2197511 9 4
-9.0723553 18.007042 -2.1719284 4 5
-7.79075 20.148308 -2.0165145 5 6
-11.889049 23.597687 -1.8477094 5 8
-13.343628 23.54641 -1.7345285 8 9
-9.072958 23.464333 -1.4651034 4 10
-10.427216 23.486069 -1.3467089 4 11
-2.6101358 5.2236986 -1.6347049 2 1
-3.4058399 7.7403555 -1.6913157 1 2
-4.335391 8.6764746 -1.5089887 9 3
-3.8514049 8.7529783 -1.2172257 9 4
-9.0712585 18.154427 -2.1860652 4 5
-7.711081 20.140556 -2.0131688 2 6
-11.785766 23.587006 -1.8438032 4 8
-10.31146 23.434563 -2.0900908 4 7
-8.9979582 23.501747 -1.4655685 4 10
-10.342845 23.50589 -1.3458716 4 11
-2.5934749 5.2405882 -1.6368617 2 1
-3.3745263 7.7497807 -1.6905313 1 2
-4.2967825 8.6824312 -1.507144 9 3
-3.8114295 8.7531519 -1.2152054 7 4
-9.0473413 18.281801 -2.1972032 4 5
-7.6294565 20.158844 -2.0120533 5 6
-11.633162 23.50692 -1.8340373 4 8
-10.194339 23.411846 -2.084558 4 7
-13.116497 23.536686 -1.7268537 8 9
-10.223803 23.479511 -1.3421034 4 11
-2.5683815 5.2357755 -1.6325485 2 1
-3.3505619 7.768714 -1.6921 2 2
-4.261229 8.6867304 -1.5052992 9 3
-3.7745681 8.7518272 -1.2131852 7 4
-9.0132513 18.373968 -2.2044859 4 5
-7.5464759 20.151783 -2.0087073 5 6
-11.52468 23.493643 -1.8298517 4 8
-12.999505 23.519438 -1.7222488 8 9
-8.794631 23.484802 -1.4604523 4 10
-11.559667 23.564964 -1.2226518 4 12
-10.125967 23.478374 -1.34001 4 11
-13.023111 23.562147 -1.0968171 6 13
-2.5586607 5.2576733 -1.6368617 2 1
-3.3230529 7.7719908 -1.6905313 2 2
-4.2252674 8.6823063 -1.5022246 13 3
-3.7439318 8.7563467 -1.212175 6 4
-8.967659 18.427227 -2.2074845 4 5
-7.4720449 20.145521 -2.0057333 4 6
-10.0216 23.438622 -2.0809779 4 7
-12.912106 23.535666 -1.720458 8 9
-8.7041368 23.46739 -1.4576616 4 10
-10.042727 23.488035 -1.3387539 4 11
-2.5410471 5.2704849 -1.6379399 2 1
-3.2976043 7.7913408 -1.6921 2 2
-4.1814032 8.6728115 -1.4979203 9 3
-3.7071757 8.7590466 -1.2106597 5 4
-8.9173355 18.495792 -2.2117684 4 5
-7.3899336 20.150335 -2.0035026 4 6
-11.341969 23.524818 -1.8262244 4 8
-9.8750296 23.332006 -2.0682852 4 7
-8.6180716 23.499132 -1.4576616 4 10
-9.9487934 23.506289 -1.3377072 4 11
-2.5193117 5.2723732 -1.6357833 2 1
-3.2673531 7.7955709 -1.6905313 2 2
-4.1442852 8.6730909 -1.4954606 12 3
-3.6689069 8.7536373 -1.2081344 5 4
-8.8664312 18.555519 -2.2151957 4 5
-7.3046045 20.134827 -1.9994129 4 6
-9.8505383 23.502378 -2.080327 4 7
-8.5196438 23.48403 -1.4548711 4 10
-9.8435125 23.485617 -1.3345671 4 11
-0.17370674 0.41853845 -0.21130913 31 0
-2.5041904 5.2880964 -1.6379399 2 1
-3.2386191 7.8033047 -1.6897466 1 2
-4.1072206 8.673214 -1.4930011 13 3
-3.6337671 8.7553959 -1.2066193 6 4
-8.796504 18.575569 -2.2139103 4 5
-7.2302451 20.148954 -1.9982977 4 6
-9.7195406 23.418789 -2.0699122 4 7
-12.587387 23.534519 -1.7104806 8 9
-8.403903 23.419659 -1.4490571 4 10
-9.7476969 23.486628 -1.3326828 4 11
-2.484081 5.2933183 -1.6368617 2 1
-3.2128539 7.8181901 -1.6905313 4 2
-4.0718851 8.6767635 -1.4911563 11 3
-3.6001687 8.7606859 -1.2056091 9 4
-8.734992 18.613359 -2.214767 4 5
-7.1518807 20.15155 -1.996067 4 6
-11.037368 23.519484 -1.8167375 4 8
-8.3287859 23.467667 -1.4502198 4 10
-9.6459208 23.472479 -1.3299614 4 11
-2.4665127 5.301527 -1.6368617 2 1
-3.1883867 7.8324347 -1.6913157 8 2
-4.0380855 8.6794691 -1.4893116 10 3
-3.566606 8.7615509 -1.2040938 7 4
-8.68328 18.66386 -2.2173374 4 5
-7.0744534 20.145096 -1.9930927 4 6
-9.544878 23.447481 -2.0666578 4 7
-9.555975 23.474741 -1.3282866 4 11
-2.4544435 5.3240967 -1.6411749 2 1
-3.1522317 7.8216872 -1.6866088 14 2
-4.0011463 8.6791534 -1.4868519 13 3
-3.5315535 8.7629051 -1.2025785 9 4
-8.6330671 18.726561 -2.2211931 4 5
-7.001482 20.162142 -1.9923491 4 6
-9.4614887 23.476955 -2.0663323 4 7
-12.257607 23.496544 -1.6984566 7 9
-9.4590483 23.470901 -1.3261933 4 11
-2.431041 5.3221207 -1.6379399 2 1
-3.1321747 7.8508592 -1.6905313 7 2
-3.9658973 8.6822824 -1.4850072 9 3
-3.4950597 8.760438 -1.2005583 9 4
-8.5874701 18.799994 -2.2263336 4 5
-6.9155345 20.141258 -1.9878879 4 6
-10.736561 23.504858 -1.8069717 4 8
-12.157166 23.503735 -1.6958983 7 9
-8.0698261 23.503092 -1.4471967 4 10
-10.73618 23.504025 -1.2036672 4 12
-9.359293 23.459257 -1.3236811 4 11
-2.4124496 5.330574 -1.6379399 2 1
-3.104753 7.8617449 -1.6905313 3 2
-3.9306791 8.6852694 -1.4831625 12 3
-3.4600885 8.7615128 -1.199043 9 4
-8.51196 18.808115 -2.2237635 4 5
-6.8426313 20.15773 -1.9871444 4 6
-9.2680702 23.468277 -2.0598233 4 7
-7.9415321 23.394985 -1.4388245 4 10
-9.2729521 23.480639 -1.3230531 4 11
-0.16497703 0.42205572 -0.21130913 31 0
-2.3922508 5.3354492 -1.6368617 2 1
-3.0730052 7.8615756 -1.6881778 1 2
-3.8954849 8.6881199 -1.4813178 11 3
-3.4237032 8.7587557 -1.1970228 6 4
-8.4625216 18.874004 -2.2280471 4 5
-6.7570157 20.136185 -1.9826829 4 6
-7.8674355 23.44528 -1.4402199 4 10
-9.1705666 23.460781 -1.3201222 4 11
-2.3758066 5.3512216 -1.6390183 2 1
-3.0385137 7.8581514 -1.6850398 3 2
-3.8588057 8.6914997 -1.479473 8 3
-3.3887174 8.7638426 -1.1960126 6 4
-8.4094305 18.941242 -2.232331 4 5
-6.675653 20.138132 -1.9804523 4 6
-10.414474 23.457363 -1.7946945 4 8
-11.846984 23.514187 -1.6874559 7 9
-7.7990475 23.527023 -1.4434757 4 10
-9.0758781 23.47188 -1.3188663 4 11
-0.1620267 0.42319712 -0.21130913 31 0
-2.3596001 5.3625951 -1.6400965 2 1
-3.0166473 7.8791728 -1.6873932 1 2
-3.8172286 8.6753044 -1.4745536 9 3
-3.3553822 8.7639141 -1.1944973 5 4
-8.381814 19.049105 -2.2417557 4 5
-6.6038775 20.14502 -1.9789653 4 6
-8.9719181 23.433729 -2.0484321 4 7
-7.6339169 23.287138 -1.4271967 4 10
-8.9865713 23.472 -1.3171915 4 11
-2.3424048 5.3743315 -1.6411749 2 1
-2.9946823 7.9043283 -1.6905313 1 2
-3.7853417 8.6849556 -1.4739387 8 3
-3.3191445 8.7607317 -1.1924771 5 4
-8.2517042 18.932421 -2.2246201 4 5
-6.5298305 20.156584 -1.9778498 4 6
-7.5981112 23.454205 -1.4358014 4 10
-8.9003325 23.492025 -1.3165635 4 11
-2.318114 5.3722692 -1.6379399 2 1
-2.965693 7.9152503 -1.6905313 2 2
-3.7487888 8.6878834 -1.4720941 7 3
-3.2828379 8.7616901 -1.190962 5 4
-8.26262 19.148764 -2.2464681 5 5
-6.4474187 20.153824 -1.9752475 4 6
-10.136648 23.491858 -1.789114 4 8
-11.535031 23.504366 -1.6779902 7 9
-8.8071671 23.505783 -1.3155167 4 11
-11.529746 23.493597 -1.0662053 5 13
-2.3023732 5.3874125 -1.6400965 2 1
-2.935317 7.9181991 -1.6889622 1 2
-3.7106709 8.682744 -1.4690195 8 3
-3.2467148 8.758214 -1.1889416 4 4
-8.1894703 19.162861 -2.2447543 5 5
-6.3650217 20.138237 -1.9715298 4 6
-8.6900482 23.441944 -2.0409467 4 7
-7.4228621 23.485126 -1.434406 4 10
-10.063503 23.547983 -1.1928719 3 12
-8.7139502 23.50642 -1.3138421 4 11
-2.2835548 5.3954167 -1.6400965 2 1
-3.6772609 8.688364 -1.4677896 7 3
-3.2133923 8.762043 -1.1879314 7 4
-8.1426849 19.238943 -2.2503233 5 5
-6.2863827 20.13372 -1.9689274 4 6
-7.3301315 23.476589 -1.4323131 4 10
-8.6098423 23.476688 -1.3104925 4 11
-2.2691753 5.414012 -1.6433314 2 1
-3.6392732 8.6829205 -1.4647152 9 3
-3.1814361 8.769475 -1.1874264 5 4
-8.0677967 19.248907 -2.2481813 5 5
-6.2101994 20.136509 -1.9670684 4 6
-9.8253126 23.442154 -1.777395 4 8
-8.4949198 23.415838 -2.0334611 4 7
-11.210824 23.461788 -1.6664778 7 9
-8.5142231 23.469048 -1.3083991 4 11
-2.2497308 5.4179506 -1.6422532 2 1
-2.8523011 7.944313 -1.6881778 2 2
-3.604394 8.6803398 -1.4622555 9 3
-3.1429496 8.7538366 -1.1838909 8 4
-7.9901891 19.242502 -2.2443259 5 5
-6.1399016 20.145563 -1.965953 4 6
-9.77812 23.548315 -1.7829754 4 8
-8.3956623 23.383848 -2.0282538 4 7
-7.1573558 23.483921 -1.4297549 4 10
-2.2313204 5.4297233 -1.6433314 2 1
-3.5680451 8.6825256 -1.4604107 9 3
-3.1095147 8.7615595 -1.1833858 5 4
-7.9468126 19.337873 -2.252037 5 5
-6.0568409 20.137424 -1.9629788 4 6
-9.6159029 23.399458 -1.7690241 4 8
-11.050136 23.546717 -1.6669894 7 9
-7.0942321 23.586479 -1.434406 4 10
-2.2065482 5.4232073 -1.6390183 2 1
-2.7914832 7.9534178 -1.6858244 7 2
-3.5332494 8.6839447 -1.4585661 9 3
-3.073658 8.7573824 -1.1813656 6 4
-7.8762689 19.358126 -2.2511802 5 5
-5.979713 20.135534 -1.9607482 4 6
-9.5401859 23.447666 -1.7701403 4 8
-8.2122736 23.398186 -2.0243483 4 7
-10.942633 23.530848 -1.663152 7 9
-2.1952624 5.4444017 -1.6433314 2 1
-2.7639096 7.9547372 -1.6842554 3 2
-3.5029957 8.6876698 -1.4573362 11 3
-3.0435274 8.7594986 -1.1803554 6 4
-7.7990589 19.342201 -2.2464681 5 5
-5.909699 20.131292 -1.9585176 4 6
-9.4605103 23.462715 -1.7690241 4 8
-10.860299 23.546984 -1.6618729 7 9
-6.8814163 23.441431 -1.4227782 4 10
-0.14723332 0.4285683 -0.21130913 31 0
-2.1733873 5.4448767 -1.6411749 2 1
-2.7323003 7.9532084 -1.6819019 4 2
-3.4653201 8.6814899 -1.4542617 11 3
-3.0142198 8.7738228 -1.1808604 6 4
-7.7477069 19.409937 -2.2511802 5 5
-5.836061 20.140324 -1.9574022 4 6
-8.0530243 23.440826 -2.0233719 4 7
-6.799542 23.465309 -1.4227782 4 10
-0.14675124 0.43256354 -0.21299961 31 0
-2.1538773 5.4567652 -1.6422532 2 1
-2.7042603 7.9710703 -1.683471 2 2
-3.4319577 8.6947327 -1.4542617 12 3
-2.9741318 8.7665434 -1.1783352 5 4
-7.6920977 19.487633 -2.2567492 5 5
-5.7521167 20.139606 -1.9551716 4 6
-9.2706747 23.486897 -1.7656758 4 8
-7.9424582 23.411169 -2.0181644 3 7
-6.6984191 23.452848 -1.4204527 4 10
-2.1367249 5.4635048 -1.6422532 2 1
-2.6842005 7.9943991 -1.6866088 1 2
-3.3988695 8.6907482 -1.451802 12 3
-2.9427893 8.7645588 -1.1768199 8 4
-7.6192546 19.482073 -2.2533221 5 5
-5.6855769 20.146076 -1.9540561 4 6
-10.526526 23.466387 -1.6483139 7 9
-6.6008506 23.389227 -1.4153365 4 10
-2.1190324 5.4745216 -1.6433314 2 1
-2.6587515 8.0111656 -1.6881778 1 2
-3.3656611 8.6951876 -1.4505723 13 3
-2.9121795 8.7747774 -1.1768199 7 4
-7.5540781 19.515966 -2.2541788 5 5
-5.6056085 20.131269 -1.9507102 4 6
-9.0959873 23.499489 -1.7620486 4 8
-7.7644219 23.39522 -2.0123062 3 7
-7.7820921 23.448462 -1.2947917 4 11
-2.0952415 5.4754233 -1.6411749 2 1
-2.6291902 8.0250435 -1.6889622 1 2
-3.3280091 8.6969728 -1.4487275 12 3
-2.8735213 8.770812 -1.1747997 9 4
-7.4790816 19.54483 -2.2541788 5 5
-5.5229959 20.133444 -1.9488513 4 6
-6.4387298 23.471645 -1.4174294 4 10
-0.13958092 0.43112135 -0.21130913 31 0
-2.078845 5.4899082 -1.6433314 2 1
-2.6011634 8.0341721 -1.6889622 1 2
-3.2892342 8.6863585 -1.4450381 11 3
-2.8404455 8.7732391 -1.1737895 8 4
-7.4192657 19.593132 -2.2567492 5 5
-5.4485269 20.137222 -1.9473643 4 6
-7.6037698 23.485643 -2.0152354 3 7
-10.219377 23.458151 -1.6398715 7 9
-6.3025298 23.293535 -1.4053365 4 10
-2.0610192 5.5007381 -1.6444098 2 1
-2.5766864 8.0544109 -1.6913157 1 2
-3.2588909 8.6977873 -1.4450381 10 3
-2.8061743 8.7717619 -1.1722742 9 4
-7.3591952 19.641256 -2.2593195 5 5
-5.3761425 20.148422 -1.9466206 4 6
-8.8005619 23.48818 -1.7539568 4 8
-7.4913688 23.417114 -2.0070989 3 7
-6.2469134 23.411852 -1.4111505 4 10
-2.0404677 5.5042868 -1.6433314 2 1
-2.548557 8.0633554 -1.6913157 1 2
-3.223017 8.6942854 -1.4425784 9 3
-2.7731478 8.7739363 -1.1712641 7 4
-7.2781529 19.633265 -2.2554641 5 5
-5.2997031 20.143955 -1.9443899 4 6
-10.071046 23.565628 -1.6424297 7 9
-6.1570301 23.402618 -1.40929 4 10
-10.070777 23.565001 -1.0440605 5 13
-2.0231667 5.5106697 -1.6433314 3 1
-2.5243845 8.0750647 -1.6921 1 2
-3.1902399 8.6895256 -1.4401187 8 3
-2.7443883 8.7788172 -1.170759 6 4
-7.2205529 19.667229 -2.2567492 5 5
-5.2273855 20.125811 -1.9410441 4 6
-7.3204427 23.416815 -2.0028679 3 7
-6.0563784 23.31749 -1.403011 4 10
-2.0052316 5.5213194 -1.6444098 2 1
-3.1571875 8.6931801 -1.4388889 9 3
-2.7078719 8.7693882 -1.1682338 7 4
-7.1423488 19.666149 -2.2537503 5 5
-5.1551218 20.136221 -1.9403006 4 6
-8.5092258 23.429787 -1.7430748 4 8
-6.0026722 23.446806 -1.4095225 4 10
-8.5316772 23.491606 -1.1642087 3 12
-1.9836816 5.5250063 -1.6433314 2 1
-2.4676797 8.096674 -1.6928844 1 2
-3.1172929 8.682373 -1.4351995 7 3
-2.6722438 8.7678671 -1.1667185 4 4
-7.0756021 19.707169 -2.2554641 5 5
-5.0783672 20.143393 -1.9391851 4 6
-9.7681522 23.524305 -1.6324525 7 9
-1.963093 5.5282674 -1.6422532 2 1
-2.4360087 8.0939713 -1.6905313 1 2
-3.0856419 8.6894779 -1.4345846 9 3
-2.6370451 8.7619429 -1.1646981 8 4
-6.9801459 19.656794 -2.2468963 5 5
-5.0032172 20.141672 -1.9373264 4 6
-8.3186502 23.426157 -1.7383314 4 8
-7.0373974 23.382713 -1.9934298 3 7
-5.817409 23.419401 -1.4053365 4 10
-7.0545845 23.439821 -1.2828591 4 11
-1.9463373 5.5423546 -1.6444098 1 1
-2.4066248 8.0986643 -1.6897466 1 2
-3.0513637 8.6890068 -1.4327399 7 3
-2.6075766 8.7748985 -1.1652032 6 4
-6.9207158 19.707302 -2.2498951 5 5
-4.9309893 20.151276 -1.9365827 4 6
-5.7422733 23.466715 -1.4069644 4 10
-1.9279488 5.5487781 -1.6444098 2 1
-2.3797572 8.1065998 -1.6897466 1 2
-3.0212376 8.695344 -1.4321249 9 3
-2.5739949 8.7682676 -1.163183 8 4
-6.8461938 19.703848 -2.2468963 5 5
-4.8566723 20.136541 -1.9336085 4 6
-6.8803301 23.437721 -1.9940807 3 7
-9.4776335 23.505171 -1.6242659 7 9
-5.6513205 23.43128 -1.4037086 4 10
-1.9073151 5.5518312 -1.6433314 2 1
-2.3459849 8.0960226 -1.6858244 1 2
-2.9844434 8.6871471 -1.4290503 12 3
-2.5433698 8.7771997 -1.163183 10 4
-6.7670298 19.697535 -2.2434692 5 5
-4.7799058 20.126251 -1.9310061 4 6
-8.0484638 23.427547 -1.7321928 4 8
-5.5427303 23.338198 -1.3969646 4 10
-0.12552232 0.43919396 -0.21299961 21 0
-1.8894314 5.5660796 -1.645488 2 1
-2.3206091 8.1196518 -1.6889622 1 2
-2.9500444 8.6905413 -1.4278204 9 3
-2.5079134 8.7750168 -1.1616677 5 4
-6.6935143 19.718437 -2.2430408 5 5
-4.702487 20.128119 -1.9295189 4 6
-7.9779406 23.502232 -1.7355411 4 8
-1.8709617 5.5723147 -1.645488 2 1
-2.2947333 8.1310768 -1.6897466 1 2
-2.9186912 8.6927843 -1.4265908 11 3
-2.4744871 8.7680101 -1.1596473 7 4
-6.6204891 19.717907 -2.2404704 4 5
-4.6330285 20.131962 -1.9284037 4 6
-6.6052737 23.404896 -1.9852933 3 7
-9.1757154 23.461864 -1.6145443 7 9
-5.3939924 23.438589 -1.4006854 4 10
-0.12155744 0.43654582 -0.21130913 21 0
-1.8527137 5.5824671 -1.6465664 2 1
-2.2652864 8.1352596 -1.6889622 1 2
-2.8858416 8.6954165 -1.4253609 11 3
-2.4438679 8.7765932 -1.1596473 6 4
-6.5716677 19.801289 -2.2473247 5 5
-4.5609722 20.140242 -1.9276602 4 6
-7.7888732 23.468889 -1.7291236 4 8
-5.2856908 23.340437 -1.3937087 4 10
-0.12003276 0.43696746 -0.21130913 21 0
-1.829613 5.5779209 -1.6433314 2 1
-2.2358344 8.1393347 -1.6881778 1 2
-2.8530054 8.6979265 -1.4241312 9 3
-2.4090104 8.7697659 -1.1576271 7 4
-4.482842 20.121054 -1.9243141 4 6
-6.440661 23.446592 -1.9849678 3 7
-5.2163363 23.413311 -1.3969646 4 10
-1.8113202 5.5879369 -1.6444098 2 1
-2.2053587 8.1395178 -1.6866088 1 2
-2.8189723 8.6965523 -1.4222864 11 3
-2.3783851 8.778121 -1.1576271 6 4
-6.4111948 19.778587 -2.2396135 4 5
-4.4117303 20.132687 -1.9239423 4 6
-7.59654 23.435387 -1.7227058 4 8
-8.8800058 23.426022 -1.6055902 7 9
-5.1277423 23.400169 -1.3951041 4 10
-1.7896513 5.5908704 -1.6433314 2 1
-2.1775329 8.1551266 -1.6881778 2 2
-2.7846665 8.6992979 -1.4210565 10 3
-2.3420987 8.7714462 -1.1556069 8 4
-6.3241043 19.756502 -2.234473 4 5
-4.3328753 20.12536 -1.9217117 4 6
-6.2655153 23.46512 -1.9826897 3 7
-5.0789161 23.590574 -1.4053365 4 10
-6.2694983 23.480038 -1.2736479 4 11
-0.11721991 0.44523215 -0.21469009 21 0
-1.7736104 5.6081009 -1.6465664 2 1
-2.1490545 8.1626768 -1.6881778 1 2
-2.7507095 8.6976585 -1.4192117 13 3
-2.3114684 8.7795668 -1.1556069 5 4
-6.2515101 19.76708 -2.2331879 4 5
-4.2634273 20.144258 -1.9220834 4 6
-6.1531224 23.371183 -1.9729259 3 7
-8.7065926 23.473993 -1.6045669 7 9
-4.9552026 23.412825 -1.3937087 4 10
-1.7548317 5.6099696 -1.645488 2 1
-2.1233981 8.1693878 -1.6881778 1 2
-2.7221892 8.702486 -1.418597 14 3
-2.2838728 8.7867851 -1.1556069 6 4
-6.1881862 19.782829 -2.2327595 4 5
-4.1936169 20.126364 -1.9191092 4 6
-7.3262186 23.420973 -1.7160093 4 8
-1.7331231 5.6126828 -1.6444098 2 1
-2.0924706 8.173316 -1.6873932 1 2
-2.6879444 8.7048512 -1.4173671 13 3
-2.248702 8.7835646 -1.1540916 7 4
-6.1168146 19.809175 -2.2331879 4 5
-4.1150374 20.118185 -1.9168786 4 6
-5.9849992 23.377766 -1.9699968 3 7
-4.7981219 23.457748 -1.3944064 4 10
-1.7168928 5.6297517 -1.6476448 2 1
-2.0591316 8.1615543 -1.683471 1 2
-2.6506264 8.6914968 -1.4136776 14 3
-2.2160881 8.7836657 -1.1530814 7 4
-6.0418339 19.811384 -2.231046 4 5
-4.0440073 20.128523 -1.9165068 4 6
-7.1584458 23.472794 -1.7160093 4 8
-5.9170175 23.452635 -1.9745532 3 7
-8.4063864 23.40086 -1.5935662 6 9
-1.6971014 5.6317253 -1.6465664 2 1
-2.6206472 8.696455 -1.4130627 14 3
-2.1859879 8.787117 -1.1525763 6 4
-5.9680657 19.804655 -2.2280471 4 5
-3.9756877 20.134008 -1.9157633 4 6
-5.8392067 23.472128 -1.9745532 3 7
-4.6329241 23.46244 -1.3927785 4 10
-7.0786347 23.490009 -1.1428044 3 12
-0.83986247 3.4296379 -1.6465209 0 0
-1.6742543 5.6305237 -1.6444098 2 1
-2.0021033 8.1757307 -1.683471 1 2
-2.5865042 8.6984234 -1.4118328 11 3
-2.1518817 8.7873611 -1.1515663 6 4
-5.8977094 19.834021 -2.2289038 4 5
-3.8980844 20.128895 -1.9139044 4 6
-5.7227988 23.369453 -1.9641385 3 7
-4.5469041 23.479263 -1.3927785 4 10
-0.82763314 3.4288807 -1.6448303 0 0
-1.6577432 5.6434364 -1.6465664 2 1
-1.9768187 8.1899509 -1.6850398 1 2
-2.5554149 8.6993704 -1.410603 13 3
-2.1199341 8.7828779 -1.1500511 8 4
-5.8274169 19.838209 -2.2271905 4 5
-3.8283298 20.12606 -1.9124172 4 6
-6.8803658 23.422752 -1.7070805 4 8
-8.138752 23.410776 -1.5884496 6 9
-4.4667726 23.482443 -1.3920808 4 10
-1.6338327 5.6383748 -1.6433314 2 1
-1.9495085 8.2085896 -1.6873932 1 2
-2.5180142 8.6896944 -1.4075285 13 3
-2.0858972 8.7828665 -1.1490408 8 4
-5.7469225 19.832693 -2.2241917 4 5
-3.7538133 20.13604 -1.9120455 4 6
-5.554903 23.389444 -1.9625112 3 7
-4.3858042 23.526138 -1.3937087 4 10
-5.5694361 23.450636 -1.2631807 4 11
-0.80225176 3.4311848 -1.64314 1 0
-1.6141425 5.6440439 -1.6433314 2 1
-1.9154874 8.1924295 -1.6826866 1 2
-2.4865816 8.6946316 -1.4069136 11 3
-2.0534215 8.7823658 -1.1480306 5 4
-5.6820369 19.867928 -2.2259052 4 5
-3.6784933 20.121597 -1.909443 4 6
-6.711494 23.467548 -1.7068013 4 8
-5.4614301 23.358223 -1.9582802 3 7
-7.9723158 23.472197 -1.5887054 6 9
-0.79086816 3.4338264 -1.64314 1 0
-1.5943688 5.645659 -1.6422532 2 1
-1.8935891 8.2216692 -1.6873932 1 2
-2.4545102 8.6914196 -1.4050689 9 3
-2.0233939 8.7852612 -1.1475257 8 4
-5.6139536 19.879007 -2.2250485 4 5
-3.6096323 20.121925 -1.9083278 6 6
-6.6585717 23.577999 -1.713219 4 8
-5.3866196 23.387863 -1.9592568 3 7
-4.198771 23.406086 -1.3848716 4 10
-0.77667505 3.4296308 -1.6397589 1 0
-1.5767641 5.6625972 -1.645488 2 1
-1.8634406 8.2285547 -1.6873932 1 2
-2.4205155 8.6927423 -1.403839 7 3
-1.9867966 8.7732687 -1.1450003 8 4
-5.5399842 19.89562 -2.2246201 4 5
-3.5365417 20.138943 -1.9086995 4 6
-0.76529831 3.4321873 -1.6397589 1 0
-1.5589995 5.6715088 -1.6465664 2 1
-1.8352913 8.2308598 -1.6866088 1 2
-2.3916776 8.7007217 -1.403839 9 3
-1.9585577 8.7836819 -1.1455054 7 4
-5.4592237 19.860195 -2.2186227 4 5
-3.4650118 20.123087 -1.9060972 4 6
-6.4409227 23.431532 -1.6992676 4 8
-7.691597 23.435471 -1.5807747 6 9
-4.0372963 23.446634 -1.3855692 4 10
-0.75486708 3.4419198 -1.64314 1 0
-1.539194 5.6769156 -1.6465664 2 1
-1.8065509 8.237216 -1.6866088 2 2
-2.3561225 8.6899433 -1.4007645 11 3
-1.9261868 8.782712 -1.1444951 6 4
-5.3981953 19.909836 -2.2220497 4 5
-3.3954146 20.138985 -1.9064689 4 6
-5.1337285 23.40794 -1.9563274 3 7
-3.9487941 23.421207 -1.3832437 4 10
-6.3781772 23.524242 -1.1353594 3 12
-0.73979008 3.4303591 -1.636378 1 0
-1.5163821 5.6710906 -1.6433314 2 1
-1.774477 8.2281361 -1.683471 1 2
-2.3257723 8.6981144 -1.4007645 12 3
-1.8921694 8.7738676 -1.1424749 7 4
-5.3173585 19.886295 -2.2173374 4 5
-3.3211997 20.127138 -1.9042382 4 6
-6.255538 23.394978 -1.6934081 4 8
-7.508306 23.427773 -1.5766814 6 9
-3.8592072 23.387571 -1.380453 4 10
-6.2650533 23.430561 -1.1297756 3 12
-0.72856224 3.4364672 -1.6380684 1 0
-1.4975576 5.6800747 -1.6444098 2 1
-1.7506232 8.2573032 -1.6881778 1 2
-2.2923708 8.6947155 -1.3989198 9 3
-1.8615288 8.7804193 -1.1424749 4 4
-5.2448635 19.893202 -2.2160523 4 5
-3.2490134 20.126814 -1.9031229 4 6
-6.1575537 23.354939 -1.6889437 4 8
-4.9528103 23.361311 -1.9494929 3 7
-3.7819941 23.428495 -1.3820809 4 10
-0.71730417 3.4425378 -1.6397589 1 0
-1.4786943 5.6889944 -1.645488 2 1
-1.7225951 8.2672024 -1.6889622 2 2
-2.2610185 8.6988373 -1.3983049 9 3
-1.8292553 8.7790937 -1.1414647 8 4
-5.1724033 19.899836 -2.214767 4 5
-3.1793725 20.141964 -1.9034947 4 6
-4.8932071 23.483831 -1.9582802 3 7
-7.2926941 23.313751 -0.99521172 5 13
-0.70310092 3.434366 -1.6346875 2 0
-1.4578693 5.6903901 -1.6444098 2 1
-1.6945111 8.2770071 -1.6897466 2 2
-2.2296565 8.7028475 -1.3976899 9 3
-1.7962098 8.7737646 -1.1399497 9 4
-5.1038899 19.921625 -2.2151957 4 5
-3.1066103 20.137196 -1.9020076 4 6
-6.0022888 23.428276 -1.6911759 4 8
-4.7832117 23.364071 -1.9468893 3 7
-7.2225013 23.375439 -1.5679832 6 9
-3.6116538 23.410912 -1.3795228 4 10
-4.8005576 23.448799 -1.2543883 4 11
-7.2702556 23.529993 -1.0033531 5 13
-0.69253862 3.4439075 -1.6380684 1 0
-1.4361126 5.6879749 -1.6422532 2 1
-1.6640639 8.2751808 -1.6881778 1 2
-2.1982987 8.7067461 -1.3970751 9 3
-1.7663567 8.7838697 -1.1404546 7 4
-5.0284829 19.916183 -2.2126253 4 5
-3.0309625 20.112473 -1.8986616 4 6
-4.7039895 23.392349 -1.9478656 3 7
-7.1355877 23.383205 -0.9960258 5 13
-0.68121415 3.4498606 -1.6397589 1 0
-1.4162476 5.6929536 -1.6422532 2 1
-1.6366851 8.2886353 -1.6897466 2 2
-2.1650283 8.7028599 -1.3952303 9 3
-1.7326074 8.7744122 -1.1384344 7 4
-4.9666066 19.964489 -2.2160523 4 5
-2.962472 20.13475 -1.8997768 4 6
-5.8183532 23.388292 -1.6853164 4 8
-4.608398 23.338226 -1.9420074 3 7
-7.0787139 23.490267 -1.5723323 6 9
-3.4516146 23.459261 -1.3809181 4 10
-7.0608344 23.430935 -0.99700278 5 13
-0.66925526 3.4558933 -1.6414495 3 0
-1.3972061 5.7055883 -1.6444098 2 1
-1.6077883 8.3022804 -1.6913157 2 2
-2.1331182 8.7107363 -1.3952303 8 3
-1.7011923 8.7845984 -1.1389394 6 4
-4.884891 19.947792 -2.2121968 4 5
-2.8858323 20.125761 -1.897918 4 6
-5.7325974 23.40946 -1.6853164 4 8
-4.5228333 23.354959 -1.9420074 3 7
-3.3684483 23.491518 -1.3820809 4 10
-6.9726353 23.448994 -0.99667716 5 13
-0.65651011 3.4546471 -1.6397589 1 0
-1.3772798 5.7104311 -1.6444098 2 1
-1.5780637 8.3039894 -1.6905313 3 2
-2.0999162 8.7066021 -1.3933855 9 3
-1.6682931 8.7787886 -1.1374242 6 4
-4.8133597 19.956991 -2.21134 4 5
-2.8139033 20.123882 -1.8968027 4 6
-5.6368074 23.371141 -1.681131 4 8
-3.2753613 23.42404 -1.3774298 4 10
-6.8851051 23.454018 -0.99586302 5 13
-0.64438456 3.4532416 -1.6380684 1 0
-1.3565526 5.7074718 -1.6422532 2 1
-1.5490767 8.301465 -1.6889622 3 2
-2.0701163 8.7096729 -1.3927706 9 3
-1.6384422 8.7803726 -1.1369191 6 4
-4.7462282 19.968975 -2.2109118 4 5
-2.7466106 20.129156 -1.896431 4 6
-4.3608198 23.36953 -1.9407055 3 7
-6.7967601 23.440426 -1.5641457 6 9
-3.1987395 23.442684 -1.3778949 4 10
-6.7994933 23.449852 -0.9947232 5 13
-0.63227719 3.4517934 -1.636378 2 0
-1.3367414 5.7081881 -1.6411749 2 1
-1.5208346 8.3026972 -1.6881778 3 2
-2.039422 8.7087927 -1.3915408 9 3
-1.6086032 8.7818537 -1.1364141 4 4
-4.6781735 19.976858 -2.2100549 4 5
-2.6772218 20.118412 -1.894572 4 6
-6.7106953 23.433847 -0.99309492 5 13
-0.62214726 3.464684 -1.6414495 1 0
-1.3185396 5.7203264 -1.6433314 2 1
-1.488379 8.2886534 -1.6842554 2 2
-2.0072365 8.7081556 -1.3903111 10 3
-1.5779408 8.7874155 -1.1364141 8 4
-4.6075239 19.989191 -2.2096267 4 5
-2.605449 20.115786 -1.8934568 4 6
-5.3963575 23.411451 -1.680015 4 8
-4.2016582 23.39867 -1.9407055 3 7
-3.0314131 23.40451 -1.3744066 4 10
-6.6266861 23.449434 -0.99276924 5 13
-0.60879195 3.4596937 -1.6380684 1 0
-1.2985624 5.7248945 -1.6433314 2 1
-1.4601145 8.2976599 -1.6850398 4 2
-1.9750761 8.7074003 -1.3890812 8 3
-1.5438168 8.7733307 -1.1338887 8 4
-4.537715 20.005154 -2.2096267 4 5
-2.5352104 20.12476 -1.8934568 4 6
-4.1054406 23.33074 -1.933871 3 7
-6.5233173 23.39543 -0.98951262 4 13
-0.59732658 3.4653704 -1.6397589 1 0
-1.2802473 5.7369118 -1.645488 2 1
-1.4324718 8.3104382 -1.6866088 7 2
-1.942946 8.7065277 -1.3878515 10 3
-1.5118324 8.7708454 -1.1328785 5 4
-4.4652524 20.009226 -2.2083414 4 5
-2.464941 20.133486 -1.8934568 4 6
-5.2310338 23.440767 -1.6794568 4 8
-2.8655074 23.405287 -1.3732438 4 10
-4.0365729 23.418043 -1.2453866 3 11
-6.433126 23.387232 -0.98821002 4 13
-0.58401942 3.4639618 -1.6380684 2 0
-1.2583879 5.737803 -1.6444098 2 1
-1.3987445 8.2962952 -1.6826866 5 2
-1.9101768 8.7097292 -1.3872365 10 3
-1.4823163 8.7919807 -1.1348989 11 4
-4.3893337 20.013807 -2.2070563 4 5
-2.3892579 20.126568 -1.8919696 4 6
-5.1416698 23.444191 -1.6783408 4 8
-3.9463382 23.406696 -1.9377764 3 7
-6.3385839 23.378248 -1.5523776 6 9
-6.3442316 23.399078 -0.98772156 4 13
-4.6980095 21.421259 5.8762279 3 31
-0.57192677 3.4659786 -1.6380684 2 0
-1.2383556 5.7421594 -1.6444098 2 1
-1.3691435 8.2972546 -1.6819019 5 2
-1.8789355 8.7124786 -1.3866216 11 3
-1.4490395 8.7814379 -1.1328785 7 4
-4.3177824 20.021225 -2.2061994 4 5
-2.3171797 20.118954 -1.8904824 4 6
-5.0657077 23.489296 -1.6802939 4 8
-2.697515 23.421223 -1.3730112 4 10
-6.2563372 23.397911 -0.98674458 4 13
-4.6272945 21.456408 5.8814044 3 31
-0.55924606 3.4643755 -1.636378 2 0
-1.2167047 5.7389112 -1.6422532 2 1
-1.3389199 8.29424 -1.6803331 6 2
-1.8468697 8.7112513 -1.3853917 12 3
-1.4177427 8.782526 -1.1323735 4 4
-4.2462139 20.028395 -2.2053425 4 5
-2.24649 20.122963 -1.8901106 4 6
-4.9571943 23.381924 -1.6713651 4 8
-3.7663245 23.331345 -1.9293146 3 7
-6.1793003 23.437368 -1.5534009 6 9
-2.6219397 23.486059 -1.376267 4 10
-6.1746182 23.419609 -0.98674458 4 13
-0.54771405 3.4698873 -1.6380684 1 0
-1.1982348 5.7506657 -1.6444098 2 1
-1.3105687 8.3027363 -1.6811175 4 2
-1.8140296 8.7060385 -1.3835469 11 3
-1.3846005 8.7717438 -1.1303532 7 4
-4.1762705 20.043098 -2.2053425 4 5
-2.1740885 20.110886 -1.8882519 4 6
-2.5343564 23.443457 -1.3732438 4 10
-6.0827708 23.40234 -0.98511624 4 13
-0.53559929 3.4717782 -1.6380684 2 0
-1.1789277 5.7585864 -1.645488 2 1
-1.2809826 8.3033857 -1.6803331 4 2
-1.7820452 8.7045736 -1.3823173 12 3
-1.3533697 8.7726011 -1.129848 8 4
-4.1022973 20.038071 -2.2032006 4 5
-2.1034651 20.114391 -1.88788 4 6
-4.7938371 23.415964 -1.6713651 4 8
-3.6051731 23.368889 -1.9302909 3 7
-2.4475288 23.404499 -1.3704531 4 10
-4.8003383 23.447718 -1.1148857 3 12
-5.9970822 23.407944 -0.984465 4 13
-0.52293617 3.4700422 -1.636378 1 0
-1.157299 5.7551146 -1.6433314 2 1
-1.2508193 8.3000498 -1.6787641 4 2
-1.7516475 8.710741 -1.3823173 11 3
-1.3233285 8.7811975 -1.1303532 7 4
-4.0346737 20.063969 -2.2044859 4 5
-2.0324337 20.113688 -1.8871365 4 6
-3.515255 23.326143 -1.9257345 3 7
-5.9139795 23.423386 -1.5482843 6 9
-2.3617961 23.373173 -1.3681276 4 10
-5.9075027 23.397732 -0.98316228 4 13
-0.51142687 3.4717569 -1.636378 1 0
-1.1374623 5.7551413 -1.6422532 2 1
-1.2238617 8.3080311 -1.6795485 2 2
-1.7212207 8.708745 -1.3810874 10 3
-1.2942034 8.7855368 -1.1303532 6 4
-3.9627228 20.049923 -2.2014871 4 5
-1.96534 20.116352 -1.8867648 4 6
-4.6266017 23.408907 -1.6685749 4 8
-3.4419551 23.365278 -1.9280127 3 7
-2.2881622 23.420618 -1.3704531 4 10
-5.8240919 23.393923 -0.9821853 4 13
-4.2244091 21.37396 5.8379226 3 31
-0.49982157 3.477109 -1.6380684 1 0
-1.120302 5.7742023 -1.6465664 2 1
-1.1937394 8.3044872 -1.6779797 2 2
-1.6900603 8.7108212 -1.3804725 10 3
-1.26353 8.7900009 -1.1303532 6 4
-3.8934734 20.067539 -2.2019155 4 5
-1.895113 20.123089 -1.8867648 4 6
-4.5471463 23.436665 -1.6694119 4 8
-5.7420545 23.412695 -1.5449585 6 9
-5.7395453 23.402464 -0.9816969 4 13
-4.1556664 21.418919 5.8462048 3 31
-0.4860678 3.4717371 -1.6346875 1 0
-1.0998493 5.7820544 -1.6476448 2 1
-1.1622041 8.3010378 -1.6764107 4 2
-1.6544269 8.6975422 -1.3773979 11 3
-1.2302021 8.7867126 -1.129343 7 4
-3.8161752 20.062141 -2.1997736 4 5
-1.8202637 20.117998 -1.8856493 4 6
-4.4500251 23.394375 -1.6652266 4 8
-5.6627545 23.460749 -1.5467494 6 9
-2.1158319 23.384689 -1.3674299 4 10
-3.2788441 23.41913 -1.2393155 3 11
-5.6471624 23.396151 -0.98055708 4 13
-4.0691867 21.392254 5.8348165 3 31
-0.47553292 3.480514 -1.6380684 1 0
-1.0792532 5.7780967 -1.645488 2 1
-1.1346681 8.3048468 -1.6764107 6 2
-1.6255733 8.702981 -1.3773979 8 3
-1.1999807 8.7828827 -1.128333 7 4
-3.7452388 20.051228 -2.1972032 4 5
-1.7531888 20.119959 -1.8852775 4 6
-4.364357 23.365858 -1.6621573 4 8
-3.1916857 23.36054 -1.9247582 3 7
-5.5639911 23.39142 -0.9795801 4 13
-4.0031848 21.432219 5.8420634 3 31
-0.46242505 3.4749653 -1.6346875 1 0
-1.0590785 5.7818289 -1.645488 2 1
-1.1051563 8.3048697 -1.6756263 5 2
-1.5944741 8.7047148 -1.376783 9 3
-1.1687938 8.7830839 -1.1278278 7 4
-3.6737952 20.056356 -2.1963465 4 5
-1.681623 20.110081 -1.8837906 4 6
-1.9599355 23.438347 -1.3697555 4 10
-5.4777541 23.391241 -0.9787659 4 13
-3.9206951 21.404257 5.8306761 3 31
-0.44982582 3.4729631 -1.632997 0 0
-1.0382073 5.7816992 -1.6444098 2 1
-1.0766618 8.3125658 -1.6764107 3 2
-1.5633785 8.7063379 -1.3761681 9 3
-1.1381258 8.7871103 -1.1278278 7 4
-3.6016488 20.057314 -2.1950612 4 5
-1.6110922 20.111858 -1.8834188 4 6
-4.2011261 23.395758 -1.6621573 4 8
-3.0218637 23.330856 -1.9205272 3 7
-1.8688552 23.329609 -1.3630112 4 10
-5.3933711 23.398539 -0.9782775 4 13
-3.8466337 21.421616 5.8317113 3 31
-0.43860877 3.4817059 -1.636378 0 0
-1.0180231 5.7852874 -1.6444098 2 1
-1.046664 8.3084898 -1.6748418 4 2
-1.532984 8.7117414 -1.3761681 10 3
-1.106956 8.7870922 -1.1273228 6 4
-3.5302491 20.061928 -2.1942046 4 5
-1.5408925 20.117359 -1.8834188 4 6
-5.3140306 23.427589 -1.5395859 6 9
-1.7926087 23.403679 -1.3669647 4 10
-4.131268 23.477438 -1.1104187 3 12
-5.3081422 23.401627 -0.97762614 4 13
-3.7698405 21.423492 5.8286052 3 31
-0.99716675 5.7850099 -1.6433314 2 1
-1.0167004 8.304307 -1.6732728 4 2
-1.5005488 8.7053547 -1.3743234 11 3
-1.0762745 8.7909021 -1.1273228 9 4
-3.456816 20.054535 -2.1920626 4 5
-1.470075 20.114672 -1.8826752 4 6
-4.0288901 23.373394 -1.6585299 4 8
-2.8608592 23.36721 -1.921829 3 7
-1.7097337 23.393862 -1.3660345 4 10
-4.0316386 23.389339 -1.1055795 3 12
-5.2150998 23.369307 -0.97550935 4 13
-0.9782477 5.796052 -1.645488 2 1
-0.98724145 8.3039112 -1.6724885 4 2
-1.4675188 8.6949501 -1.3718638 11 3
-1.0455797 8.7946062 -1.1273228 8 4
-3.3861241 20.062557 -2.1916342 4 5
-1.3995707 20.115705 -1.8823034 4 6
-3.9485991 23.395185 -1.6590879 4 8
-2.768914 23.289961 -1.9146689 3 7
-5.1383533 23.409534 -1.5360044 6 9
-1.6227909 23.323999 -1.361616 4 10
-5.1309175 23.375658 -0.97502089 4 13
-0.95801097 5.7994313 -1.645488 2 1
-0.9573521 8.2995129 -1.6709194 3 2
-1.4378047 8.7039185 -1.3724787 10 3
-1.0148761 8.7982016 -1.1273228 6 4
-3.312187 20.050711 -2.1890638 4 5
-1.3290869 20.116495 -1.8819317 4 6
-3.873419 23.448195 -1.6618782 4 8
-2.6949141 23.36285 -1.9198762 3 7
-5.0641918 23.462444 -1.538307 6 9
-1.5479512 23.429134 -1.3674299 4 10
-5.0526671 23.40905 -0.97567219 4 13
-0.93714517 5.7989378 -1.6444098 2 1
-0.929245 8.3106012 -1.6724885 5 2
-1.40615 8.7010813 -1.3712488 11 3
-0.98283321 8.7898617 -1.1258075 7 4
-3.2402678 20.050375 -2.1877787 4 5
-1.2583562 20.113064 -1.8811882 4 6
-3.7877195 23.437939 -1.6602041 4 8
-2.6071374 23.316648 -1.9153198 3 7
-4.9723129 23.433125 -1.535237 6 9
-1.4631604 23.386574 -1.3646393 4 10
-4.9634514 23.391361 -0.97420675 4 13
-0.91749996 5.8059783 -1.645488 2 1
-0.89938736 8.305994 -1.6709194 4 2
-1.375771 8.7059364 -1.3712488 10 3
-0.95171982 8.7892933 -1.1253024 5 4
-3.1684012 20.049776 -2.1864934 4 5
-1.1876758 20.109381 -1.8804445 4 6
-1.3789327 23.347687 -1.3620811 4 10
-2.5375464 23.434669 -1.2353381 3 11
-4.8727994 23.365503 -0.97241557 4 13
-0.8972261 5.8091459 -1.645488 2 1
-0.87079477 8.3129845 -1.6717038 2 2
-1.3435609 8.6989679 -1.3694041 8 3
-0.9206177 8.7886152 -1.1247973 6 4
-3.0959618 20.044994 -2.1847801 4 5
-1.117468 20.113403 -1.8804445 4 6
-3.6130364 23.392826 -1.6551815 4 8
-2.4476159 23.365999 -1.9179235 3 7
-4.7904005 23.378458 -0.97225279 4 13
-0.87751883 5.8160505 -1.6465664 2 1
-0.84098363 8.3081684 -1.670135 5 2
-1.3120102 8.6957874 -1.3681743 10 3
-0.89033562 8.795723 -1.1253024 3 4
-3.0265703 20.05961 -2.1852083 4 5
-1.0470496 20.113203 -1.8800727 4 6
-4.7109046 23.405638 -1.5301204 6 9
-1.2190152 23.416561 -1.3655694 4 10
-4.7040386 23.371525 -0.97127581 4 13
-0.8572129 5.8190784 -1.6465664 2 1
-0.81159782 8.3071489 -1.6693505 5 2
-1.2828021 8.7081347 -1.3694041 8 3
-0.85847175 8.7869301 -1.1237873 6 4
-2.9530573 20.046446 -2.1826379 4 5
-0.9768393 20.116735 -1.8800727 4 6
-3.4409239 23.358265 -1.6509962 4 8
-2.2821159 23.358709 -1.9159707 3 7
-1.1306885 23.285063 -1.3576626 4 10
-4.6201086 23.376043 -0.97078735 4 13
-0.8368938 5.8220353 -1.6465664 2 1
-0.78259331 8.3099318 -1.6693505 4 2
-1.2518326 8.7086477 -1.3687892 9 3
-0.82779211 8.7898731 -1.1237873 7 4
-2.8847566 20.068441 -2.183923 4 5
-0.90624893 20.112066 -1.8793292 4 6
-2.1990638 23.350658 -1.9146689 3 7
-4.5435853 23.418362 -1.5288411 6 9
-1.0546083 23.404556 -1.3644066 4 10
-3.3718765 23.457197 -1.1039044 3 12
-4.5369539 23.384182 -0.97046173 4 13
-0.8154977 5.8172917 -1.6444098 2 1
-0.7532292 8.3087072 -1.668566 4 2
-1.2208792 8.7090502 -1.3681743 10 3
-0.7967484 8.7887573 -1.1232822 8 4
-2.8124828 20.062635 -2.1822097 4 5
-0.83554727 20.10317 -1.8782138 4 6
-3.2827542 23.417282 -1.6535075 4 8
-2.1135871 23.314518 -1.9110888 3 7
-4.4804835 23.532114 -1.535237 6 9
-0.97174889 23.380163 -1.3627787 4 10
-3.285542 23.437168 -1.1024154 3 12
-4.4560528 23.403801 -0.97062451 4 13
-0.79721648 5.8198252 -1.6444098 2 1
-0.72746229 8.3149395 -1.6693505 6 2
-1.1924375 8.7050114 -1.3669444 8 3
-0.76913124 8.7912178 -1.1232822 6 4
-2.746196 20.047729 -2.1796393 4 5
-0.77268732 20.113655 -1.8789575 4 6
-3.2064564 23.407715 -1.6521124 4 8
-2.0410202 23.328985 -1.9117397 3 7
-0.89905304 23.403055 -1.3639416 4 10
-4.3751469 23.378401 -0.96899617 4 13
-0.77639043 5.8265262 -1.645488 2 1
-0.69600087 8.3058233 -1.6669971 5 2
-1.160004 8.7054062 -1.3663296 10 3
-0.73624384 8.786068 -1.122272 7 4
-2.6711276 20.045835 -2.178354 4 5
-0.69868958 20.108393 -1.8782138 4 6
-1.9614987 23.407818 -1.917598 3 7
-4.297164 23.436422 -1.5270504 6 9
-0.81327552 23.406193 -1.3639416 4 10
-4.2887158 23.390347 -0.96883339 4 13
-0.75706315 5.8290687 -1.645488 2 1
-0.66876626 8.3119965 -1.6677816 4 2
-1.1316361 8.7131233 -1.3669444 10 3
-0.70741987 8.7924166 -1.1227771 8 4
-2.6036086 20.046696 -2.1774974 4 5
-0.63162327 20.098658 -1.8770986 4 6
-3.0455313 23.449312 -1.6535075 4 8
-1.8816203 23.386379 -1.9153198 3 7
-0.72975183 23.22117 -1.3530114 4 10
-4.2054586 23.372974 -0.96753079 4 13
-0.73622966 5.8278546 -1.6444098 2 1
-0.63914782 8.3064585 -1.6662126 7 2
-1.1012166 8.717021 -1.3669444 9 3
-0.67642182 8.7908764 -1.122272 5 4
-2.5311284 20.035933 -2.1753554 4 5
-0.56146616 20.100739 -1.8770986 4 6
-1.8021212 23.420628 -1.917598 3 7
-4.1243672 23.390438 -1.5221896 6 9
-0.65382409 23.407194 -1.363709 4 10
-1.8028802 23.430492 -1.2315699 3 11
-4.1224627 23.379637 -0.96720505 4 13
-0.71682227 5.8380351 -1.6465664 2 1
-0.61015069 8.3086386 -1.6662126 7 2
-1.0693386 8.7090425 -1.3650997 9 3
-0.64573359 8.7931843 -1.122272 6 4
-2.4626329 20.056488 -2.1766405 4 5
-0.49120489 20.098597 -1.8767267 4 6
-2.8700902 23.374952 -1.6468109 4 8
-1.7148141 23.351234 -1.9114143 3 7
-4.0360703 23.366316 -0.96606523 4 13
-0.69541854 5.8406234 -1.6465664 2 1
-0.57996476 8.3147316 -1.6669971 3 2
-1.0364743 8.7050543 -1.36387 9 3
-0.6132223 8.7915325 -1.121767 7 4
-2.3881602 20.057482 -2.1757839 4 5
-0.41769683 20.108223 -1.8774703 4 6
-3.9508984 23.383928 -1.5198872 6 9
-0.48614338 23.40329 -1.3632439 4 10
-3.9517272 23.388832 -0.96639097 4 13
-0.67591208 5.850668 -1.6487229 2 1
-0.55067986 8.3127918 -1.6662126 3 2
-1.0060835 8.7086191 -1.36387 9 3
-0.58253229 8.7936201 -1.121767 6 4
-2.3176796 20.061743 -2.1753554 4 5
-0.34730142 20.097612 -1.8763551 4 6
-2.6958802 23.33543 -1.6426255 3 8
-1.5460916 23.339037 -1.9094615 3 7
-3.8628931 23.359112 -0.96459979 4 13
-0.65521711 5.8413939 -1.645488 2 1
-0.52335459 8.3184872 -1.6669971 2 2
-0.97719675 8.7119083 -1.36387 10 3
-0.5526185 8.7836237 -1.1202518 8 4
-2.2502477 20.061417 -2.1744986 4 5
-0.28075901 20.106619 -1.8770986 4 6
-2.6309299 23.455276 -1.6504382 4 8
-3.7903607 23.402397 -1.5193754 6 9
-0.32627317 23.366127 -1.3609183 4 10
-2.6273713 23.423552 -1.0979484 3 12
-3.7860429 23.375738 -0.96476263 4 13
-0.63255817 5.8322673 -1.6422532 2 1
-0.4928641 8.3203487 -1.6669971 3 2
-0.9452613 8.7154303 -1.36387 9 3
-0.52065772 8.7895508 -1.1207567 7 4
-2.1754217 20.057665 -2.1732135 4 5
-0.20698518 20.099546 -1.8763551 4 6
-2.5402164 23.421122 -1.6473689 4 8
-1.3826451 23.341301 -1.9088106 3 7
-0.2408407 23.387131 -1.3620811 4 10
-2.5419378 23.436993 -1.0981345 3 12
-3.6953497 23.357876 -0.96346003 4 13
-0.6140179 5.8419948 -1.6444098 2 1
-0.46439204 8.3062735 -1.6638591 3 2
-0.91635239 8.7185173 -1.36387 8 3
-0.49128374 8.7872677 -1.1202518 7 4
-2.1076436 20.052906 -2.1719284 4 5
-0.14035365 20.104107 -1.8767267 4 6
-2.4566898 23.373861 -1.6434625 3 8
-1.3038933 23.321877 -1.9068578 3 7
-0.16327824 23.387802 -1.3620811 4 10
-3.6197 23.381853 -0.96394849 4 13
-0.59376889 5.8557034 -1.6476448 2 1
-0.43435588 8.3157539 -1.6654282 2 2
-0.88319701 8.710021 -1.3620253 13 3
-0.4592824 8.7929716 -1.1207567 7 4
-2.0329328 20.048628 -2.1706433 4 5
-0.066671789 20.104486 -1.8767267 4 6
-2.3810728 23.481956 -1.6504382 4 8
-1.2194504 23.346407 -1.9084853 3 7
-3.5350382 23.401955 -1.5168172 6 9
-0.077588081 23.396231 -1.3625462 4 10
-3.5280123 23.355442 -0.96232021 4 13
-0.57257307 5.8500729 -1.645488 2 1
-0.40494183 8.3093834 -1.6638591 2 2
-0.85317063 8.7169847 -1.3626401 9 3
-0.4281978 8.7865944 -1.1197466 7 4
-1.9625449 20.051643 -2.1702149 4 5
0.0035115485 20.104595 -1.8767267 4 6
-2.2874238 23.370985 -1.6420674 3 8
-1.1375546 23.342556 -1.9078344 3 7
0.0040878956 23.404343 -1.3630112 4 10
-3.4447095 23.355753 -0.96183169 4 13
-0.55251479 5.8558702 -1.6465664 2 1
-0.37576267 8.3068285 -1.6630747 2 2
-0.82200086 8.712039 -1.3614103 10 3
-0.39753026 8.7880354 -1.1197466 7 4
-1.8914324 20.04649 -2.1689296 4 5
0.073675863 20.104462 -1.8767267 4 6
-3.3687437 23.406307 -1.515538 6 9
0.085768208 23.404186 -1.3630112 4 10
-1.0577829 23.383965 -1.2267549 3 11
-3.3631775 23.367634 -0.96183169 4 13
-0.5341109 5.8575778 -1.6465664 2 1
-0.34982276 8.3118858 -1.6638591 1 2
-0.79533839 8.7224512 -1.3626401 10 3
-0.36974636 8.7852764 -1.1192416 7 4
-1.8273467 20.040455 -2.1676445 4 5
0.13682367 20.100149 -1.8763551 4 6
-2.1309214 23.369747 -1.6409513 3 8
-0.98288292 23.353571 -1.9081599 3 7
0.1588227 23.331928 -1.3588253 4 10
-3.2880609 23.366215 -0.96134323 4 13
-0.51094681 5.8519106 -1.6444098 2 1
-0.31745717 8.3014107 -1.6615058 2 2
-0.76184285 8.725441 -1.3626401 7 3
-0.33631596 8.7945623 -1.1202518 6 4
-1.7500422 20.043358 -2.1672161 4 5
0.21408165 20.107439 -1.8770986 4 6
-3.2014563 23.401571 -1.5137472 6 9
0.24912676 23.399025 -1.3627787 4 10
-3.1988647 23.382627 -0.96150607 4 13
-0.4932071 5.8611636 -1.6465664 1 1
-0.29165277 8.3102064 -1.6630747 2 2
-0.73310328 8.7120361 -1.3601805 8 3
-0.30826962 8.7836781 -1.1187365 7 4
-1.686736 20.044794 -2.1667876 4 5
0.27708125 20.094719 -1.8759831 4 6
-1.9673945 23.380077 -1.6406722 3 8
-0.81871283 23.32799 -1.9055562 3 7
-3.1273983 23.407557 -1.5134914 6 9
0.3230716 23.430071 -1.3646393 4 10
-3.1232777 23.376717 -0.96085477 4 13
-0.47192985 5.8783722 -1.6508795 1 1
-0.25961724 8.3073454 -1.6622903 2 2
-0.69932777 8.7108479 -1.3595656 9 3
-0.27453837 8.7847977 -1.1187365 7 4
-1.6087977 20.039232 -2.1655025 4 5
0.35438263 20.101475 -1.8767267 4 6
-1.8807948 23.427237 -1.6434625 3 8
-3.0374911 23.419394 -1.5134914 6 9
0.41198397 23.368769 -1.3611509 4 10
-1.8817464 23.439091 -1.0953426 3 12
-3.0273201 23.340973 -0.95890081 4 13
-0.45052433 5.8684626 -1.6476448 1 1
-0.23072818 8.3121214 -1.6630747 2 2
-0.66922128 8.7171764 -1.3601805 9 3
-0.24398394 8.7896681 -1.1192416 6 4
-1.5382333 20.036797 -2.1646459 4 5
0.42462751 20.104095 -1.8770986 4 6
-1.7922921 23.34613 -1.637324 3 8
-0.64779902 23.337349 -1.9058816 3 7
-2.9547291 23.42193 -1.5129797 6 9
0.49219954 23.303308 -1.35743 4 10
-1.798087 23.421612 -1.0942259 3 12
-2.9483323 23.371223 -0.95971489 4 13
-0.4291909 5.8584743 -1.6444098 1 1
-0.201805 8.3167963 -1.6638591 2 2
-0.63849753 8.715518 -1.3595656 10 3
-0.21339473 8.7944336 -1.1197466 5 4
-1.4685676 20.046011 -2.1650741 4 5
0.49470863 20.098509 -1.8767267 4 6
-1.7142802 23.399998 -1.6406722 3 8
0.57560986 23.385281 -1.3623136 4 10
-2.8657546 23.373438 -0.95938927 4 13
-0.41105434 5.8636355 -1.645488 0 1
-0.17551197 8.3095474 -1.6622903 2 2
-0.61111546 8.7174807 -1.3595656 12 3
-0.18576685 8.7950602 -1.1197466 7 4
-1.4053098 20.046556 -2.1646459 4 5
0.55762267 20.088892 -1.8759831 4 6
-1.6416004 23.417212 -1.6415094 3 8
-0.49317333 23.349104 -1.9065325 3 7
-2.79317 23.389486 -1.5096539 6 9
0.64906961 23.383358 -1.3623136 4 10
-2.7894716 23.358517 -0.95841229 4 13
-0.3921181 5.8880954 -1.6519579 0 1
-0.14650299 8.3101091 -1.6622903 2 2
-0.58015442 8.7116737 -1.3583357 11 3
-0.15499297 8.791687 -1.1192416 6 4
-1.3350559 20.047371 -2.1642172 4 5
0.62836999 20.106728 -1.8778421 4 6
-1.5569261 23.379002 -1.63844 3 8
-0.411239 23.326765 -1.9045798 3 7
0.73181772 23.416872 -1.3644066 4 10
-2.706532 23.356203 -0.95792383 4 13
-0.36854324 5.8741808 -1.6476448 0 1
-0.11459538 8.3106108 -1.6622903 2 2
-0.54694933 8.7177811 -1.3589506 11 3
-0.12118158 8.7882509 -1.1187365 6 4
-1.2578256 20.04838 -2.1637888 4 5
0.70528531 20.096207 -1.8770986 4 6
-0.3218931 23.34412 -1.9058816 3 7
-2.6171992 23.369661 -1.5070956 6 9
0.82032025 23.373981 -1.3620811 4 10
-0.32241112 23.381687 -1.2254988 3 11
-2.615057 23.350534 -0.95727247 4 13
-0.34872079 5.8869662 -1.6508795 0 1
-0.085546575 8.3070374 -1.6615058 2 2
-0.51628339 8.7156916 -1.3583357 9 3
-0.090465084 8.7846518 -1.1182314 5 4
-1.1876051 20.048679 -2.1633606 4 5
0.77527219 20.089643 -1.8767267 4 6
-1.3822159 23.334021 -1.6345336 3 8
-0.24020456 23.325169 -1.9042543 3 7
0.90359479 23.414869 -1.3646393 4 10
-2.5313826 23.339653 -0.95645833 4 13
-0.32923949 5.9073768 -1.656271 0 1
-0.05673375 8.3347406 -1.6669971 4 2
-0.48607439 8.721386 -1.3589506 9 3
-0.059825048 8.7888823 -1.1187365 6 4
-1.1169456 20.040789 -2.1620755 4 5
0.84523124 20.082834 -1.8763551 4 6
-2.4523177 23.371481 -1.5060723 6 9
0.98364937 23.371674 -1.3623136 4 10
-2.4503074 23.352324 -0.95662123 4 13
-0.3120963 5.9353089 -1.6638192 0 1
-0.030478835 8.3152676 -1.6630747 3 2
-0.45867464 8.7228708 -1.3589506 9 3
-0.0322299 8.7929945 -1.1192416 5 4
-1.0537751 20.040228 -2.1616468 4 5
0.90867525 20.088039 -1.8770986 4 6
-1.2267991 23.330721 -1.6336967 3 8
-0.08560247 23.354155 -1.9065325 3 7
-2.3865647 23.454527 -1.510933 6 9
1.0559816 23.344536 -1.3609183 4 10
-2.3753183 23.344 -0.95596987 4 13
-0.0014493923 8.307478 -1.6615058 3 2
-0.42783356 8.7165241 -1.3577209 11 3
-0.0015327252 8.7851171 -1.1182314 6 4
-0.98361504 20.039812 -2.1612186 4 5
0.97957081 20.100655 -1.8785857 4 6
-1.1508235 23.446455 -1.6415094 3 8
1.1394129 23.38059 -1.3632439 4 10
-1.1504251 23.438339 -1.0931091 3 12
-2.2930303 23.344194 -0.95564425 4 13
0.027564351 8.3113546 -1.6622903 4 2
-0.3970423 8.7100677 -1.356491 9 3
0.029148573 8.7890377 -1.1187365 8 4
-0.91347057 20.03915 -2.1607902 4 5
1.049319 20.089159 -1.8778421 4 6
-1.0649692 23.362631 -1.6353707 3 8
0.077400535 23.338236 -1.9052305 3 7
-2.2189882 23.430878 -1.5083748 6 9
