# .PCD v0.7 - Point Cloud Data file format
VERSION 0.7
FIELDS x y z intensity ring
SIZE 4 4 4 4 2
TYPE F F F F U
COUNT 1 1 1 1 1
WIDTH 1273
HEIGHT 1
VIEWPOINT 0 0 0 1 0 0 0
POINTS 1273
DATA ascii
-10.124591 -12.221153 -0.83172309 2 11
-8.779108 -11.718219 1.7978168 2 29
-6.8436847 -10.130923 -0.49809435 1 13
-9.341423 -11.275809 2.6697261 2 30
-8.6939878 -11.604601 -0.3374086 3 16
-2.2305219 -2.6714637 -1.6228542 1 0
-6.8399143 -10.041996 -0.21208164 2 17
-8.0439072 -9.6340704 -0.36526075 2 15
-3.4332933 -4.5462236 -1.5948079 2 1
-4.6858535 -5.6121783 -1.4622506 14 2
-8.7119207 -11.535961 0 4 20
-8.7735691 -9.5211601 -0.15072876 1 18
-4.2851267 -5.6741858 -1.1062227 20 3
-5.6152439 -6.725296 -1.115201 1 4
-8.7278147 -12.81371 0.090107918 2 21
-8.6009169 -10.301193 -0.077995889 1 19
-8.2040377 -10.863443 -1.4663728 2 5
-6.1857681 -6.7128534 -0.85211128 1 6
-8.7746315 -11.619001 0.33880439 2 24
-8.6001034 -9.3329124 0.14774863 1 22
-6.6624956 -9.7815189 0.34443191 0 25
-8.0999155 -9.7011509 0.22059841 1 23
-6.2292118 -6.7599993 -0.53534412 2 10
-9.7799206 -11.713269 0.62168163 1 26
-7.7007594 -10.197024 -0.59522617 2 12
-9.6158915 -11.516813 -0.78629553 6 11
-9.1551199 -10.964954 1.1661158 3 28
-6.9072843 -10.140904 -0.49988547 1 13
-9.2030592 -11.02237 2.618068 2 30
-8.7360735 -11.567943 -0.33731556 3 16
-2.2342401 -2.6588912 -1.6194733 1 0
-8.8098164 -12.847163 -0.27190849 4 17
-8.1718798 -9.725071 -0.36968249 1 15
-3.442898 -4.5292811 -1.5926514 2 1
-4.7186031 -5.6154456 -1.4669574 14 2
-8.8251972 -9.5170088 -0.15110126 1 18
-4.3125 -5.6732802 -1.1086824 18 3
-5.6261349 -6.6954675 -1.1131806 0 4
-7.2863321 -10.625499 0.074880704 1 21
-8.6563988 -10.30168 -0.078205116 1 19
-7.5064921 -9.8751144 -1.3361429 3 5
-6.2284937 -6.7167482 -0.85508549 1 6
-8.7989941 -11.575456 0.33833912 3 24
-8.6647387 -9.3439722 0.14835396 1 22
-5.6245127 -6.6935372 -0.7137292 0 7
-9.0425959 -13.18662 0.46533218 1 25
-38.951092 -46.354343 1.0568479 22 23
-7.9826617 -11.640942 -0.90461552 3 9
-6.2341285 -6.7228251 -0.53394878 1 10
-8.1428518 -9.6905251 0.5156799 1 26
-6.9178929 -9.1007872 -0.53250217 1 12
-9.6597376 -11.495717 -0.78692347 2 11
-10.058978 -11.97084 1.276446 1 28
-6.9052057 -10.069711 -0.49744302 1 13
-10.05718 -10.845568 -0.51651257 2 14
-8.7965736 -11.572272 -0.33824608 2 16
-2.2463121 -2.6534519 -1.6211637 1 0
-6.8967404 -9.9787569 -0.2117326 1 17
-7.9982119 -9.4478731 -0.36025718 1 15
-3.4641593 -4.5227485 -1.5948079 2 1
-4.7594261 -5.6220636 -1.4732332 13 2
-8.9094238 -11.631994 0 3 20
-9.7528448 -10.440369 -0.1663278 3 18
-4.3476844 -5.6762638 -1.1123718 17 3
-7.8837137 -9.3126221 -1.5530992 1 4
-8.6656675 -10.236303 -0.07794939 1 19
-7.6780586 -10.024344 -1.3601327 1 5
-8.3791113 -8.9697943 -1.1458147 2 6
-7.2073131 -9.4097471 0.2758078 0 24
-8.6060934 -9.2127781 0.14677079 1 22
-8.6960392 -11.353403 -1.0000288 1 8
-7.2972422 -10.558235 0.37352246 1 25
-8.1631775 -9.6427383 0.22052862 1 23
-9.3416348 -13.516226 -1.052997 2 9
-11.192652 -11.981674 -0.95487541 2 10
-9.4722557 -12.366818 0.90720135 1 27
-8.9142828 -10.529981 0.56208616 1 26
-6.9779286 -9.1102667 -0.53454959 2 12
-10.25929 -12.118768 -0.83214176 2 11
-8.992692 -11.740707 1.8158534 4 29
-8.4413109 -9.971283 1.0665256 2 28
-6.8784394 -9.9522772 -0.4928838 1 13
-10.088675 -10.799872 -0.51609379 6 14
-9.0973501 -10.746228 2.567127 4 30
-7.4602008 -9.739913 -0.28548527 2 16
-2.2527475 -2.643229 -1.6194733 1 0
-7.8116441 -9.1656809 -0.35048276 1 15
-3.4814904 -4.5142856 -1.5958861 2 1
-4.7831321 -5.6122198 -1.4748021 13 2
-8.9626045 -11.62139 0 1 20
-8.7873001 -9.3444452 -0.14933182 1 18
-4.3761387 -5.674334 -1.1148314 17 3
-7.9171267 -9.2894478 -1.5536044 1 4
-6.9810042 -10.029404 0.071021587 3 21
-9.0342636 -10.600224 -0.080948338 1 19
-6.3543534 -6.7572417 -0.86586696 0 6
-8.8551674 -11.482081 0.3374086 1 24
-10.551884 -11.220909 0.17931925 2 22
-9.7776766 -11.472497 -1.2305564 1 7
-7.3504891 -10.560232 0.37445337 1 25
-8.3559513 -9.8043365 0.22485681 1 23
-4.7182879 -6.7786255 -0.52931261 0 9
-6.3657136 -6.7693219 -0.54115808 1 10
-9.535162 -12.363798 0.90929431 1 27
-9.9265089 -11.647128 0.62347281 1 26
-6.9934597 -9.0680923 -0.53343284 1 12
-10.317558 -12.10596 -0.8336072 2 11
-8.4739208 -10.987737 1.7037336 1 29
-8.9578094 -9.5257664 -0.45662501 4 14
-9.2809839 -10.889709 2.6087408 2 30
-7.2775517 -9.4364605 -0.27729666 0 16
-2.2647824 -2.6377048 -1.6211637 1 0
-7.8087225 -9.0945177 -0.34885368 1 15
-3.4956501 -4.4984531 -1.5948079 2 1
-4.821557 -5.6154814 -1.4802934 12 2
-8.8382425 -11.373684 0 1 20
-9.4403992 -9.9655056 -0.1598088 1 18
-4.4041834 -5.6676188 -1.1166762 17 3
-6.9901543 -9.9644547 0.070742622 1 21
-9.0652399 -10.557935 -0.080878593 1 19
-5.1831322 -6.6700258 -0.90989661 0 5
-10.58194 -11.170542 0.179133 2 22
-5.2077613 -6.7017207 -0.5934881 0 8
-5.7655778 -6.7149463 -0.72251654 2 7
-7.377666 -10.516852 0.37387154 2 25
-10.137417 -11.806658 0.27162927 1 23
-8.2278862 -10.588234 0.78092343 1 27
-9.982152 -11.625827 0.62428689 1 26
-7.9313374 -10.206614 -0.60211277 1 12
-8.3801527 -10.784182 1.6769222 1 29
-10.043014 -11.696711 1.2585458 3 28
-6.6998653 -9.5506487 -0.47529826 1 13
-8.9349318 -9.4319229 -0.45369348 1 14
-9.2823839 -10.810835 2.5979786 2 30
-7.2163949 -9.2865744 -0.2736676 1 16
-2.2763467 -2.6325254 -1.6228542 1 0
-7.3470926 -10.395898 -0.22220403 1 17
-7.8822622 -9.1155958 -0.35071549 2 15
-3.5160789 -4.4922905 -1.5969645 2 1
-4.8513899 -5.6104851 -1.4834312 12 2
-7.3345518 -9.3709326 0 1 20
-9.5855579 -10.048258 -0.16167137 1 18
-4.4409924 -5.6739988 -1.1209805 15 3
-7.9185133 -9.1575193 -1.5409775 1 4
-10.028199 -11.597307 -0.089108266 1 19
-8.9126215 -11.38714 -1.5576196 4 5
-8.8464527 -9.2734756 -1.1963761 1 6
-8.096633 -10.344599 0.30567765 2 24
-7.2330666 -9.2412701 -0.82061517 1 8
-9.1424179 -10.572927 -1.1410555 1 7
-7.4766355 -10.579197 0.37701333 2 25
-10.073927 -11.65019 0.26883686 1 23
-4.7229009 -6.6827512 -0.52445191 0 9
-10.898545 -11.424623 -0.91952682 2 10
-8.2685728 -9.5623522 0.51502854 1 26
-9.607091 -12.274425 -0.72607166 1 12
-8.7108679 -10.073853 -0.69795239 1 11
-8.4715796 -10.823647 1.6876467 1 29
-8.070673 -9.3334875 1.0072923 1 28
-8.912961 -12.61155 -0.62917179 1 13
-8.987114 -9.4209261 -0.45467067 1 14
-7.2512312 -9.2644787 -0.27376065 2 16
-2.2822261 -2.6226265 -1.6211637 1 0
-6.8789253 -9.6688643 -0.20712517 1 17
-8.490921 -9.7573662 -0.37643152 2 15
-3.5277908 -4.4781966 -1.5958861 2 1
-4.8818669 -5.6100111 -1.4873537 13 2
-9.8829889 -10.295093 -0.16614154 1 18
-4.4612412 -5.6631236 -1.1215955 17 3
-8.809433 -10.123384 -1.7081566 2 4
-8.1343231 -11.433424 0.081552781 1 21
-9.016902 -10.361798 -0.079832457 2 19
-8.9557333 -11.368457 -1.5589048 2 5
-10.800692 -11.251061 -1.455876 1 6
-9.3317509 -11.845775 0.35090122 2 24
-10.13133 -12.860765 -1.1448432 1 8
-8.2648344 -9.4975576 -1.0277961 1 7
-8.1124744 -11.402715 0.40726748 1 25
-8.1309156 -9.3436642 0.21620041 1 23
-8.3536701 -9.5996437 0.518448 1 26
-7.9963818 -10.15065 -0.60192662 1 12
-9.8123388 -11.275876 -0.78336465 1 11
-9.5890017 -12.172331 1.9026244 2 29
-8.170619 -9.3892899 1.0160797 1 28
-8.9618053 -12.596515 -0.62982315 3 13
-9.9219322 -10.33566 -0.50031918 2 14
-8.7229967 -11.073019 -0.32801029 3 16
-2.2894332 -2.6115181 -1.6194733 1 0
-6.8840218 -9.6013327 -0.20621765 1 17
-8.5081768 -9.7051344 -0.37561697 1 15
-3.5465755 -4.4682531 -1.5969645 2 1
-4.9204955 -5.6127267 -1.4928449 12 2
-7.6543059 -9.6434937 0 1 20
-4.501626 -5.6715012 -1.1265148 14 3
-5.9142184 -6.7462497 -1.1419699 1 4
-6.9245768 -9.657896 0.069068789 2 21
-9.5242729 -11.999424 0.35648435 1 24
-8.741744 -9.0397034 0.14639826 1 22
-9.7738094 -13.631798 -1.0749984 2 9
-6.5151267 -6.7371926 -0.54580915 2 10
-8.3339968 -10.499821 0.78069085 2 27
-10.14349 -11.570508 0.62689215 1 26
-8.1080551 -10.215163 -0.60751039 1 12
-30.648335 -34.960041 -2.436553 15 11
-9.835948 -12.392097 1.9425975 2 29
-8.9683237 -12.508366 -0.62705499 1 13
-9.1344013 -9.4457445 -0.45885858 1 14
-7.2793193 -9.1710558 -0.2724579 0 16
-2.2985353 -2.6035104 -1.6194733 1 0
-8.5234795 -9.6543941 -0.37480244 3 15
-3.5597456 -4.452837 -1.5958861 2 1
-4.9530373 -5.6102176 -1.4967673 9 2
-10.257776 -10.53358 -0.17117049 1 18
-4.5287995 -5.6650138 -1.1283594 16 3
-5.9114695 -6.695817 -1.1369191 2 4
-9.4431667 -13.074026 0.093734547 2 21
-8.6751919 -9.8262367 -0.076182574 1 19
-5.3391695 -6.6786947 -0.92103469 0 5
-6.5435596 -6.7194982 -0.87553316 0 6
-9.4886923 -11.869275 0.35359973 1 24
-7.3627253 -9.2099323 -0.82452154 2 8
-5.936769 -6.724473 -0.73228025 1 7
-8.1631584 -9.2462645 0.21529289 2 23
-6.5386038 -6.7144094 -0.54580915 1 10
-8.024003 -10.037116 0.74836552 2 27
-10.207623 -11.561995 0.62835765 1 26
-8.1461573 -10.189918 -0.60769647 1 12
-9.9139252 -11.229328 -0.78503942 2 11
-8.7362871 -10.928102 1.7178704 1 29
-9.0072517 -12.470503 -0.62672937 1 13
-7.3961854 -9.2517881 -0.27562168 0 16
-2.3152902 -2.6031947 -1.6245446 1 0
-8.8119001 -12.106309 -0.26136723 1 17
-8.6092939 -9.6798534 -0.37701333 1 15
-3.5784588 -4.44276 -1.5969645 2 1
-4.9892068 -5.609611 -1.501474 4 2
-7.6930079 -9.5510921 0 1 20
-9.7809401 -9.9705458 -0.16260266 1 18
-4.5668883 -5.6699243 -1.1326638 16 3
-8.7892466 -9.8821831 -1.683408 2 4
-9.5475187 -13.116945 0.094292499 2 21
-10.088133 -11.342585 -0.088224858 1 19
-9.0707426 -11.26159 -1.5576196 2 5
-8.9639139 -9.137682 -1.1948891 1 6
-7.3989358 -9.1859932 -0.82480055 2 8
-10.563559 -11.87713 -1.2976007 2 7
-9.2636356 -12.72693 0.45811775 1 25
-8.1730719 -9.1893873 0.21466459 1 23
-4.8697777 -6.6903882 -0.53033596 0 9
-8.9568958 -9.1305275 -0.74487716 2 10
-8.0507183 -9.9952002 0.74743533 2 27
-10.196106 -12.658761 -0.75715446 1 12
-8.2425957 -9.2675571 1.0124996 1 28
-7.3947291 -10.159316 -0.51193482 1 13
-7.437572 -9.2339611 -0.27590084 0 16
-2.3219442 -2.5923965 -1.6228542 2 0
-8.4355211 -11.5046 -0.24901094 1 17
-3.5987983 -4.436224 -1.5991211 2 1
-5.0296926 -5.6155343 -1.5077498 3 2
-7.320581 -9.0240507 0 1 20
-11.493795 -11.635083 -0.19040157 1 18
-4.599102 -5.6692948 -1.1357384 19 3
-10.405208 -11.617171 -0.090642616 1 19
-7.8171592 -9.6361809 -1.3365712 1 5
-6.6558514 -6.7376685 -0.88408399 1 6
-8.3187666 -10.25451 0.30725956 3 24
-8.8037577 -8.9119787 0.1458395 3 22
-8.8915043 -10.960523 -0.98691458 1 8
-6.067193 -6.7738795 -0.74236953 0 7
-10.563898 -11.794346 0.27637631 1 23
-9.9703131 -13.597792 -1.0806266 2 9
-6.6762872 -6.7583551 -0.55325097 1 10
-8.3321009 -10.270947 0.77022582 1 27
-10.42609 -11.640487 0.63666189 1 26
-9.8527784 -11.000398 -0.7739442 3 11
-8.309474 -9.2773342 1.0167305 1 28
-7.4443259 -10.15278 -0.5129118 1 13
-9.1080236 -9.2199841 -0.45257667 1 14
-8.9309587 -11.009157 -0.32987133 1 16
-2.3300767 -2.5850897 -1.6228542 2 0
-10.911228 -12.105397 -0.47429207 1 15
-3.6151528 -4.4278812 -1.6001995 2 1
-5.0656915 -5.620101 -1.5132412 6 2
-8.9473238 -9.0005798 -0.14774863 2 18
-4.6343865 -5.6762509 -1.1400428 19 3
-9.864706 -13.36551 0.096547522 2 21
-10.60769 -11.768638 -0.092083968 1 19
-7.4632416 -9.1410646 0.27459812 1 24
-8.8317118 -8.8842793 0.1458395 1 22
-7.9588394 -10.783285 0.39004588 1 25
-8.3677206 -9.2835178 0.21815509 1 23
-9.7451143 -13.203477 -1.0517179 2 9
-6.6974854 -6.7373495 -0.55325097 1 10
-9.9755688 -12.218193 0.91859663 1 27
-10.345535 -12.671332 -0.76199371 3 12
-10.023682 -11.120713 -0.7846207 2 11
-8.9035921 -10.905223 1.7285949 3 29
-7.3693814 -9.9846392 -0.50558448 3 13
-43.618896 -43.878525 -2.1605582 47 14
-8.1359701 -9.9650307 -0.29935011 2 16
-2.3366501 -2.5742557 -1.6211637 1 0
-7.3185296 -9.8436337 -0.21410613 2 17
-10.966856 -12.082037 -0.4748739 1 15
-3.6330345 -4.4182091 -1.6012776 2 1
-5.0958242 -5.6140003 -1.516379 6 2
-10.152 -12.34606 0 1 20
-9.0239658 -9.0145187 -0.14849366 1 18
-4.6667256 -5.6753025 -1.1431173 17 3
-6.1045709 -6.7253227 -1.1561118 1 4
-63.679863 -70.155235 -0.55066723 30 19
-5.5039988 -6.6935282 -0.93345797 0 5
-9.0193243 -9.0098829 -1.190056 1 6
-7.5306644 -9.1581984 0.27590084 0 24
-10.527699 -12.802954 -1.1590736 2 8
-8.4458485 -9.3046761 -1.0258434 3 7
-8.7645884 -11.788625 0.42751449 2 25
-8.6446867 -9.5237341 0.22450775 1 23
-5.0087047 -6.7368522 -0.5380109 0 9
-10.512276 -10.501271 -0.86534125 2 10
-8.5958576 -9.4699392 0.52105325 1 26
-10.519135 -12.79254 -0.77148598 1 12
-9.6463051 -10.627204 -0.75217241 1 11
-8.8508291 -10.763679 1.7110457 1 29
-10.144664 -11.176239 1.2321837 3 28
-7.4971914 -10.083939 -0.51193482 2 13
-44.549557 -44.502922 -2.1989474 48 14
-9.0037785 -10.949683 -0.32987133 2 16
-2.348067 -2.5687597 -1.6228542 1 0
-8.6977892 -11.613894 -0.25326934 1 17
-8.6269684 -9.437809 -0.37212613 1 15
-3.6410635 -4.3966017 -1.5980428 2 1
-5.1233277 -5.6048646 -1.5187324 5 2
-8.5494366 -10.323485 0 2 20
-8.9843855 -8.9125443 -0.14732955 2 18
-4.6965899 -5.671155 -1.145577 17 3
-9.0728788 -9.9256306 -1.7116921 4 4
-7.3466463 -9.8097534 0.071230821 3 21
-10.619425 -11.617535 -0.091479525 1 19
-7.8990822 -9.5381794 -1.3340009 1 5
-6.8028822 -6.7484846 -0.89449376 0 6
-8.8708029 -8.7998695 0.14546698 1 22
-8.5240002 -9.3251638 -1.0313761 1 7
-8.8104763 -11.76436 0.42774722 3 25
-9.344367 -10.222635 0.24175073 1 23
-6.8350754 -6.7804203 -0.56069273 1 10
-10.144675 -12.249744 0.92627096 1 27
-10.40317 -11.380954 0.62819481 1 26
-10.594303 -12.792672 -0.77371949 3 12
-9.0630732 -10.943705 1.7446817 2 29
-9.4116373 -10.296227 1.1387773 3 28
-8.6679449 -11.574044 -0.58911586 3 13
-64.267151 -63.75325 -3.1611965 54 14
-9.5021982 -10.395301 2.5678446 2 30
-8.1670809 -9.8617897 -0.29795429 1 16
-2.3599219 -2.5628028 -1.6245446 1 0
-3.6670246 -4.3950572 -1.602356 2 1
-5.1597781 -5.6033607 -1.5234393 3 2
-8.5795298 -10.282866 0 1 20
-10.527423 -10.366964 -0.17200866 1 18
-4.7300053 -5.6690769 -1.1486515 16 3
-6.2116714 -6.7456846 -1.1672235 1 4
-8.7125664 -11.545191 0.08406353 3 21
-10.724252 -11.646209 -0.092014223 1 19
-5.6230936 -6.7394748 -0.94545281 0 5
-8.9614916 -10.740662 0.32549787 2 24
-11.556227 -11.380087 0.18881838 2 22
-5.623951 -6.7405024 -0.61385697 0 8
-8.7620125 -11.610713 0.42332548 3 25
-9.3736458 -10.179492 0.24154131 1 23
-7.865303 -10.422466 -0.83682054 1 9
-9.7544479 -10.593031 0.58667338 1 26
-9.6555958 -11.57257 -0.70206159 1 12
-8.891407 -9.6557961 -0.68790388 1 11
-9.5114241 -10.329115 1.1462628 1 28
-78.870193 -77.66806 -3.8654683 63 14
-9.5615597 -10.383561 2.5735843 2 30
-8.2364769 -9.871706 -0.299164 2 16
-2.3708723 -2.557622 -1.6262352 1 0
-8.7738161 -11.546519 -0.25312969 5 17
-10.402363 -11.22174 -0.44531789 1 15
-3.6815786 -4.3828726 -1.602356 2 1
-5.1836643 -5.5919728 -1.5250082 2 2
-10.553166 -10.323606 -0.17186897 1 18
-4.7564049 -5.6624398 -1.1504962 17 3
-8.7342491 -9.4222317 -0.07467147 1 19
-8.8427153 -8.650362 -1.1547372 1 6
-10.707477 -12.747115 0.3873778 1 24
-10.238658 -10.01594 0.16674688 2 22
-6.2282362 -6.7188239 -0.74790227 1 7
-8.79321 -11.572042 0.42297637 2 25
-7.9167285 -10.418574 -0.8386113 3 9
-27.797306 -27.19264 -2.2646315 10 10
-9.8003902 -10.572351 0.58732468 1 26
-8.8826447 -9.5823154 -0.68476373 1 11
-10.206649 -12.150886 1.9484472 2 29
-9.1499243 -9.8706484 1.0987459 1 28
-6.852777 -9.0183935 -0.46145779 2 13
-9.395834 -9.1914492 -0.45899817 1 14
-8.3231792 -9.9086399 -0.30111808 1 16
-2.3768673 -2.5470948 -1.6245446 1 0
-8.8630934 -11.584063 -0.2545957 1 17
-8.7373343 -9.3630896 -0.3727079 1 15
-3.6985805 -4.3735809 -1.6034343 2 1
-5.2048554 -5.5776196 -1.5257926 2 2
-9.9467373 -11.762043 0 1 20
-9.0928946 -8.8362808 -0.14760894 1 18
-4.7930226 -5.6677618 -1.1548007 21 3
-11.667911 -12.50355 -2.1768644 3 4
-8.9226274 -11.661875 0.085342146 3 21
-10.269109 -11.004567 -0.087480932 1 19
-9.2089987 -10.889665 -1.5362002 2 5
-6.9605546 -6.7641182 -0.90601879 0 6
-9.9672852 -11.786342 0.35918289 1 24
-9.5977373 -9.3268757 0.15580426 2 22
-8.8429098 -10.456764 -0.95761687 3 8
-8.3965359 -8.9978838 -1.0046886 4 7
-9.9127026 -12.955902 0.47475755 1 25
-8.6141863 -9.2311211 0.22038898 1 23
-5.1544766 -6.7369008 -0.54363912 0 9
-6.9761271 -6.7792511 -0.56650668 1 10
-8.5452423 -10.104772 0.77069092 1 27
-63.999607 -68.58316 3.8217626 34 26
-10.34878 -12.237459 -0.74654537 1 12
-9.5803404 -11.328777 1.8217031 2 29
-9.2451658 -9.9072905 1.1062315 1 28
-7.9512291 -10.392257 -0.53310263 1 13
-9.4291296 -9.1630268 -0.4591378 1 14
-9.70539 -10.400475 2.5936737 2 30
-8.3172607 -9.8351831 -0.29972231 1 16
-2.3782957 -2.5308578 -1.6194733 1 0
-7.4069481 -9.6111794 -0.21180241 1 17
-3.7163212 -4.3635774 -1.6045126 2 1
-5.2350368 -5.5708518 -1.5289305 1 2
-10.291177 -12.083548 0 1 20
-9.1121702 -8.7933788 -0.14742269 1 18
-4.8255901 -5.6660428 -1.1578752 19 3
-11.722352 -12.474313 -2.1788845 3 4
-9.0047874 -11.684519 0.085737355 3 21
-9.8308439 -10.461469 -0.083435841 1 19
-9.2392159 -10.848372 -1.534915 4 5
-10.858816 -12.750051 0.38970414 1 24
-8.9970446 -8.6822815 0.14556012 1 22
-8.8405476 -10.380268 -0.95343143 3 8
-6.3666482 -6.7750535 -0.75896782 0 7
-8.8717737 -11.511922 0.42297637 1 25
-8.621707 -9.1747684 0.21976072 1 23
-5.1657772 -6.7030592 -0.54236001 2 9
-9.3287268 -10.953472 0.83789963 1 27
-63.41753 -67.485611 3.7729139 35 26
-10.412157 -12.225598 -0.74803436 1 12
-8.9804878 -9.5565643 -0.68727589 1 11
-9.3479433 -9.9475918 1.114368 1 28
-7.9118257 -10.266304 -0.52805489 2 13
-44.909092 -43.337936 -2.1794038 47 14
-8.372282 -9.8304472 -0.30046672 1 16
-2.3925407 -2.5273886 -1.6228542 1 0
-8.8783274 -9.3787251 -0.37584972 1 15
-3.7322905 -4.349926 -1.6045126 2 1
-5.2473316 -5.5430803 -1.5265771 2 2
-9.1919413 -10.713063 0 1 20
-10.195681 -9.7670622 -0.1643721 3 18
-4.8694892 -5.6753135 -1.1634094 21 3
-7.1536527 -9.2124681 0.067790166 1 21
-10.468585 -11.058613 -0.08850383 1 19
-5.7905831 -6.7488337 -0.95787609 0 5
-11.11569 -10.648396 -1.4369154 1 6
-9.7571211 -11.371772 0.34866795 1 24
-9.0576925 -8.6769142 0.14602576 1 22
-5.7813115 -6.738028 -0.62083262 0 8
-8.691021 -9.1808615 0.22066824 1 23
-7.3007121 -9.4018517 -0.76288557 1 9
-28.048819 -26.869669 -2.262073 10 10
-8.0712729 -9.4069414 0.72185415 1 27
-8.9962339 -9.5032768 -0.68581045 1 11
-9.4620962 -11.027925 1.7841673 2 29
-9.9297523 -10.489411 1.179134 1 28
-7.8636084 -10.126749 -0.52235585 1 13
-10.960917 -10.50013 -0.53005356 2 14
-9.8174391 -10.370767 2.6037185 2 30
-8.4967937 -9.9028797 -0.30363053 2 16
-2.4009089 -2.5194407 -1.6228542 1 0
-7.4738674 -9.5592337 -0.21180241 1 17
-10.484381 -11.001989 -0.44229248 1 15
-3.7441769 -4.33461 -1.6034343 1 1
-5.2765079 -5.5370064 -1.5297149 1 2
-9.0809898 -10.513005 0 1 20
-9.312417 -8.8618975 -0.14965777 1 18
-4.9037848 -5.6770806 -1.1670988 18 3
-10.278948 -10.786414 -1.8965487 2 4
-7.164453 -9.1634855 0.067604184 2 21
-10.083005 -10.580798 -0.084946938 1 19
-7.0887084 -6.7457681 -0.91345435 0 6
-9.8601284 -11.415009 0.35099426 1 24
-5.7931905 -6.7067404 -0.61971653 1 8
-6.3972917 -6.7131224 -0.75701517 0 7
-9.3533478 -11.963128 0.44194338 2 25
-8.7490101 -9.1809435 0.22136633 1 23
-7.2580881 -9.283247 -0.7552107 2 9
-7.1248407 -6.7801523 -0.57278568 1 10
-8.1859531 -9.4768267 0.72929591 1 27
-30.405216 -35.199928 -2.1666753 13 12
-9.7166262 -10.196331 -0.73814642 1 11
-10.068996 -10.566097 1.1915015 1 28
-10.019135 -12.814684 -0.6627146 2 13
-11.04201 -10.507815 -0.53228712 2 14
-7.9544992 -9.2088737 -0.28315896 1 16
-2.4126368 -2.5132396 -1.6245446 1 0
-10.627082 -11.070213 -0.4465979 2 15
-3.7625666 -4.3237648 -1.6045126 2 1
-5.3021975 -5.5232906 -1.531284 1 2
-9.1273365 -10.488707 0 1 20
-9.2895899 -8.7755222 -0.14877306 1 18
-4.934936 -5.6709971 -1.1695584 22 3
-9.6039524 -10.004421 -1.7652298 2 4
-7.2301664 -9.1780138 0.06790641 1 21
-8.8641176 -9.233737 -0.074392498 1 19
-10.923225 -12.552459 -1.7923763 3 5
-9.9859009 -11.475328 0.35397196 1 24
-9.9380789 -11.420374 -1.0586243 3 8
-9.4257097 -9.8187466 -1.1111133 1 7
-9.384758 -11.913064 0.44136161 3 25
-5.3208337 -6.7542958 -0.55105817 0 9
-8.8130608 -10.127556 0.78185362 1 27
-10.586787 -11.028238 0.62282145 1 26
-10.885333 -12.508914 -0.77241665 1 12
-6.4620471 -6.7315035 -0.48902723 0 11
-10.04872 -12.7559 -0.66157478 2 13
-42.363167 -40.018871 -2.0350595 41 14
-2.4209578 -2.5052254 -1.6245446 1 0
-8.760705 -11.045338 -0.24607892 3 17
-10.213623 -10.569134 -0.42774722 1 15
-3.7743461 -4.3083663 -1.6034343 2 1
-5.3313875 -5.5169597 -1.5344218 1 2
-9.8447428 -11.237644 0 1 20
-9.3857222 -8.8076191 -0.14984404 1 18
-4.9693422 -5.6724386 -1.1732479 21 3
-6.523984 -6.7510676 -1.1950026 2 4
-7.3749032 -9.2981443 0.068975799 1 21
-11.07111 -11.456467 -0.092595421 2 19
-7.6391907 -8.7200346 -1.2487518 1 5
-9.3689613 -8.7918901 -1.1993504 2 6
-9.8552999 -9.2482738 0.15734088 2 22
-8.3851166 -9.5714998 -0.8898136 1 8
-9.5136604 -11.99465 0.44555062 2 25
-10.989013 -11.371512 0.27602726 1 23
-11.024438 -10.3454 -0.8804574 5 10
-8.3782167 -9.5636244 0.74045867 1 27
-10.642742 -11.013189 0.62396127 1 26
-10.926755 -12.472746 -0.77241665 1 12
-6.5037651 -6.730145 -0.49049264 0 11
-9.5669231 -12.061803 -0.62721783 1 13
-78.534447 -73.697205 -3.7609096 63 14
-8.6273003 -9.847949 -0.30465409 2 16
-2.4296882 -2.4967594 -1.6245446 1 0
-7.6060104 -9.5210686 -0.21270993 1 17
-3.7919104 -4.2980537 -1.6045126 2 1
-5.35882 -5.5067487 -1.5367752 2 2
-10.013578 -11.350189 0 1 20
-9.4164104 -8.7748022 -0.14984404 1 18
-5.0074162 -5.6758051 -1.1775522 21 3
-6.5392079 -6.7197218 -1.1934873 1 4
-10.159775 -10.440233 -0.084667966 2 19
-9.4840927 -8.8378725 -1.2101319 1 6
-9.9518995 -9.2738047 0.15836531 2 22
-9.3477449 -9.6057873 -1.0941895 1 7
-9.9597511 -12.46744 0.46440127 1 25
-10.521 -10.81143 0.26332191 1 23
-7.2676992 -9.0975761 -0.74625659 2 9
-7.2684851 -6.773231 -0.57859957 1 10
-8.7919712 -9.9655218 0.7739467 1 27
-10.681122 -10.975972 0.62396127 1 26
-10.986088 -12.452509 -0.7735334 1 12
-6.5578632 -6.7388916 -0.49279541 0 11
-9.2087526 -10.437935 1.7090958 3 29
-27.709351 -34.686073 -1.8087062 18 13
-78.498772 -73.150085 -3.7469497 63 14
-8.6034212 -9.7518034 -0.30260694 1 16
-2.4434638 -2.4934406 -1.6279256 1 0
-7.6417069 -9.4975739 -0.21277973 1 17
-10.287163 -10.497568 -0.42774722 1 15
-3.8171248 -4.2963085 -1.6088258 1 1
-5.3835006 -5.4936104 -1.5383441 2 2
-10.215201 -11.497569 0 1 20
-10.098702 -9.3449516 -0.16018131 1 18
-5.0403252 -5.6730633 -1.1806267 20 3
-9.773119 -9.973011 -1.7773515 4 4
-8.4175472 -10.461835 0.078042381 1 21
-11.215213 -11.4446 -0.093130112 1 19
-5.95123 -6.698319 -0.96515864 0 5
-9.1526814 -10.301664 0.32065913 1 24
-10.515569 -9.7307034 0.16679345 2 22
-5.9657755 -6.7146907 -0.62808728 0 8
-7.3839793 -9.1772537 0.34280285 0 25
-8.7055893 -8.883647 0.21710794 1 23
-7.3144269 -9.0908098 -0.74779159 1 9
-8.8426189 -9.9526796 0.77534205 1 27
-9.8591337 -11.096803 -0.6914525 1 12
-6.6093049 -6.7444868 -0.49488884 0 11
-8.9735279 -10.100022 1.6588856 1 29
-9.7914038 -9.9916697 1.1420318 1 28
-9.878891 -12.278081 -0.64203531 1 13
-10.671248 -9.8747635 -0.50771785 2 14
-8.6320992 -9.7157316 -0.30242082 1 16
-2.4496062 -2.4823165 -1.6262352 1 0
-7.5866833 -9.3620892 -0.21033642 1 17
-9.1413984 -9.2634659 -0.37875876 1 15
-3.8243928 -4.2743473 -1.6055909 2 1
-5.3971334 -5.469203 -1.5367752 1 2
-9.1137228 -10.185987 0 1 20
-11.058977 -10.162129 -0.17484908 3 18
-5.0732737 -5.6701636 -1.1837014 21 3
-6.6835098 -6.7727571 -1.2111648 1 4
-7.6682973 -9.4628019 0.070789114 1 21
-11.670909 -11.826754 -0.096570767 3 19
-9.2845612 -8.5316124 -1.1770438 1 6
-8.4019814 -9.3905067 0.29320863 1 24
-10.593646 -9.7345352 0.16749191 2 22
-8.5114956 -9.5129051 -0.89260381 1 8
-6.6814942 -6.7707143 -0.7765426 1 7
-5.4662337 -6.7454205 -0.55643064 0 9
-11.011616 -10.118608 -0.87092257 2 10
-10.968034 -11.114493 0.63617349 1 26
-9.8391933 -10.996812 -0.68735772 1 12
-6.649642 -6.7384367 -0.49614492 0 11
-8.1430645 -9.1011276 1.4994806 1 29
-10.789521 -10.933597 1.2539893 3 28
-10.687991 -9.821229 -0.50688028 2 14
-8.5859661 -9.596138 -0.29962927 1 16
-2.4557009 -2.471179 -1.6245446 1 0
-10.5603 -10.626862 -0.43600893 1 15
-3.8418679 -4.263833 -1.6066693 1 1
-5.4272509 -5.4614587 -1.5399131 1 2
-10.19324 -9.3011847 -0.16064695 1 18
-5.0983267 -5.6582928 -1.1849312 21 3
-11.686745 -11.760406 -0.096361533 1 19
-6.0936847 -6.7629743 -0.98058063 0 5
-7.425539 -6.7756972 -0.93836337 0 6
-11.635068 -10.616831 0.18337035 2 22
-6.0792813 -6.7469888 -0.63506293 0 8
-6.6994677 -6.7416945 -0.77589166 1 7
-8.3049021 -10.175563 0.38224962 2 25
-9.3988733 -9.4581146 0.23274529 1 23
-5.4897456 -6.7262988 -0.55643064 2 9
-7.4304571 -6.7801847 -0.58580881 1 10
-8.9199038 -9.8996067 0.77603972 3 27
-10.925066 -10.993927 0.63145143 1 26
-6.692832 -6.7350168 -0.49761033 0 11
-9.6258345 -10.683071 1.7656432 2 29
-10.782659 -10.850621 1.248782 1 28
-9.8152666 -12.026134 -0.63242841 1 13
-8.6381483 -9.5869045 -0.30028063 1 16
-2.4643118 -2.4625919 -1.6245446 1 0
-8.9343376 -8.9281034 -0.36758798 1 15
-3.8593168 -4.2532487 -1.6077474 1 1
-5.440733 -5.4369359 -1.5383441 2 2
-9.1872997 -10.125074 0 2 20
-10.954779 -9.9262209 -0.17210178 1 18
-5.1392946 -5.6638775 -1.1898504 21 3
-10.749922 -10.74242 -1.9344293 2 4
-10.596705 -12.891462 0.096989229 2 21
-8.9011879 -8.8949757 -0.073137127 1 19
-8.2120514 -9.0502796 0.28436863 1 24
-8.9282255 -8.9219952 -1.0303998 1 7
-37.75383 -45.929565 1.730305 29 25
-10.274869 -10.267698 0.25354856 2 23
-7.5232887 -9.1524858 -0.75930399 1 9
-7.4540792 -6.7542062 -0.58580881 2 10
-10.339025 -11.39436 0.89603865 3 27
-78.728226 -78.673279 4.5344658 45 26
-9.5827847 -10.560927 -0.66427833 1 12
-6.7417312 -6.7370262 -0.49949443 0 11
-9.8115053 -11.936224 -0.62949747 1 13
-11.103466 -12.23683 -0.38449317 1 16
-2.4647462 -2.4467442 -1.6194733 1 0
-8.2818995 -10.007538 -0.22674167 1 17
-9.1710386 -9.1040554 -0.37608242 1 15
-3.8656065 -4.2318954 -1.6045126 1 1
-5.4698677 -5.4299169 -1.5414821 2 2
-8.5275106 -9.3355417 0 2 20
-11.070875 -9.9647617 -0.17340559 1 18
-5.1767087 -5.667232 -1.1941549 20 3
-6.8317471 -6.7818494 -1.2253069 1 4
-9.2418928 -11.167559 0.084249504 1 21
-11.90901 -13.037458 -1.9020437 3 5
-9.5317707 -8.5794325 -1.1971197 1 6
-8.2716846 -9.0554752 0.28539222 2 24
-11.858679 -10.673855 0.18574513 2 22
-9.0422773 -9.899086 -0.937527 1 8
-6.8329124 -6.7830062 -0.78598088 0 7
-8.9194927 -10.777983 0.4071511 1 25
-11.447037 -11.36343 0.28154221 1 23
-7.7088437 -9.3150797 -0.77490962 1 9
-11.189427 -10.071468 -0.87673652 2 10
-10.39022 -11.374754 0.89720148 3 27
-10.957099 -10.87707 0.62900895 1 26
-8.7850599 -9.6174955 -0.60676587 1 12
-6.7782092 -6.7287025 -0.50054109 0 11
-9.4573421 -10.353481 1.7217702 3 29
-9.7975235 -11.838962 -0.62607807 1 13
-10.645937 -9.5822802 -0.50017959 2 14
-9.6606379 -10.576039 -0.3333143 1 16
-2.478009 -2.4436483 -1.6228542 1 0
-8.4865637 -10.185887 -0.23141891 1 17
-3.8848333 -4.2247238 -1.6066693 1 1
-5.487844 -5.4117484 -1.5414821 2 2
-8.6721363 -9.4308758 0 2 20
-11.184364 -9.9999743 -0.17466283 1 18
-5.2222266 -5.6791277 -1.2003039 19 3
-9.2174253 -11.063095 0.08369156 1 21
-9.80301 -9.6670799 -0.080018431 2 19
-12.014094 -13.065227 -1.9118967 3 5
-7.5709414 -6.7692013 -0.94802958 0 6
-8.6264811 -9.3812256 0.2965585 1 24
-11.885065 -10.626472 0.18560545 2 22
-9.0696526 -9.8631716 -0.93696898 2 8
-8.8647995 -8.7418785 0.21731737 1 23
-5.6214333 -6.7470522 -0.5628264 1 9
-7.5790858 -6.7764835 -0.59208781 1 10
-10.49005 -11.407842 0.90255022 1 27
-10.953268 -10.801389 0.62672937 1 26
-6.8203945 -6.7258215 -0.50200653 0 11
-9.411005 -10.234388 1.7071459 1 29
-9.7855625 -11.744994 -0.62282145 1 13
-10.808778 -9.6641607 -0.50632191 2 14
-8.8457298 -9.6196575 -0.30409577 1 16
-2.4921296 -2.4396219 -1.6262352 1 0
-8.5572634 -10.194537 -0.23232643 1 17
-3.9002905 -4.2104573 -1.6066693 1 1
-5.5160494 -5.3998299 -1.5438354 2 2
-8.7745981 -9.4723902 0 2 20
-5.2591209 -5.6773477 -1.2039933 16 3
-11.015922 -10.783823 -1.9622083 2 4
-8.5507078 -10.186728 0.077298455 1 21
-8.9923086 -8.8028469 -0.073137127 2 19
-6.2349982 -6.7308302 -0.98829168 1 5
-7.5778275 -6.7255468 -0.94579893 1 6
-8.557538 -9.2380686 0.29302251 1 24
-11.792306 -10.466022 0.1835566 2 22
-6.2449431 -6.7415662 -0.64259666 1 8
-9.4925413 -9.2925406 -1.0844258 1 7
-10.734812 -12.788719 0.48592827 1 25
-5.6384244 -6.7172322 -0.56205887 0 9
-7.6068578 -6.7513127 -0.59232038 1 10
-9.0826836 -9.8049755 0.77836525 1 27
-10.912813 -10.682888 0.62217015 1 26
-9.0121899 -9.7288761 -0.61774725 1 12
-6.8821068 -6.7371054 -0.50472802 1 11
-9.4862232 -10.240605 1.7139707 1 29
-9.746316 -11.611094 -0.61761093 1 13
-10.793297 -9.5793724 -0.50394875 2 14
-2.5028048 -2.4338715 -1.6279256 1 0
-8.5135803 -10.074463 -0.23023215 3 17
-9.2184353 -8.9645376 -0.37422064 1 15
-3.9221127 -4.2059517 -1.6099041 2 1
-5.5367374 -5.3842425 -1.5446199 2 2
-9.2779055 -9.949337 0 4 20
-11.169897 -9.8475904 -0.17335902 1 18
-5.2913966 -5.6743293 -1.207068 15 3
-10.013309 -9.7375193 -1.7778567 2 4
-9.0271854 -8.7785559 -0.073183626 2 19
-6.2627082 -6.7159333 -0.98914838 0 5
-75.976982 -66.982735 -9.4550152 63 6
-8.6021814 -9.2247124 -0.88200086 2 8
-9.2231998 -8.9691715 -1.0502527 1 7
-10.026167 -11.864367 0.4520669 1 25
-8.1624937 -9.659008 -0.81047004 1 9
-10.411901 -9.179328 -0.80836499 2 10
-9.4719114 -10.157383 0.80883014 1 27
-10.31209 -10.028071 0.58602208 1 26
-8.979002 -9.6288023 -0.61328018 2 12
-6.9158654 -6.7253861 -0.5055654 1 11
-9.4280701 -10.110369 1.6973963 1 29
-9.7538099 -11.542077 -0.61565697 3 13
-10.881979 -9.5937567 -0.5066011 2 14
-10.453569 -11.210082 -0.35667047 2 16
-2.5117085 -2.4246821 -1.6279256 1 0
-8.615263 -10.119322 -0.23197739 1 17
-10.105587 -9.7554464 -0.40878019 1 15
-3.9348645 -4.1887403 -1.6088258 1 1
-5.562078 -5.3693619 -1.5461888 2 2
-9.2978773 -9.8977728 0 2 20
-11.193874 -9.7960472 -0.17317276 1 18
-5.3311019 -5.6750627 -1.2113724 16 3
-8.5749426 -10.071962 0.076880001 3 21
-9.0621777 -8.748189 -0.073206872 1 19
-11.71956 -12.4757 -1.843783 3 5
-7.7324905 -6.766901 -0.95918286 1 6
-9.4569006 -10.067056 0.32140356 1 24
-11.916254 -10.428221 0.1843482 2 22
-8.6168098 -9.1727629 -0.88004762 1 8
-10.066993 -11.824495 0.45195055 1 25
-8.9947701 -8.6831169 0.2182249 2 23
-8.2470064 -9.6867743 -0.81533074 1 9
-7.7589803 -6.7900829 -0.60045981 2 10
-9.6922588 -10.317599 0.82441133 1 27
-10.288391 -9.9319153 0.58260262 1 26
-8.9403677 -9.5171967 -0.60825485 2 12
-6.9720817 -6.7305107 -0.50786817 1 11
-9.8048477 -10.437453 1.7583311 2 29
-10.40231 -12.218353 -0.653759 2 13
-10.893002 -9.5327463 -0.50548434 2 14
-8.7258663 -9.2888556 -0.2965585 1 16
-2.5149231 -2.4108822 -1.6245446 1 0
-3.9494629 -4.1749797 -1.6088258 1 1
-5.589282 -5.3580561 -1.5485423 2 2
-9.0629835 -9.5804853 0 2 20
-5.367177 -5.673646 -1.2150618 15 3
-9.3207998 -8.9352036 -1.6435072 2 4
-8.5944271 -10.023748 0.076740511 1 21
-9.1215353 -8.7441826 -0.073439345 1 19
-6.4007974 -6.7662868 -1.0032852 1 5
-7.750052 -6.7346435 -0.95843929 0 6
-9.4507637 -9.9904079 0.32000777 1 24
-12.012965 -10.439032 0.18527949 2 22
-6.3892365 -6.754066 -0.65013033 0 8
-10.682952 -10.241004 -1.2080997 1 7
-10.287781 -11.998721 0.4599795 1 25
-9.0250263 -8.6516657 0.2182249 2 23
-7.7856503 -6.7655778 -0.60069245 1 10
-10.666736 -11.275813 0.90394557 1 27
-10.392241 -9.9623203 0.58651054 1 26
-8.7758331 -9.2769384 -0.59485388 1 12
-7.0157185 -6.725482 -0.50933355 1 11
-9.8630514 -10.426237 1.7622309 2 29
-10.473514 -12.215342 -0.65555006 2 13
-45.871384 -39.861332 -2.1221685 46 14
-10.113058 -10.69052 -0.34243342 3 16
-2.5229042 -2.402529 -1.6245446 1 0
-9.9304819 -11.504573 -0.26527658 1 17
-10.530794 -10.028339 -0.42320907 2 15
-3.9553163 -4.1534915 -1.6055909 1 1
-8.650588 -9.084012 0 1 20
-5.39959 -5.6701283 -1.2181363 17 3
-9.3819866 -8.9343443 -1.649063 2 4
-9.9840994 -11.566689 0.088806048 2 21
-9.1678619 -8.7304363 -0.073578835 2 19
-6.3820605 -6.7018242 -0.99685943 1 5
-7.9261022 -6.8416281 -0.97739995 0 6
-8.6427317 -9.0757627 0.29162672 1 24
-78.746376 -67.972054 1.2110453 63 22
-6.4060946 -6.7270622 -0.64957225 0 8
-7.1397572 -6.7990985 -0.80485743 1 7
-10.155085 -11.764778 0.45229962 1 25
-11.926743 -11.357683 0.28747603 1 23
-8.8370266 -10.237794 -0.86675268 1 9
-7.8866377 -6.8075638 -0.60673887 1 10
-10.693053 -11.228812 0.90301532 1 27
-10.905672 -10.385331 0.61354017 1 26
-9.7434149 -10.231593 -0.65813625 1 12
-7.0611248 -6.7242179 -0.51100832 0 11
-10.754224 -12.458887 -0.67053038 2 13
-11.160388 -9.6333895 -0.51483738 2 14
-10.071237 -10.575841 -0.33982795 1 16
-2.5369613 -2.3982475 -1.6279256 1 0
-9.4293356 -10.843391 -0.250826 1 17
-10.349562 -9.7836771 -0.41448194 1 15
-3.9758453 -4.144527 -1.6077474 1 1
-5.6408024 -5.3323793 -1.5524646 1 2
-8.7004366 -9.0695667 0 1 20
-5.4394875 -5.6702666 -1.2224406 14 3
-8.6300726 -9.9242687 0.076438293 1 21
-9.2259579 -8.721509 -0.073788062 1 19
-10.10406 -10.532741 -1.5721848 2 5
-56.008423 -47.988094 0.85864633 53 22
-9.0908308 -9.4765234 -0.91827422 1 8
-9.0647163 -10.424093 0.40203118 1 25
-11.971194 -11.316643 0.28754583 1 23
-8.850914 -10.178228 -0.86445022 3 9
-10.876214 -11.337654 -0.7318415 1 12
-7.1176515 -6.7284784 -0.51331109 0 11
-8.7961559 -10.115259 -0.54612893 1 13
-10.946693 -9.3791418 -0.50339037 2 14
-10.682973 -11.136214 -0.35908985 1 16
-2.5418415 -2.3877826 -1.6262352 1 0
-7.94627 -9.0801468 -0.21061565 1 17
-10.348193 -9.7209978 -0.41320196 2 15
-3.9861722 -4.1292434 -1.6066693 1 1
-5.6689625 -5.3253717 -1.5556024 1 2
-8.9483624 -9.269536 0 2 20
-5.4737468 -5.6702099 -1.2261301 17 3
-7.1665306 -6.7321734 -1.2515707 1 4
-9.7543983 -11.146283 0.086086072 1 21
-10.474844 -9.8399734 -0.083528832 1 19
-10.156439 -10.520972 -1.5751835 2 5
-7.9391289 -6.7591171 -0.97331029 0 6
-10.670693 -11.053684 0.35750794 1 24
-78.777802 -67.068871 1.2044796 63 22
-8.9930773 -9.315856 -0.90543902 1 8
-9.1733913 -8.6174002 -1.0274706 1 7
-9.0631914 -10.356445 0.40051848 1 25
-11.983371 -11.257069 0.28698736 2 23
-5.9254041 -6.7709174 -0.57664126 0 9
-11.426382 -9.7280521 -0.87394583 2 10
-78.854225 -81.684456 6.6120348 63 27
-8.9830713 -9.3054905 -0.602485 1 12
-7.1736927 -6.7389016 -0.51582325 0 11
-8.8357887 -10.096594 -0.54661739 1 13
-10.93958 -9.3136044 -0.50171518 2 14
-10.726241 -11.111226 -0.35936901 2 16
-2.5589464 -2.385421 -1.6313065 1 0
-9.4862909 -10.756299 -0.25033733 1 17
-10.373744 -9.6702881 -0.41273651 1 15
-4.0100551 -4.1221905 -1.6099041 1 1
-5.6893692 -5.303566 -1.5556024 2 2
-8.8081713 -9.0544777 0 2 20
-53.708309 -45.370972 -0.81850791 30 18
-5.5147705 -5.6689825 -1.2304345 14 3
-10.361828 -9.6591787 -1.8031104 2 4
-8.4319315 -9.5607834 0.07409028 1 21
-10.524254 -9.8105907 -0.083621822 1 19
-8.0197878 -6.7748466 -0.98000234 0 6
-8.8643436 -9.1122217 0.2958141 1 24
-7.2729788 -6.779789 -0.81169206 1 7
-8.9812374 -10.183629 0.39516583 1 25
-8.0471296 -6.7979441 -0.61348295 1 10
-10.667202 -10.965493 0.89092243 1 27
-11.220263 -10.459403 0.62493825 1 26
-11.359093 -11.676732 -0.75882959 1 12
-7.228735 -6.7385454 -0.51791668 0 11
-8.8321953 -10.014633 -0.54401213 2 13
-11.048553 -9.3334455 -0.50506556 2 14
-9.0790501 -9.3329325 -0.30297914 1 16
-2.5539551 -2.3641613 -1.6228542 1 0
-9.4467592 -10.636404 -0.24831285 1 17
-10.592286 -9.8051338 -0.42006731 1 15
-4.0244193 -4.1081681 -1.6099041 1 1
-5.7136035 -5.2890043 -1.5571715 1 2
-9.3323727 -9.5265808 0 2 20
-55.395496 -46.465881 -0.84174353 30 18
-5.5594172 -5.6751094 -1.2359686 17 3
-8.5024385 -9.573163 0.074415751 1 21
-10.79913 -9.9966078 -0.085528128 1 19
-6.5707879 -6.7075267 -1.0114245 1 5
-11.162795 -11.395094 0.37118667 1 24
-55.236149 -46.332218 0.83932215 50 22
-9.1057997 -9.2952919 -0.90990347 1 8
-8.6237726 -9.7097778 0.37794423 1 25
-9.8173962 -9.0878286 0.23351321 3 23
-8.9278555 -10.052154 -0.8616361 3 9
-8.0738688 -6.7723813 -0.61371559 1 10
-10.764095 -10.988097 0.89580613 3 27
-11.203909 -10.371305 0.62200731 1 26
-11.366228 -11.60276 -0.75659603 1 12
-7.2844563 -6.7431211 -0.52021945 0 11
-8.8458652 -9.9598389 -0.54270953 2 13
-55.66259 -46.689922 -2.5370541 57 14
-2.5648611 -2.3576851 -1.6245446 1 0
-9.6144762 -10.749432 -0.25173351 1 17
-11.388845 -10.468914 -0.45020512 1 15
-4.0306196 -4.0858688 -1.6066693 1 1
-5.7406936 -5.2769904 -1.5595248 2 2
-9.4020882 -9.5309658 0 2 20
-79.969147 -66.604149 -1.211604 30 18
-5.5986238 -5.6753654 -1.2402731 15 3
-10.437771 -9.5946627 -1.8046255 2 4
-9.8211069 -10.980453 0.085621119 1 21
-11.069545 -10.175405 -0.087387942 1 19
-55.990814 -46.633247 -6.8020196 47 6
-10.129714 -10.268565 0.33564058 1 24
-80.313362 -66.890846 1.2168193 63 22
-9.0120878 -9.1356201 -0.89734727 2 8
-9.2426205 -8.4960499 -1.0248669 3 7
-9.9079485 -9.1076355 0.2349094 2 23
-8.9602289 -10.017952 -0.86138022 1 9
-11.157657 -10.256399 0.61744809 1 26
-11.300031 -11.454924 -0.7495234 1 12
-7.337358 -6.7446847 -0.52231288 0 11
-8.8459406 -9.890172 -0.54059273 1 13
-55.859016 -46.523476 -2.5385895 57 14
-10.337533 -10.479233 -0.3425265 1 16
-2.5749323 -2.3520606 -1.6262352 1 0
-9.7364941 -10.817268 -0.25403723 1 17
-10.589186 -9.6726446 -0.41739097 1 15
-4.0488639 -4.0786529 -1.6088258 1 1
-5.7572436 -5.2589288 -1.5595248 2 2
-80.791206 -66.860054 -1.2208704 30 18
-5.6303482 -5.6717734 -1.2433476 17 3
-6.439508 -5.8821402 -1.1101503 0 4
-9.1383982 -10.152782 0.079390749 1 21
-11.547406 -10.547927 -0.090898335 1 19
-6.7159953 -6.765408 -1.0268465 2 5
-8.192277 -6.7796502 -0.9926427 1 6
-10.237991 -10.313316 0.338153 1 24
-6.707468 -6.7568178 -0.66575581 1 8
-7.4295421 -6.7864828 -0.82145578 1 7
-8.9367447 -9.9287443 0.3887659 1 25
-9.9306059 -9.0710678 0.23476978 1 23
-6.0807853 -6.7557673 -0.58252531 1 9
-8.2016697 -6.7874231 -0.61999458 3 10
-11.21343 -10.242859 0.61875075 1 26
-9.9425411 -10.015693 -0.65739173 1 12
-7.4027514 -6.7620106 -0.52545309 1 11
-11.179635 -10.211988 1.2360891 1 28
-9.4491577 -10.498037 -0.5754382 1 13
-9.1054459 -9.1724386 -0.30074587 2 16
-2.5889065 -2.3474772 -1.6296161 1 0
-8.7605886 -9.6615839 -0.2276492 1 17
-11.255465 -10.205832 -0.44217613 1 15
-4.0610614 -4.0610619 -1.6077474 1 1
-5.7910085 -5.2509656 -1.5634472 3 2
-8.8812609 -8.8812609 0 2 20
-55.453781 -45.550255 -0.83545732 30 18
-5.6650724 -5.6650729 -1.2464222 17 3
-6.4463258 -5.845171 -1.1076249 0 4
-8.9202986 -9.8377199 0.077182218 1 21
-10.219968 -9.266901 -0.080181167 1 19
-6.7266855 -6.726686 -1.0247047 1 5
-8.201683 -6.736939 -0.99078387 0 6
-10.468003 -10.468004 0.34448057 1 24
-6.7265449 -6.7265453 -0.66519773 0 8
-7.4632258 -6.76724 -0.82243216 3 7
-9.0724478 -10.005517 0.39307132 1 25
-10.014153 -9.0802794 0.23595653 1 23
-6.0974617 -6.7245636 -0.58175784 0 9
-8.2203207 -6.7522478 -0.61952943 1 10
-11.253858 -10.204375 0.61891353 1 26
-9.9424534 -9.9424543 -0.65497208 1 12
-7.4452391 -6.7509308 -0.52670908 1 11
-8.811038 -9.7172222 -0.53440523 1 13
-53.903946 -44.277203 -2.4359848 54 14
-8.9806528 -8.9806538 -0.29553494 2 16
-2.5970845 -2.3384266 -1.6296161 1 0
-9.7597122 -10.688254 -0.25264105 1 17
-47.252914 -42.546738 -1.8505071 40 15
-4.0834112 -4.0550051 -1.6109824 1 1
-5.8034711 -5.225472 -1.5618782 5 2
-9.5905561 -9.523839 0 1 20
-57.115719 -46.582474 -0.85804099 30 18
-5.7016387 -5.6619754 -1.2501116 17 3
-10.974575 -9.8815575 -0.085830346 1 19
-8.333169 -6.7963715 -1.003796 0 6
-9.1283312 -9.0648308 -0.89957952 2 8
-9.2970247 -8.3710833 -1.021287 1 7
-8.1852608 -8.9640093 0.35327545 1 25
-78.755394 -70.911713 1.8498155 44 23
-10.734447 -11.755726 -1.0202508 2 9
-8.3707142 -6.8269925 -0.62906426 1 10
-10.957072 -10.88085 0.89929444 1 27
-11.345839 -10.215845 0.62200731 1 26
-10.002613 -9.9330311 -0.65664721 1 12
-7.4806318 -6.7355952 -0.52754653 1 11
-53.748371 -43.836132 -2.422025 54 14
-8.9324951 -8.8703566 -0.29292947 2 16
-2.6025295 -2.3269298 -1.6279256 1 0
-9.9106627 -10.777764 -0.25557303 3 17
-45.466717 -40.651936 -1.7749881 42 15
-4.0920568 -4.035316 -1.6088258 2 1
-5.836298 -5.2182522 -1.5658005 7 2
-11.568999 -11.408583 0 1 20
-5.7466974 -5.6670136 -1.2556458 17 3
-6.5017662 -5.8132496 -1.1101503 2 4
-8.6394997 -9.3953848 0.07418327 1 21
-10.982167 -9.81919 -0.085621119 1 19
-6.8527708 -6.75775 -1.0366995 1 5
-9.5328722 -9.4006891 0.31153998 1 24
-6.8585753 -6.763474 -0.67356849 0 8
-7.596477 -6.7920341 -0.8318705 2 7
-8.2895746 -9.0148449 0.35641724 1 25
-11.866172 -10.609582 0.27784231 1 23
-6.2388268 -6.7846732 -0.59071189 0 9
-8.3758764 -6.78265 -0.62766892 3 10
-80.572792 -72.04039 4.4033885 45 26
-11.106956 -10.952946 -0.72663003 1 12
-7.5964122 -6.7919765 -0.53403616 1 11
-10.022987 -10.899917 -0.60328197 3 13
-56.538662 -45.7841 -2.5405438 57 14
-10.424088 -10.279548 -0.34066543 1 16
-2.6129417 -2.3206947 -1.6296161 1 0
-8.8596106 -9.5708628 -0.2276492 3 17
-10.657434 -9.4654436 -0.41483101 1 15
-4.1109185 -4.0271163 -1.6109824 1 1
-5.8594346 -5.2040806 -1.5673696 7 2
-9.5151482 -9.3211784 0 1 20
-5.7936921 -5.6755853 -1.2617949 17 3
-6.5210066 -5.7916579 -1.1101503 4 4
-10.515589 -11.359783 0.089968428 2 21
-11.762337 -10.446766 -0.091433033 1 19
-6.8637781 -6.7238574 -1.034986 1 5
-8.3854456 -6.7444839 -1.0045396 0 6
-11.657903 -11.420252 0.37974751 1 24
-6.8781152 -6.7379022 -0.67328948 0 8
-7.6100149 -6.7588654 -0.83089411 2 7
-8.6670828 -9.3628788 0.37131158 1 25
-11.82653 -10.50378 0.27609706 1 23
-78.876373 -77.268448 6.4304085 63 27
-10.75471 -9.5518389 0.58602208 1 26
-11.271659 -11.041882 -0.73500562 1 12
-7.624866 -6.7720556 -0.53445488 2 11
-9.6138153 -10.385615 -0.57657796 1 13
-56.690166 -45.596371 -2.5405438 57 14
-9.0955057 -8.9100904 -0.29627937 1 16
-2.6187108 -2.3087049 -1.6279256 1 0
-8.7527962 -9.3862286 -0.2240191 1 17
-45.524467 -40.135227 -1.7662609 42 15
-4.1173668 -4.0039659 -1.6077474 2 1
-5.9049492 -5.2059145 -1.5744299 4 2
-5.8342896 -5.6736012 -1.2660992 17 3
-6.5540962 -5.7782149 -1.1121706 8 4
-10.540788 -11.303615 0.089828946 2 21
-11.095455 -9.7819624 -0.085969836 1 19
-8.4785862 -6.7683687 -1.0127187 1 6
-10.185975 -9.9054317 0.33061576 1 24
-57.953625 -46.263786 0.86330277 53 22
-9.2141752 -8.9603977 -0.89874244 1 8
-9.7699499 -8.6133718 -1.063271 1 7
-8.9222155 -9.5679083 0.38073692 1 25
-11.954948 -10.539708 0.27819136 1 23
-8.8314915 -9.4706182 -0.82991314 1 9
-8.5197668 -6.8012424 -0.63487816 1 10
-78.825287 -69.493858 4.2812667 45 26
-44.772697 -43.539562 -2.909126 45 12
-7.667613 -6.7599125 -0.53571087 1 11
-9.2141075 -8.9603319 -0.29907095 1 16
-2.623625 -2.2976196 -1.6262352 1 0
-8.97822 -9.5641813 -0.22897558 1 17
-78.561012 -68.79921 -3.0391464 29 15
-4.1333919 -3.9929662 -1.6088258 1 1
-5.9457855 -5.2069764 -1.5807055 4 2
-5.8729706 -5.6734452 -1.2704036 18 3
-6.5762067 -5.7590632 -1.1126757 7 4
-8.7275734 -9.2971764 0.074113533 1 21
-11.127831 -9.7451143 -0.085969836 1 19
-7.0106635 -6.7724867 -1.0499796 1 5
-8.5415545 -6.7723818 -1.0175518 0 6
-6.9967337 -6.7590299 -0.68026513 0 8
-11.887537 -10.410419 0.27581784 1 23
-8.5485325 -6.777914 -0.63534325 1 10
-78.799736 -69.00827 4.267426 45 26
-44.928329 -43.401958 -2.9098704 45 12
-7.7530951 -6.7897139 -0.54010713 1 11
-9.2351427 -8.9213924 -0.2987918 1 16
-2.633965 -2.291286 -1.6279256 1 0
-9.1554737 -9.6884155 -0.23267549 3 17
-52.797321 -45.928387 -2.0365701 36 15
-4.1549487 -3.9872384 -1.6120608 1 1
-5.9778166 -5.2001023 -1.5846277 2 2
-9.076704 -8.7103319 0 3 20
-5.9060121 -5.6676216 -1.2734782 16 3
-6.6102376 -5.7502456 -1.115201 9 4
-10.629261 -11.247992 0.089945182 2 21
-54.342804 -47.272804 -0.41862053 26 19
-7.021605 -6.7381849 -1.0482659 2 5
-8.63906 -6.8031559 -1.0264744 1 6
-8.9790325 -8.6166029 0.28957957 3 24
-55.355652 -43.591908 0.82027733 47 22
-7.0162296 -6.7330265 -0.67998606 0 8
-7.7574153 -6.7481751 -0.83935601 1 7
-9.3369865 -9.8804941 0.39563125 1 25
-11.943116 -10.389317 0.27630651 1 23
-6.3799601 -6.751339 -0.59531683 0 9
-8.6776276 -6.8335276 -0.64325017 1 10
-10.997511 -10.553608 0.88766664 1 27
-78.798973 -68.547226 4.2550511 45 26
-10.811056 -10.374679 -0.69796687 1 12
-7.7695403 -6.7587228 -0.53968841 1 11
-8.8802633 -9.3971853 -0.52675223 1 13
-55.353943 -43.590565 -2.4604144 55 14
-9.1521502 -8.782733 -0.29516274 1 16
-2.6392035 -2.2797079 -1.6262352 1 0
-10.134904 -10.650141 -0.25662017 1 17
-55.450562 -47.897438 -2.1324525 33 15
-4.1632643 -3.9673958 -1.6099041 2 1
-6.0285835 -5.207408 -1.5932571 3 2
-9.0549297 -8.6289244 0 2 20
-5.9486494 -5.6687846 -1.2783974 14 3
-6.6572948 -5.7504802 -1.1197466 11 4
-54.537758 -47.108967 -0.41885301 26 19
-11.11033 -10.587625 -1.6531502 2 5
-9.0090551 -8.5852079 0.28957957 1 24
-10.220116 -9.7392921 -0.98719358 1 8
-7.8714347 -6.7992373 -0.84911972 1 7
-9.4926968 -9.9752846 0.4007512 1 25
-53.943207 -46.595406 1.2442169 34 23
-6.4034877 -6.7290273 -0.59531683 0 9
-8.6825533 -6.7884374 -0.64185488 1 10
-10.990921 -10.473833 0.88417834 1 27
-78.753456 -68.026161 4.2397451 45 26
-10.852989 -10.342391 -0.6983391 1 12
-10.62556 -9.1782131 -0.7358436 1 11
-8.9130116 -9.3661299 -0.52675223 3 13
-85.159233 -66.581573 -3.7748692 63 14
-9.2059107 -8.7728024 -0.29590714 1 16
-2.6581521 -2.2799222 -1.632997 1 0
-10.180319 -10.623361 -0.25682962 1 17
-54.445957 -46.698814 -2.0875368 35 15
-4.1742902 -3.9501915 -1.6088258 1 1
-6.0645881 -5.2016544 -1.5979639 2 2
-9.047226 -8.5615215 0 1 20
-5.9884977 -5.6670027 -1.2827018 14 3
-6.7014227 -5.7478738 -1.1237873 13 4
-55.081387 -47.243824 -0.42175898 27 19
-7.1580238 -6.7737422 -1.0615461 1 5
-8.7649965 -6.803731 -1.0357687 1 6
-10.979211 -10.389787 0.35173869 1 24
-86.353661 -67.031067 1.2726499 63 22
-7.1355209 -6.7524476 -0.68696177 0 8
-10.625716 -11.088141 0.44694695 1 25
-10.409595 -10.862615 -0.96422398 2 9
-8.7945204 -6.8266492 -0.64836639 1 10
-10.38062 -9.8233318 0.83231831 1 27
-78.78112 -67.571312 4.2285099 45 26
-7.1655126 -6.780829 -0.45954138 0 12
-7.922657 -6.7953377 -0.54701549 2 11
-8.9705372 -9.3609304 -0.52821773 1 13
-56.130592 -43.570751 -2.4813542 55 14
-9.2248602 -8.729619 -0.29553494 1 16
-2.6582098 -2.2631137 -1.6279256 1 0
-8.8747778 -9.1933117 -0.22304176 3 17
-54.726357 -46.592251 -2.0917258 34 15
-4.1915474 -3.9375021 -1.6099041 1 1
-6.1045179 -5.1971893 -1.6034552 2 2
-10.542074 -9.9031296 0 1 20
-57.435722 -44.247437 -0.84407169 30 18
-6.0293932 -5.6639581 -1.2870063 16 3
-6.7435942 -5.7412777 -1.1273228 13 4
-8.5759468 -8.8837557 0.071765512 1 21
-53.012573 -45.13319 -0.40464869 26 19
-7.1770053 -6.7420144 -1.0606892 2 5
-9.7551918 -9.1639395 0.31144693 1 24
-86.677971 -66.775131 1.273814 63 22
-7.1573138 -6.7235165 -0.68668276 0 8
-7.8895316 -6.7168922 -0.84586513 1 7
-10.677395 -11.060629 0.44741243 1 25
-55.234512 -47.024876 1.266207 36 23
-6.531877 -6.7663193 -0.60273594 0 9
-8.8289728 -6.8016801 -0.64906406 3 10
-11.053946 -10.383978 0.88324803 1 27
-78.821312 -67.105911 4.2174373 45 26
-7.2019663 -6.7654624 -0.46028587 0 12
-7.9292603 -6.7507157 -0.54575938 1 11
-9.0075645 -9.330864 -0.52838057 1 13
-56.210739 -43.30373 -2.4778643 55 14
-10.166151 -9.5499916 -0.32456735 2 16
-2.6740036 -2.2613099 -1.632997 1 0
-8.8661928 -9.1236792 -0.22206442 1 17
-55.10952 -46.60416 -2.1004529 34 15
-4.2017651 -3.920954 -1.6088258 2 1
-6.1426826 -5.1946483 -1.6089464 2 2
-9.2500734 -8.631875 0 1 20
-57.58213 -44.05674 -0.84407169 30 18
-6.0712585 -5.6655064 -1.2919254 12 3
-6.7928925 -5.7445078 -1.1323735 13 4
-8.6917734 -8.9441938 0.072486192 1 21
-55.165512 -46.651516 -0.41989917 27 19
-7.3301659 -6.8402781 -1.0799668 1 5
-8.8439121 -6.7665772 -1.0394865 1 6
-9.8147621 -9.1588249 0.31237745 1 24
-87.137169 -66.669632 1.2773063 63 22
-10.236939 -9.5527878 -0.97910184 1 8
-8.0396147 -6.7988167 -0.85953432 1 7
-55.029785 -46.536732 1.2579695 35 23
-6.5542774 -6.7446227 -0.60273594 0 9
-8.8514786 -6.7723665 -0.64906406 1 10
-11.132112 -10.388134 0.88673639 1 27
-79.098328 -66.890648 4.2203684 45 26
-7.2331252 -6.749723 -0.46084425 0 12
-11.074901 -9.3656502 -0.76012754 1 11
-11.272305 -11.599668 -0.65896958 2 13
-10.159756 -9.4807615 -0.32335764 1 16
-2.6739442 -2.2445009 -1.6279256 1 0
-10.857984 -11.09168 -0.27093115 2 17
-55.442276 -46.538082 -2.1066201 34 15
-4.2245865 -3.9133792 -1.6120608 1 1
-6.1827116 -5.1897497 -1.6144377 1 2
-9.4606514 -8.7637262 0 1 20
-57.647663 -43.772816 -0.84267473 30 18
-6.1209803 -5.670074 -1.2980746 14 3
-6.8412561 -5.7425299 -1.1369191 21 4
-8.7356911 -8.9237089 0.072579183 1 21
-55.2136 -46.34613 -0.41896927 26 19
-7.320178 -6.7809324 -1.074826 1 5
-8.9416084 -6.7895103 -1.0480374 1 6
-10.162168 -9.4135647 0.32233408 1 24
