# .PCD v0.7 - Point Cloud Data file format
VERSION 0.7
FIELDS x y z intensity ring
SIZE 4 4 4 4 2
TYPE F F F F U
COUNT 1 1 1 1 1
WIDTH 1279
HEIGHT 1
VIEWPOINT 0 0 0 1 0 0 0
POINTS 1279
DATA ascii
-16.140778 -9.3188801 -1.1944711 3 9
-23.969934 -9.490366 -1.5013822 4 10
-24.937101 -12.815927 -1.3060355 4 12
-20.873367 -9.4685783 -1.201215 3 11
-22.096495 -12.757416 -1.0395012 5 13
-32.90519 -13.028083 -1.2358611 9 14
-24.953827 -12.824523 -0.65285677 3 16
-22.102566 -12.653134 -0.44454771 4 17
-28.605167 -12.849669 -0.91262823 5 15
-5.2412577 -2.6694016 -1.6465664 2 1
-7.570857 -3.4008894 -1.6599369 1 2
-33.369064 -13.070471 -0.41721642 7 18
-9.3825407 -4.7785797 -1.6381197 1 3
-11.991611 -5.3867273 -1.6733066 2 4
-13.57292 -6.9127631 -1.6407269 30 5
-16.861897 -6.6047087 -1.6904669 19 6
-18.268986 -9.3044958 -1.433635 2 8
-16.282219 -9.3211393 -1.2024019 3 9
-24.212776 -9.4840059 -1.5144053 4 10
-25.147688 -12.807857 -1.3145972 4 12
-21.006313 -9.436204 -1.2068673 3 11
-22.320002 -12.77761 -1.0478055 5 13
-33.272831 -13.032777 -1.2478664 10 14
-25.146763 -12.807385 -0.65667194 4 16
-22.320488 -12.674646 -0.44803819 4 17
-28.905554 -12.863532 -0.92077363 5 15
-5.260859 -2.6562982 -1.6498013 2 1
-7.5862656 -3.3760355 -1.6607213 1 2
-9.409749 -4.7511439 -1.6399643 1 3
-12.003091 -5.3416085 -1.6722964 2 4
-16.903416 -6.5530066 -1.6923257 22 6
-18.443832 -9.3126078 -1.4447962 2 8
-18.856443 -8.3914833 -1.6848955 5 7
-16.418791 -9.3233795 -1.2100767 3 9
-24.472853 -9.4874773 -1.5285913 5 10
-25.431217 -12.840658 -1.3270676 4 12
-21.210649 -9.4391508 -1.2167064 3 11
-22.486109 -12.768694 -1.0535045 5 13
-33.653576 -13.0466 -1.2604302 10 14
-25.351954 -12.800636 -0.66085929 4 16
-22.493526 -12.669281 -0.45062116 4 17
-29.180765 -12.864171 -0.9281044 5 15
-5.2597656 -2.6327469 -1.6465664 2 1
-7.5980029 -3.3495355 -1.6607213 1 2
-33.739571 -12.944655 -0.42070878 7 18
-9.4368782 -4.723578 -1.6418091 1 3
-12.003509 -5.291677 -1.6697711 2 4
-13.613734 -6.81428 -1.63987 2 5
-18.611816 -9.3160429 -1.455399 3 8
-18.969522 -8.3626041 -1.6923811 2 7
-16.552101 -9.3228245 -1.2174958 3 9
-24.722057 -9.4849606 -1.5420796 5 10
-25.593794 -12.810833 -1.3332098 4 12
-21.39698 -9.4327345 -1.2254988 3 11
-22.645456 -12.754854 -1.0588778 5 13
-34.012424 -13.049338 -1.2721565 10 14
-25.596733 -12.812305 -0.66607028 4 16
-22.668079 -12.668764 -0.45327392 4 17
-29.443098 -12.863377 -0.93508613 5 15
-5.2788177 -2.6204283 -1.6498013 2 1
-7.6126628 -3.3258915 -1.6615058 1 2
-9.4524908 -4.6922579 -1.6418091 1 3
-12.024627 -5.2534313 -1.6702762 2 4
-13.629132 -6.7655611 -1.6390134 2 5
-16.958796 -6.4420433 -1.693441 1 6
-18.764128 -9.3145952 -1.4648861 3 8
-19.044643 -8.3204021 -1.6966121 2 7
-16.687458 -9.3263073 -1.2251707 3 9
-25.014681 -9.5021877 -1.5583584 5 10
-25.875927 -12.844924 -1.3456801 4 12
-21.611164 -9.4416876 -1.2359661 3 11
-22.865557 -12.779131 -1.0671822 5 13
-34.410522 -13.071334 -1.2854183 10 14
-25.818172 -12.816255 -0.67072284 4 16
-22.864788 -12.668943 -0.4562757 5 17
-29.783628 -12.882357 -0.94439507 5 15
-5.2849302 -2.5993626 -1.6487229 2 1
-7.6248021 -3.297967 -1.6615058 1 2
-9.4731722 -4.6593256 -1.6424241 1 3
-12.0438 -5.2093229 -1.6702762 2 4
-13.635995 -6.7067857 -1.6368713 2 5
-16.952469 -6.368638 -1.6904669 1 6
-18.937784 -9.3144407 -1.4757679 3 8
-19.053055 -8.241046 -1.6946594 2 7
-16.833263 -9.3269901 -1.2333573 3 9
-25.236252 -9.4806576 -1.5699862 5 10
-26.091349 -12.83288 -1.3544279 4 12
-21.828938 -9.4417028 -1.2464333 3 11
-23.101023 -12.799836 -1.0759749 5 13
-34.832428 -13.085712 -1.299378 11 14
-26.055157 -12.81508 -0.67565465 4 16
-23.116953 -12.708653 -0.4604643 5 17
-30.07976 -12.892201 -0.95242411 6 15
-5.2900596 -2.5801346 -1.6476448 2 1
-7.6284871 -3.2695739 -1.6599369 1 2
-9.4992294 -4.6330838 -1.6442688 1 3
-12.053716 -5.1662292 -1.669266 2 4
-13.658161 -6.6615305 -1.6368713 2 5
-16.984692 -6.3165507 -1.6915822 1 6
-19.10844 -9.319809 -1.4866499 3 8
-19.069288 -8.1731071 -1.693683 2 7
-16.983032 -9.3365021 -1.2420554 3 9
-26.352831 -12.853135 -1.3657815 5 12
-22.040033 -9.4463711 -1.2566911 4 11
-23.258917 -12.786697 -1.0813483 5 13
-35.231579 -13.102507 -1.31264 11 14
-26.313166 -12.833789 -0.68123782 4 16
-23.279266 -12.686997 -0.46276802 5 17
-30.413904 -12.903672 -0.96150035 6 15
-5.2960119 -2.559052 -1.6465664 2 1
-7.6440296 -3.2431235 -1.6607213 1 2
-35.324753 -12.98998 -0.4381704 7 18
-9.5054703 -4.5930772 -1.6424241 1 3
-12.083528 -5.1266642 -1.6707811 2 4
-13.675323 -6.607965 -1.6360147 2 5
-16.981564 -6.2446342 -1.6889797 1 6
-19.282589 -9.3174162 -1.4975319 3 8
-19.058744 -8.086031 -1.6901029 2 7
-17.132807 -9.3372307 -1.2504978 3 9
-26.590439 -12.848596 -1.3756461 5 12
-22.2694 -9.4482126 -1.2677863 4 11
-23.446001 -12.777866 -1.0878614 6 13
-35.654556 -13.111258 -1.3265997 11 14
-26.583263 -12.845128 -0.68700707 4 16
-23.566181 -12.73687 -0.46758488 5 17
-30.724165 -12.908939 -0.96987838 6 15
-5.3118606 -2.5438771 -1.6487229 2 1
-7.6516886 -3.2149019 -1.6599369 1 2
-9.5250101 -4.5615759 -1.643039 1 3
-12.097692 -5.0829167 -1.6702762 2 4
-13.676785 -6.5498824 -1.6334443 2 5
-17.01823 -6.1907649 -1.6904669 1 6
-19.466148 -9.3224382 -1.5092511 3 8
-19.101555 -8.025631 -1.6914047 2 7
-17.267138 -9.3324108 -1.257917 3 9
-20.245552 -7.3647766 -1.2546402 3 10
-26.833332 -12.85062 -1.3858831 5 12
-22.537937 -9.4694471 -1.2811843 4 11
-23.708454 -12.813766 -1.0979569 6 13
-36.075779 -13.123378 -1.3405595 11 14
-26.808273 -12.838619 -0.69165975 4 16
-23.689354 -12.702118 -0.46919048 5 17
-31.025196 -12.914539 -0.97802383 6 15
-5.3098288 -2.5212915 -1.645488 2 1
-7.669549 -3.1925244 -1.6615058 1 2
-36.127377 -13.006653 -0.44701761 8 18
-9.5543652 -4.5367455 -1.6454986 1 3
-12.125471 -5.0473452 -1.6717913 2 4
-13.69843 -6.5044918 -1.6334443 2 5
-17.057402 -6.1410408 -1.6923257 1 6
-19.669973 -9.3399887 -1.5226443 3 8
-19.142786 -7.9683709 -1.6927066 2 7
-17.421118 -9.3411207 -1.266871 3 9
-20.175936 -7.263782 -1.2488263 3 10
-27.095974 -12.866113 -1.3972366 5 12
-22.77573 -9.4806185 -1.2929076 4 11
-23.870573 -12.799288 -1.1034931 6 13
-36.487698 -13.136376 -1.3542401 12 14
-27.049381 -12.843988 -0.69677758 4 16
-23.951176 -12.729709 -0.4734489 5 17
-31.368069 -12.922586 -0.98733276 6 15
-5.3294902 -2.5067327 -1.6487229 1 1
-7.673945 -3.1614065 -1.6599369 1 2
-9.5709286 -4.5016985 -1.6454986 1 3
-12.136549 -4.9998488 -1.6707811 2 4
-13.732974 -6.459322 -1.6347295 2 5
-17.079792 -6.078485 -1.6923257 1 6
-19.834061 -9.3289757 -1.5326892 3 8
-19.153431 -7.8905673 -1.6910793 2 7
-17.592709 -9.3502741 -1.2768484 3 9
-27.330963 -12.855154 -1.4069151 5 12
-22.983912 -9.4685965 -1.3027468 4 11
-24.146719 -12.833638 -1.114077 6 13
-36.746502 -13.077622 -1.3620577 12 14
-27.327864 -12.853696 -0.70273298 4 16
-24.189146 -12.758889 -0.47735822 5 17
-31.697239 -12.941863 -0.996409 6 15
-5.3443203 -2.4932339 -1.6508795 1 1
-7.6765761 -3.1343169 -1.6583679 1 2
-36.814884 -12.971794 -0.45442137 8 18
-9.5886049 -4.473279 -1.6461135 1 3
-12.174238 -4.9706955 -1.6738117 2 4
-13.74599 -6.4127831 -1.6338726 2 5
-17.106319 -6.0274439 -1.6930693 1 6
-20.018763 -9.339159 -1.5446874 3 8
-19.20027 -7.8393974 -1.693032 2 7
-17.73851 -9.3564148 -1.2852908 4 9
-27.570368 -12.862137 -1.4171519 5 12
-23.22064 -9.4808998 -1.3144701 4 11
-24.310646 -12.822975 -1.119776 6 13
-27.545681 -12.85062 -0.7072925 4 16
-24.365568 -12.732599 -0.47987139 5 17
-32.05442 -12.944322 -1.006067 6 15
-5.3573518 -2.4743099 -1.6519579 0 1
-7.7031026 -3.1106925 -1.6615058 2 2
-37.808792 -13.159019 -0.46606246 9 18
-9.6092997 -4.438086 -1.6467285 1 3
-12.207952 -4.9298558 -1.6758319 2 4
-13.784954 -6.3666248 -1.6355863 2 5
-17.114292 -5.9564795 -1.6915822 1 6
-20.213869 -9.3358402 -1.5569645 3 8
-19.230232 -7.7656159 -1.693032 2 7
-17.891056 -9.3492451 -1.2937332 4 9
-27.735632 -12.809791 -1.4231079 5 12
-23.445776 -9.4679518 -1.3251466 4 11
-24.49785 -12.801725 -1.1261263 6 13
-27.83806 -12.857098 -0.71352702 4 16
-24.582966 -12.748045 -0.48336184 5 17
-32.391895 -12.962395 -1.0153761 7 15
-5.3615961 -2.4558628 -1.6508795 1 1
-7.7128367 -3.0864768 -1.6615058 1 2
-9.6124144 -4.4029374 -1.6448838 1 3
-12.190224 -4.878211 -1.6712863 2 4
-13.794041 -6.3183184 -1.6343012 2 5
-17.155512 -5.9104667 -1.6938128 1 6
-20.384581 -9.3370953 -1.5678465 3 8
-19.280441 -7.7155318 -1.6953102 2 7
-18.047913 -9.359148 -1.3029431 4 9
-20.157129 -6.9445925 -1.241617 116 10
-27.961006 -12.807454 -1.4326003 5 12
-23.697918 -9.4832907 -1.3377072 4 11
-24.733088 -12.825893 -1.1350819 6 13
-28.136448 -12.887815 -0.72013378 4 16
-24.826494 -12.76457 -0.48727119 5 17
-32.715736 -12.959692 -1.0241032 7 15
-7.7199163 -3.0580921 -1.6607213 1 2
-38.273838 -13.036943 -0.47071886 9 18
-9.6241245 -4.3677249 -1.6442688 1 3
-12.229311 -4.8443995 -1.6743166 2 4
-13.837739 -6.2799931 -1.6368713 2 5
-17.157188 -5.8441296 -1.6919539 1 6
-20.566025 -9.333497 -1.5792866 3 8
-19.299841 -7.6452503 -1.6946594 2 7
-18.208273 -9.3618031 -1.312153 4 9
-20.169905 -6.8703299 -1.2409194 116 10
-28.154718 -12.77748 -1.4402313 5 12
-23.946274 -9.4858427 -1.3498491 4 11
-24.998077 -12.85279 -1.1451774 6 13
-28.399748 -12.888682 -0.72571695 4 16
-25.061981 -12.769715 -0.49097112 5 17
-33.135281 -12.985575 -1.0357393 7 15
-5.3579521 -2.4079595 -1.6444098 1 1
-7.7347255 -3.0312059 -1.6615058 1 2
-38.795219 -13.056033 -0.4765394 9 18
-9.6508846 -4.3372798 -1.6461135 1 3
-12.243292 -4.7980938 -1.6738117 2 4
-13.86792 -6.2324905 -1.6377282 2 5
-17.155846 -5.7735796 -1.6897233 1 6
-20.676529 -9.2924013 -1.5851461 3 8
-19.353718 -7.5846395 -1.6969376 2 7
-18.366951 -9.358428 -1.321107 4 9
-20.141966 -6.7785201 -1.2376635 114 10
-24.215185 -9.4898281 -1.3630377 4 11
-25.180342 -12.830024 -1.1513648 6 13
-28.672945 -12.886133 -0.7314862 5 16
-25.257675 -12.764102 -0.4939729 5 17
-33.465179 -12.987005 -1.0446993 7 15
-5.3659081 -2.3901782 -1.6444098 2 1
-7.7410784 -3.0041203 -1.6607213 1 2
-9.6616049 -4.3036437 -1.6454986 1 3
-12.277633 -4.7646441 -1.676337 2 4
-13.873981 -6.1799946 -1.6360147 2 5
-17.167339 -5.7141404 -1.6889797 1 6
-20.765553 -9.2497606 -1.5896106 3 8
-19.393633 -7.5261869 -1.6982394 2 7
-18.529705 -9.3640852 -1.3305727 4 9
-20.175699 -6.7154722 -1.2383612 116 10
-28.608234 -12.743187 -1.4588438 6 12
-24.458788 -9.491848 -1.3749704 4 11
-25.383268 -12.82757 -1.1586921 6 13
-28.978531 -12.908132 -0.738186 5 16
-25.497393 -12.768149 -0.49774262 5 17
-33.814899 -12.980332 -1.0541246 7 15
-5.3816805 -2.3736053 -1.6465664 2 1
-7.7593598 -2.9785409 -1.6622903 1 2
-39.835327 -13.097198 -0.48818049 9 18
-9.6736965 -4.2666106 -1.6448838 1 3
-12.291306 -4.7181931 -1.6758319 2 4
-13.91837 -6.1387358 -1.638585 2 5
-17.1579 -5.6412339 -1.6860056 1 6
-20.875982 -9.2074099 -1.5954701 3 8
-19.342922 -7.4250565 -1.6914047 2 7
-18.706669 -9.3676071 -1.340806 4 9
-20.207764 -6.6439791 -1.2388263 117 10
-24.754456 -9.5023508 -1.3896245 4 11
-25.658821 -12.848987 -1.1691132 6 13
-29.285423 -12.916417 -0.74479276 5 16
-25.712881 -12.775179 -0.5011633 5 17
-34.22924 -13.016148 -1.0657609 7 15
-5.389111 -2.3566861 -1.6465664 2 1
-7.7650132 -2.952755 -1.6615058 1 2
-40.446808 -13.157581 -0.49516517 9 18
-9.6906738 -4.237782 -1.6454986 1 3
-12.306068 -4.6795549 -1.6758319 2 4
-13.944873 -6.098165 -1.6394417 2 5
-17.141451 -5.5762138 -1.6826595 1 6
-20.98889 -9.1785507 -1.6018876 3 8
-19.407145 -7.3798385 -1.6949848 2 7
-18.868279 -9.3745089 -1.3502717 4 9
-20.205751 -6.5730486 -1.2374309 111 10
-28.694307 -12.548169 -1.4588438 6 12
-24.993273 -9.5040417 -1.4013476 4 11
-25.899502 -12.867899 -1.1782317 7 13
-29.564007 -12.928493 -0.75084114 5 16
-25.990532 -12.800201 -0.50570095 6 17
-34.626225 -13.028945 -1.0766988 8 15
-5.4008398 -2.3393915 -1.6476448 2 1
-7.7862849 -2.9297757 -1.6638591 1 2
-9.7017813 -4.2023582 -1.6448838 1 3
-12.340898 -4.6435575 -1.6783574 2 4
-13.969724 -6.0510316 -1.63987 2 5
-17.073603 -5.4883113 -1.6741087 1 6
-21.09037 -9.1353636 -1.6071892 3 8
-19.406668 -7.3022223 -1.6927066 2 7
-19.054873 -9.3844252 -1.3612723 4 9
-22.097925 -9.5717888 -1.1217724 3 12
-25.280518 -9.5123987 -1.415583 5 11
-26.166559 -12.886893 -1.1883271 7 13
-29.873161 -12.939657 -0.75754094 5 16
-26.23632 -12.807649 -0.50961024 6 17
-35.00124 -13.030755 -1.0869387 8 15
-5.391273 -2.3129311 -1.6422532 2 1
-7.789114 -2.8998413 -1.6622903 1 2
-41.29628 -13.115823 -0.50443143 9 18
-9.7091265 -4.16535 -1.6436539 1 3
-12.360751 -4.6018348 -1.6788623 2 4
-13.972488 -5.9943914 -1.6377282 2 5
-21.199141 -9.0947247 -1.6130487 3 8
-19.432039 -7.2344341 -1.6927066 2 7
-19.216656 -9.3808947 -1.3704823 4 9
-22.234018 -9.538702 -1.1269839 3 12
-25.463312 -9.4798412 -1.4239569 5 11
-26.419695 -12.897165 -1.1977712 7 13
-30.168049 -12.942512 -0.76386851 5 16
-26.46447 -12.804832 -0.51317054 6 17
-35.44796 -13.056373 -1.0993896 8 15
-5.4028583 -2.2956054 -1.6433314 2 1
-7.8065486 -2.8753476 -1.6638591 1 2
-41.914257 -13.151215 -0.51141608 9 18
-9.7272434 -4.1329813 -1.6442688 1 3
-12.384185 -4.5614057 -1.6798725 2 4
-14.000647 -5.9486957 -1.638585 2 5
-21.304205 -9.0518847 -1.6186292 3 8
-19.416021 -7.1514072 -1.6891265 2 7
-19.396605 -9.385047 -1.3809713 4 9
-20.357298 -6.3874016 -1.2425473 3 10
-22.38118 -9.5094776 -1.1327537 3 12
-20.529686 -7.5615983 -1.1465763 3 11
-26.60486 -12.872761 -1.2041215 7 13
-30.474352 -12.948163 -0.77047527 5 16
-26.740671 -12.811992 -0.51756859 6 17
-35.854763 -13.050077 -1.1104438 8 15
-5.415184 -2.2763355 -1.6444098 2 1
-7.821219 -2.846693 -1.6646438 1 2
-42.537567 -13.16759 -0.51840073 10 18
-9.728467 -4.0894742 -1.6418091 1 3
-12.397879 -4.5124626 -1.6793674 2 4
-14.016051 -5.8918104 -1.6377282 2 5
-17.162428 -5.312664 -1.6770829 10 6
-21.434444 -9.0102177 -1.6258838 3 8
-19.424606 -7.0699844 -1.6874994 2 7
-19.583696 -9.3829422 -1.3917161 5 9
-20.358786 -6.302103 -1.2411519 3 10
-22.56855 -9.4869528 -1.1403848 3 12
-26.891979 -12.884487 -1.2148682 7 13
-30.807701 -12.950376 -0.77764028 5 16
-26.954176 -12.810316 -0.52091944 6 17
-36.249168 -13.064798 -1.1213819 8 15
-5.4223094 -2.2593105 -1.6444098 2 1
-7.8301244 -2.8221059 -1.6646438 1 2
-43.152416 -13.209489 -0.52538544 10 18
-9.7522135 -4.0634494 -1.6436539 1 3
-12.400798 -4.4694519 -1.6778523 2 4
-14.027151 -5.8446851 -1.6368713 2 5
-21.547363 -8.9781284 -1.6323016 3 8
-19.35671 -6.9764776 -1.6796883 2 7
-19.7609 -9.3916197 -1.4022052 5 9
-20.382303 -6.2392759 -1.2413845 3 10
-22.78635 -9.4943752 -1.1498772 3 12
-20.544401 -7.404541 -1.1444829 32 11
-27.188622 -12.921739 -1.2264291 7 13
-31.102938 -12.959643 -0.7840609 5 16
-27.237528 -12.828622 -0.52552688 6 17
-36.705063 -13.084521 -1.1340654 9 15
-5.4301629 -2.2403691 -1.6444098 2 1
-7.8325377 -2.7921221 -1.6630747 1 2
-43.772556 -13.232385 -0.53237003 10 18
-9.7626839 -4.0278749 -1.643039 2 3
-12.431273 -4.4314671 -1.6798725 2 4
-14.043792 -5.7941685 -1.636443 2 5
-17.223972 -5.2067838 -1.6796852 1 6
-21.744562 -8.9713411 -1.6448578 3 8
-19.298328 -6.8794165 -1.6725283 2 7
-19.945236 -9.3940201 -1.41295 5 9
-20.430716 -6.176178 -1.2430123 3 10
-23.011423 -9.4940214 -1.1595557 3 12
-27.428808 -12.918714 -1.2352219 7 13
-31.436325 -12.969956 -0.79131901 5 16
-5.0532522 -1.7815146 -2.4985192 0 0
-27.492336 -12.831577 -0.52957582 6 17
-37.165302 -13.102559 -1.1468652 9 15
-5.4308181 -2.2184885 -1.6422532 2 1
-7.8533335 -2.7686782 -1.6654282 1 2
-44.393368 -13.251121 -0.53935468 10 18
-9.7766838 -3.9937742 -1.643039 2 3
-12.446667 -4.3880491 -1.6798725 2 4
-14.067612 -5.7466178 -1.6368713 2 5
-17.222961 -5.1409378 -1.6778264 1 6
-21.901339 -8.9466944 -1.6543446 4 8
-20.137062 -9.3986282 -1.4242066 5 9
-23.229366 -9.4891939 -1.1688619 3 12
-20.395926 -7.190546 -1.1333876 3 11
-27.723625 -12.939528 -1.246457 7 13
-31.784966 -12.984155 -0.7989493 6 16
-5.1042514 -1.7784868 -2.5204954 0 0
-27.786045 -12.844838 -0.53432286 6 17
-37.560444 -13.087277 -1.1575706 9 15
-5.4424844 -2.200011 -1.6433314 2 1
-7.8597255 -2.7385833 -1.6646438 1 2
-44.955772 -13.239725 -0.54559433 10 18
-9.7912569 -3.9579117 -1.643039 2 3
-12.440184 -4.3345637 -1.6768421 2 4
-14.055398 -5.6816015 -1.633016 2 5
-17.253151 -5.0811486 -1.6789418 1 6
-22.011671 -8.8977594 -1.6602041 4 8
-19.429886 -6.7700028 -1.6796883 24 7
-20.338053 -9.4018059 -1.4359748 5 9
-23.475149 -9.4893398 -1.1794709 3 12
-20.346704 -7.0894518 -1.1292007 3 11
-27.937748 -12.914967 -1.2539471 8 13
-32.106701 -12.978464 -0.80583525 6 16
-5.1341128 -1.7698209 -2.5323286 0 0
-28.028456 -12.844261 -0.53816241 6 17
-37.652775 -12.979589 -1.1590832 9 15
-5.4461741 -2.1805189 -1.6422532 2 1
-7.8650546 -2.7112257 -1.6638591 1 2
-45.775215 -13.316254 -0.55500031 10 18
-9.7786436 -3.9151368 -1.6387347 1 3
-12.465743 -4.2971659 -1.6783574 2 4
-14.066777 -5.6320038 -1.6321591 2 5
-17.277554 -5.0261321 -1.6796852 1 6
-19.467308 -6.7107306 -1.6809902 19 7
-20.52516 -9.405817 -1.4469755 5 9
-20.885368 -6.0756645 -1.2667331 3 10
-23.736469 -9.5035191 -1.1910106 3 12
-20.354996 -7.0167332 -1.1283634 3 11
-28.256557 -12.948791 -1.2663223 8 13
-32.468826 -12.999747 -0.81383771 6 16
-5.1505527 -1.7553982 -2.5374002 0 0
-28.32803 -12.862091 -0.5430491 7 17
-5.453752 -2.1614959 -1.6422532 2 1
-7.8744698 -2.6837566 -1.6638591 1 2
-46.448051 -13.336318 -0.5625903 10 18
-9.7922497 -3.880981 -1.6387347 1 3
-12.484422 -4.2549086 -1.6788623 2 4
-14.093744 -5.5858006 -1.633016 2 5
-17.337099 -4.9778852 -1.6837749 1 6
-19.513254 -6.6504569 -1.682943 5 7
-20.725063 -9.4100323 -1.4587437 5 9
-23.996084 -9.5104141 -1.2023643 4 12
-28.530846 -12.954179 -1.2765805 8 13
-32.837433 -13.014524 -0.82193327 6 16
-5.1672592 -1.7399795 -2.5424716 0 0
-28.550066 -12.836901 -0.54639995 7 17
-5.4652233 -2.1428986 -1.6433314 2 1
-7.8842535 -2.6548774 -1.6638591 1 2
-46.977676 -13.302202 -0.56841087 11 18
-9.8064079 -3.8450646 -1.6387347 1 3
-12.499933 -4.2091227 -1.6788623 2 4
-14.077096 -5.5195894 -1.6287321 2 5
-17.347565 -4.9121375 -1.6830314 1 6
-19.529942 -6.5763483 -1.682292 2 7
-20.915966 -9.404398 -1.4697444 5 9
-21.227999 -6.0109215 -1.2848724 3 10
-24.250256 -9.5084562 -1.2133456 4 12
-28.77133 -12.936387 -1.2852104 8 13
-21.585648 -6.1121931 -0.78342396 4 14
-33.208809 -13.02108 -0.83002883 6 16
-5.2145777 -1.7356704 -2.5627573 0 0
-28.850437 -12.851078 -0.55128664 7 17
-5.4654889 -2.1210213 -1.6411749 2 1
-7.8971953 -2.6285787 -1.6646438 1 2
-47.624763 -13.306037 -0.57567489 11 18
-9.8234558 -3.8122404 -1.6393496 1 3
-12.495726 -4.1591983 -1.676337 2 4
-14.070325 -5.4603457 -1.6257333 2 5
-17.345427 -4.8461947 -1.6811725 1 6
-22.096558 -8.5751286 -1.6574137 4 8
-19.537647 -6.503099 -1.6809902 2 7
-21.145573 -9.4190388 -1.4835593 5 9
-21.614218 -6.038866 -1.3069654 3 10
-24.506802 -9.5104847 -1.2245131 4 12
-29.101078 -12.962723 -1.297911 8 13
-33.54858 -13.019375 -0.83738005 6 16
-5.3101401 -1.7469122 -2.6067095 0 0
-29.162228 -12.868155 -0.55638272 7 17
-5.4800506 -2.1046917 -1.6433314 2 1
-7.902596 -2.5997698 -1.6638591 1 2
-48.418972 -13.345901 -0.58470833 11 18
-9.8293228 -3.7750916 -1.6381197 1 3
-12.525244 -4.1205134 -1.6783574 2 4
-14.096725 -5.4140487 -1.6265901 2 5
-17.40447 -4.7972589 -1.6852618 1 6
-22.126356 -8.4979429 -1.6574137 4 8
-19.575377 -6.4398422 -1.682292 2 7
-21.357273 -9.4241323 -1.4960948 6 9
-21.823797 -6.0153742 -1.3183604 4 10
-24.778568 -9.5165634 -1.236425 4 12
-29.387484 -12.967551 -1.3086579 9 13
-33.948463 -13.038392 -0.84622002 6 16
-5.4986167 -1.788731 -2.6963046 0 0
-29.435589 -12.872331 -0.5607807 7 17
-22.60779 -7.3544416 -0.69188923 3 15
-5.4797993 -2.0837693 -1.6411749 2 1
-7.9074445 -2.5723364 -1.6630747 1 2
-49.138363 -13.369017 -0.59285712 13 18
-9.8343992 -3.7396662 -1.6368899 1 3
-12.50488 -4.0679083 -1.6738117 2 4
-14.092298 -5.3587909 -1.6240197 2 5
-17.38954 -4.7311521 -1.6822877 1 6
-22.236467 -8.4557238 -1.6635524 4 8
-19.554922 -6.3613262 -1.678712 2 7
-21.560305 -9.4284296 -1.508119 6 9
-25.041548 -9.5223951 -1.2479647 4 12
-20.3566 -6.6221166 -1.1218736 3 11
-29.675665 -12.977317 -1.3195673 9 13
-34.327908 -13.053661 -0.85459471 7 16
-5.5773044 -1.792824 -2.7318046 0 0
-29.75559 -12.888724 -0.5660165 7 17
-22.534357 -7.2436666 -0.68886381 3 15
-5.4870396 -2.0646286 -1.6411749 2 1
-7.9201093 -2.5459182 -1.6638591 1 2
-49.845322 -13.37466 -0.60081965 14 18
-9.8399944 -3.7025309 -1.6356601 1 3
-12.522781 -4.0254469 -1.6743166 2 4
-14.110917 -5.3095665 -1.6240197 2 5
-17.409796 -4.6714535 -1.6826595 1 6
-22.3144 -8.3963213 -1.6671797 4 8
-19.59219 -6.2979074 -1.6800138 2 7
-21.750591 -9.4213352 -1.5191196 6 9
-22.635599 -6.073658 -1.3648717 4 10
-25.336412 -9.5334244 -1.2609935 4 12
-29.973839 -12.983259 -1.3308026 9 13
-34.687656 -13.052052 -0.86241114 7 16
-5.6045694 -1.7789519 -2.7419474 0 0
-30.041548 -12.882037 -0.57055408 8 17
-22.579807 -7.167079 -0.68944567 3 15
-5.4909592 -2.0431614 -1.6400965 2 1
-7.9256487 -2.5156879 -1.6630747 1 2
-50.721508 -13.410683 -0.61078441 15 18
-9.8534985 -3.6664426 -1.6356601 1 3
-12.53745 -3.9795241 -1.6743166 2 4
-14.104191 -5.2481065 -1.621021 2 5
-17.4345 -4.6096525 -1.6834031 1 6
-22.457212 -8.3562288 -1.6755505 4 8
-19.626539 -6.2296786 -1.6809902 2 7
-21.979418 -9.4249363 -1.5326786 6 9
-23.016741 -6.085588 -1.3864995 4 10
-25.472294 -9.4781265 -1.2660189 4 12
-30.282019 -12.985152 -1.3423635 9 13
-35.065075 -13.047557 -0.87059981 7 16
-5.6484871 -1.772295 -2.7605429 0 0
-30.378572 -12.907461 -0.57613885 8 17
-5.5013194 -2.0262728 -1.6411749 4 1
-7.9376893 -2.4905655 -1.6638591 1 2
-51.303665 -13.382735 -0.61725682 17 18
-9.8656025 -3.6337469 -1.6356601 1 3
-12.546792 -3.9367387 -1.6738117 2 4
-14.125248 -5.2026801 -1.6214494 2 5
-17.472815 -4.5578432 -1.6856338 1 6
-20.391712 -7.5107746 -1.519575 3 8
-19.643284 -6.1633663 -1.6806647 2 7
-22.230986 -9.4456577 -1.5480283 6 9
-23.608658 -6.1583991 -1.4209177 4 10
-30.549295 -12.979999 -1.352296 9 13
-35.505913 -13.07771 -0.88046336 7 16
-5.6581016 -1.7536402 -2.762233 0 0
-30.644629 -12.894408 -0.58032745 8 17
-23.353695 -7.2381129 -0.71155447 3 15
-5.4975014 -2.0031009 -1.6379399 2 1
-7.9313488 -2.4581976 -1.6607213 1 2
-52.233273 -13.430668 -0.62787348 18 18
-9.8596592 -3.5925217 -1.6325855 2 3
-12.545297 -3.8882189 -1.6717913 2 4
-14.14706 -5.1547036 -1.6218779 2 5
-17.450045 -4.4869051 -1.681916 1 6
-20.361568 -7.4190574 -1.5153897 3 8
-19.657063 -6.0923996 -1.6800138 2 7
-22.429396 -9.4376669 -1.5595407 6 9
-20.542459 -6.3668141 -1.1271073 31 11
-30.948065 -13.022086 -1.3679276 10 13
-38.673664 -9.9441042 -1.3944443 12 14
-35.949615 -13.098807 -0.89032698 7 16
-5.7369843 -1.7561625 -2.7977331 0 0
-30.988482 -12.911956 -0.58598197 8 17
-23.504986 -7.1951694 -0.71539444 3 15
-5.5080838 -1.9852049 -1.6390183 2 1
-7.9548841 -2.4350891 -1.6638591 1 2
-53.140568 -13.466375 -0.63821077 20 18
-9.872139 -3.5580828 -1.6325855 2 3
-12.562588 -3.8455648 -1.6722964 2 4
-14.164968 -5.1052895 -1.6218779 2 5
-17.473322 -4.4279222 -1.6826595 1 6
-20.342295 -7.3317008 -1.5120413 3 8
-19.68965 -6.027247 -1.6809902 2 7
-22.650126 -9.4376163 -1.5725881 6 9
-27.7155 -7.023397 -1.6651016 5 10
-20.542793 -7.4039636 -1.0171703 20 12
-31.240515 -13.016971 -1.3788371 10 13
-38.979393 -9.8777857 -1.4042161 13 14
-36.34499 -13.099338 -0.8989808 7 16
-5.8402429 -1.7654982 -2.8450663 0 0
-31.314339 -12.91963 -0.59128755 8 17
-23.403658 -7.0748968 -0.71155447 3 15
-5.5077238 -1.9633789 -1.6368617 2 1
-7.9558263 -2.4050364 -1.6622903 1 2
-53.959492 -13.473622 -0.64747709 21 18
-9.8807755 -3.5222731 -1.6319705 1 3
-12.545548 -3.7925038 -1.6682559 2 4
-14.19394 -5.0598187 -1.623163 2 5
-17.496401 -4.3688307 -1.6834031 1 6
-20.450455 -7.2901244 -1.51818 3 8
-19.695301 -5.9538651 -1.6796883 2 7
-22.804703 -9.4087353 -1.5810305 6 9
-27.708855 -6.9188685 -1.6632413 5 10
-31.6035 -13.038932 -1.3928405 10 13
-39.579903 -9.8830547 -1.4245975 13 14
-36.804832 -13.12009 -0.90921664 7 16
-5.9054246 -1.7627285 -2.8738043 0 0
-31.659145 -12.932752 -0.59694213 9 17
-5.5181761 -1.9454219 -1.6379399 3 1
-7.9641733 -2.3772509 -1.6622903 1 2
-54.685883 -13.452384 -0.65562588 23 18
-9.8930111 -3.4877613 -1.6319705 1 3
-12.551106 -3.7464187 -1.6672456 2 4
-14.200264 -5.0062747 -1.6218779 2 5
-17.484472 -4.3010707 -1.6808007 1 6
-20.577385 -7.2545156 -1.5257137 3 8
-19.693045 -5.8782377 -1.6777356 2 7
-22.933489 -9.3683233 -1.5876821 6 9
-27.732836 -6.822104 -1.6632413 5 10
-20.284981 -7.1514292 -1.0019082 2 12
-31.904114 -13.032821 -1.4040756 10 13
-40.34782 -9.9253111 -1.4509814 14 14
-37.246407 -13.131146 -0.9189871 8 16
-5.9529643 -1.7554399 -2.8940902 0 0
-31.987324 -12.943203 -0.60231745 9 17
-22.492514 -6.6327052 -0.68246394 2 15
-5.4845901 -1.9131567 -1.6260786 7 1
-7.9644885 -2.3486083 -1.6607213 2 2
-55.701965 -13.506598 -0.66726691 25 18
-9.9045219 -3.4549351 -1.6319705 1 3
-12.559656 -3.7036541 -1.6667407 2 4
-14.228053 -4.9630866 -1.623163 2 5
-17.483156 -4.2393112 -1.6793135 1 6
-20.439318 -7.129725 -1.5137155 3 8
-19.658894 -5.7971129 -1.6731791 2 7
-23.075438 -9.3371382 -1.5953569 6 9
-27.720379 -6.7216301 -1.6611482 5 10
-20.323671 -7.0893846 -1.0026526 2 12
-32.269478 -13.057373 -1.4182417 11 13
-40.959377 -9.931819 -1.4717816 15 14
-34.215305 -10.089581 6.5039148 15 30
-37.708858 -13.153755 -0.92931592 8 16
-5.9941669 -1.7437369 -2.9109948 0 0
-32.383553 -12.965619 -0.60887957 9 17
-22.497475 -6.5446415 -0.68188208 2 15
-7.9730425 -2.3194029 -1.6607213 1 2
-56.820984 -13.557642 -0.68007213 27 18
-9.9133816 -3.4173245 -1.6313556 1 3
-12.580764 -3.6598148 -1.6677507 2 4
-14.231106 -4.9057231 -1.6214494 2 5
-17.483082 -4.1715107 -1.6778264 1 6
-20.295553 -6.9962492 -1.5011593 3 8
-19.634071 -5.7116618 -1.6692736 2 7
-23.220678 -9.2970171 -1.6030319 7 9
-27.779787 -6.6283326 -1.6632413 5 10
-20.372185 -7.0226655 -1.0037694 2 12
-32.647343 -13.071234 -1.4327337 11 13
-41.699306 -9.9495678 -1.4970489 15 14
-6.048696 -1.7378649 -2.9346614 0 0
-32.653152 -12.948086 -0.6131379 9 17
-22.250055 -6.392715 -0.67373681 2 15
-5.526978 -1.8847678 -1.6347049 41 1
-7.9769211 -2.2918677 -1.6599369 2 2
-57.547009 -13.529332 -0.68822086 28 18
-9.9134359 -3.380604 -1.629511 1 3
-12.581391 -3.6147885 -1.6662356 2 4
-14.277411 -4.868773 -1.6248766 2 5
-17.48131 -4.1098657 -1.6763394 1 6
-20.314865 -6.9276195 -1.5008802 3 8
-19.568607 -5.6223021 -1.6621137 2 7
-23.325596 -9.2493916 -1.6081485 7 9
-27.797728 -6.5352607 -1.6630087 5 10
-20.376451 -6.9486213 -1.0028389 2 12
-21.034977 -6.0436082 -1.1469949 3 11
-32.89856 -13.045398 -1.4418521 11 13
-42.401402 -9.9685917 -1.5210598 16 14
-6.1419191 -1.7414626 -2.9769232 0 0
-32.988541 -12.948002 -0.61858308 9 17
-5.5298743 -1.864233 -1.6336268 52 1
-7.9886456 -2.2650783 -1.6607213 2 2
-58.369339 -13.507827 -0.69748718 29 18
-9.9251766 -3.3459787 -1.629511 2 3
-12.578662 -3.5665185 -1.6642152 2 4
-14.275476 -4.8125529 -1.6227345 2 5
-17.476149 -4.0443287 -1.6744804 1 6
-20.28977 -6.8400941 -1.4972529 3 8
-19.503731 -5.5300336 -1.6549535 2 7
-23.4655 -9.2102089 -1.6155677 7 9
-27.81259 -6.4363866 -1.6625435 5 10
-20.298351 -6.8429871 -0.9978134 2 12
-21.271156 -6.0311646 -1.1587182 3 11
-33.129913 -13.003491 -1.4499935 11 13
-43.113605 -9.9773474 -1.5453497 17 14
-33.439892 -12.990621 -0.62619233 10 17
-5.5400028 -1.846135 -1.6347049 54 1
-7.9927278 -2.2361202 -1.6599369 2 2
-59.586098 -13.570434 -0.71145648 30 18
-9.9292984 -3.3088117 -1.6282812 1 3
-12.594858 -3.5236554 -1.6647204 2 4
-14.314827 -4.7702332 -1.6253049 2 5
-17.482395 -3.9815276 -1.6737369 1 6
-20.30974 -6.767961 -1.4969739 3 8
-19.595865 -5.4823222 -1.6611371 2 7
-23.579369 -9.160037 -1.6211959 7 9
-27.830996 -6.3383689 -1.662311 5 10
-20.390352 -6.7948241 -1.0011636 2 12
-21.480574 -6.0096064 -1.1689759 3 11
-33.398632 -12.974593 -1.4597632 11 13
-43.845875 -9.9856777 -1.5703378 17 14
-33.80233 -12.995814 -0.63212615 10 17
-5.5354371 -1.8231717 -1.6314702 53 1
-7.9967017 -2.2071645 -1.6591524 2 2
-9.9520473 -3.2778428 -1.6301258 1 3
-12.603254 -3.4786162 -1.6642152 2 4
-14.327613 -4.7189951 -1.6248766 2 5
-17.434004 -3.9065487 -1.6677884 1 6
-20.348396 -6.7020226 -1.49809 3 8
-19.634096 -5.4191942 -1.6627644 2 7
-23.711796 -9.1163559 -1.6281033 7 9
-27.817879 -6.2333302 -1.660218 5 10
-20.383583 -6.7136111 -0.99967468 2 12
-21.740154 -6.0004864 -1.1819553 3 11
-33.611588 -12.92248 -1.4670905 11 13
-44.590408 -9.9916582 -1.5957446 18 14
-34.142796 -12.990093 -0.63764113 10 17
-5.5490928 -1.8062228 -1.6336268 35 1
-7.9892192 -2.1751161 -1.6560146 2 2
-9.9671888 -3.2443075 -1.6307408 1 3
-12.619149 -3.4356439 -1.6647204 2 4
-14.374251 -4.6788011 -1.6283036 2 5
-20.375462 -6.6321874 -1.4983691 3 8
-19.622118 -5.3422465 -1.6601609 2 7
-23.829287 -9.0661783 -1.6339873 7 9
-27.788774 -6.1250153 -1.6571947 5 10
-20.349901 -6.6238675 -0.99688286 2 12
-22.046177 -6.0022125 -1.1974468 3 11
-33.656494 -12.805073 -1.4670905 11 13
-45.175461 -9.9572716 -1.615428 19 14
-34.625854 -13.035699 -0.64580888 10 17
-23.30817 -6.2584882 -0.70236188 3 15
-5.5700307 -1.7915592 -1.6379399 9 1
-8.0005503 -2.1482317 -1.656799 2 2
-9.9746876 -3.2082846 -1.6301258 1 3
-12.615735 -3.3874574 -1.6626999 2 4
-14.39428 -4.6298137 -1.6287321 2 5
-17.456961 -3.7838974 -1.6674167 31 6
-20.39469 -6.5598006 -1.49809 3 8
-19.675299 -5.2830243 -1.6630899 2 7
-24.043844 -9.0518579 -1.646523 7 9
-27.778765 -6.0212083 -1.6553344 5 10
-20.331057 -6.5393338 -0.99483544 2 12
-45.538116 -9.8706512 -1.6271541 19 14
-22.528917 -7.2462592 -0.55068505 2 16
-35.012192 -13.041799 -0.65216148 11 17
-50.857273 -13.465576 -1.531093 24 15
-5.5725799 -1.7709399 -1.6368617 3 1
-8.0080004 -2.1202936 -1.656799 2 2
-9.9858255 -3.173449 -1.6301258 1 3
-12.615976 -3.3403561 -1.6611849 2 4
-14.398984 -4.5759301 -1.6274469 2 5
-17.470062 -3.7229421 -1.6674167 12 6
-20.364222 -6.4716549 -1.4941837 3 8
-19.724451 -5.2224803 -1.6656935 2 7
-20.401903 -7.5995679 -1.3952979 5 9
-27.752745 -5.9142241 -1.6525437 5 10
-20.441341 -6.4961634 -0.99911624 2 12
-33.879894 -12.620027 -1.4729524 12 13
-45.806877 -9.7616348 -1.63553 19 14
-22.630295 -7.191802 -0.55254608 2 16
-35.357723 -13.03013 -0.65774632 11 17
-51.387554 -13.414189 -1.5456383 25 15
-5.5750537 -1.7503217 -1.6357833 2 1
-8.0115595 -2.0913346 -1.6560146 2 2
-65.682106 -13.757599 -0.78125638 30 18
-10.000616 -3.1397541 -1.6307408 1 3
-12.627561 -3.296294 -1.6611849 2 4
-14.430048 -4.5304008 -1.6291604 2 5
-20.367659 -6.3945494 -1.4927886 3 8
-19.730991 -5.1505713 -1.6647172 2 7
-27.691147 -5.8001142 -1.64766 5 10
-23.711802 -6.1897206 -1.2843245 4 11
-46.384537 -9.7155819 -1.6549342 20 14
-35.835102 -13.06416 -0.66577441 11 17
-52.429211 -13.490796 -1.5755434 28 15
-5.5700917 -1.7274275 -1.6325485 3 1
-8.0074139 -2.0604236 -1.6536611 2 2
-10.015289 -3.1059968 -1.6313556 1 3
-12.642831 -3.2531838 -1.6616899 2 4
-14.438177 -4.4776468 -1.6283036 2 5
-17.472221 -3.596066 -1.665186 1 6
-20.355553 -6.3127761 -1.4902773 3 8
-19.772015 -5.087626 -1.66667 2 7
-20.454464 -7.4569454 -1.3952979 5 9
-27.699488 -5.7010031 -1.6469623 5 10
-36.243141 -13.076921 -0.67254597 11 17
-53.221622 -13.506679 -1.5980012 30 15
-5.5721068 -1.707818 -1.6314702 3 1
-8.0065994 -2.0319293 -1.6520922 2 2
-10.017975 -3.0704508 -1.6301258 1 3
-12.676627 -3.2170968 -1.6647204 2 4
-14.426328 -4.4215851 -1.6253049 2 5
-17.46063 -3.5333664 -1.6629553 1 6
-20.376373 -6.2452393 -1.4902773 3 8
-19.788776 -5.0220308 -1.66667 2 7
-20.377693 -7.3524938 -1.3883903 5 9
-27.722155 -5.6099086 -1.6471949 5 10
-32.426174 -8.2291727 -1.7532547 7 11
-47.820946 -9.6771383 -1.7037935 21 14
-36.642639 -13.076694 -0.67910808 12 17
-54.06361 -13.519673 -1.6218555 32 15
-5.5780344 -1.6883584 -1.6314702 2 1
-8.0174484 -2.0049214 -1.6528766 2 2
-10.028632 -3.0354645 -1.6301258 1 3
-12.67623 -3.1699419 -1.6632051 2 4
-14.456901 -4.3758121 -1.6270185 2 5
-17.472857 -3.472399 -1.6629553 1 6
-20.432423 -6.1844821 -1.4927886 3 8
-19.829393 -4.9587312 -1.6686227 2 7
-20.328043 -7.2544885 -1.3832737 4 9
-27.780735 -5.5208945 -1.6495204 5 10
-20.605455 -6.2368555 -1.0028389 35 12
-32.551582 -8.1401663 -1.7584883 7 11
-37.096859 -13.100267 -0.68671733 12 17
-54.709866 -13.488669 -1.6398916 33 15
-5.5909829 -1.6720587 -1.6336268 2 1
-8.0202446 -1.9773844 -1.6520922 2 2
-10.034856 -3.0010588 -1.629511 1 3
-12.682819 -3.1269381 -1.6626999 2 4
-14.467521 -4.3267069 -1.6265901 2 5
-17.496002 -3.4167271 -1.6640707 1 6
-20.479578 -6.1246939 -1.4947418 3 8
-19.865082 -4.8977189 -1.6702501 2 7
-20.284239 -7.1631122 -1.3786689 4 9
-27.85376 -5.4394541 -1.6527762 5 10
-20.641335 -6.173069 -1.0035833 11 12
-32.640453 -8.0474749 -1.7618378 7 11
-47.591446 -9.293951 -1.6933235 21 14
-37.493504 -13.093319 -0.69320959 12 17
-55.64637 -13.513689 -1.6665385 36 15
-5.6004796 -1.653623 -1.6347049 2 1
-8.0347214 -1.9512274 -1.6536611 2 2
-10.052854 -2.968251 -1.6307408 1 3
-12.701369 -3.0845203 -1.6637102 2 4
-14.459652 -4.2694221 -1.6240197 5 5
-17.484354 -3.351135 -1.6618401 1 6
-20.59268 -6.0802875 -1.5014383 3 8
-19.87431 -4.8264647 -1.6695991 2 7
-20.2752 -7.0804172 -1.3763664 4 9
-27.845123 -5.3369303 -1.6511483 5 10
-32.621765 -7.9221768 -1.7593256 7 11
-48.075104 -9.2143049 -1.7093774 21 14
-37.964668 -13.101938 -0.70102829 12 17
-56.317738 -13.458334 -1.6851565 37 15
-5.5954084 -1.6298535 -1.6314702 2 1
-8.0456352 -1.9226774 -1.6544456 2 2
-10.075049 -2.9347014 -1.6325855 1 3
-12.71259 -3.0379467 -1.6637102 2 4
-17.51609 -3.2907057 -1.663699 1 6
-20.748913 -6.043828 -1.5112042 3 8
-19.919008 -4.7600751 -1.6718773 2 7
-20.285921 -7.0008483 -1.3753431 9 9
-27.87627 -5.2370477 -1.6518459 5 10
-32.53791 -7.7756338 -1.7532547 7 11
-48.246059 -9.0638704 -1.7142633 21 14
-22.548534 -6.5680299 -0.5464977 2 16
-38.428032 -13.119411 -0.70877719 13 17
-56.751236 -13.363157 -1.6967927 38 15
-5.611887 -1.6144855 -1.6347049 2 1
-8.0366936 -1.8923923 -1.6513077 2 2
-10.092321 -2.9034629 -1.6338153 1 3
-12.730318 -2.9975953 -1.6647204 2 4
-14.466172 -4.1617775 -1.6214494 39 5
-17.530821 -3.2333281 -1.6640707 1 6
-19.911398 -4.6885171 -1.6699245 2 7
-20.286358 -6.9258056 -1.3738081 9 9
-27.936682 -5.1525512 -1.654404 5 10
-21.253954 -6.1145568 -1.0301991 2 12
-32.240799 -7.5917087 -1.7358793 7 11
-48.177567 -8.8857145 -1.7107732 21 14
-22.312708 -6.4191494 -0.54026318 2 16
-38.704746 -13.063198 -0.71303552 13 17
-5.6211948 -1.5959371 -1.6357833 2 1
-8.043251 -1.8643252 -1.6513077 2 2
-10.090989 -2.8649752 -1.6319705 1 3
-12.740705 -2.9531364 -1.6647204 2 4
-14.469135 -4.1079931 -1.6201643 36 5
-17.549839 -3.1735272 -1.6648142 1 6
-19.935411 -4.6207795 -1.6705755 2 7
-20.283936 -6.8460102 -1.3720173 14 9
-27.970217 -5.057838 -1.6553344 5 10
-21.244421 -6.0315928 -1.0287101 2 12
-32.317688 -7.4908366 -1.7386006 7 11
-48.20829 -8.7174778 -1.7107732 21 14
-44.285 -10.093831 -1.3218739 13 15
-5.6232963 -1.5742863 -1.6347049 2 1
-8.0462055 -1.8339626 -1.6505232 2 2
-10.097615 -2.8269074 -1.6313556 1 3
-12.755311 -2.9073038 -1.6652254 2 4
-14.484093 -4.0549364 -1.6201643 36 5
-17.52998 -3.103632 -1.6618401 1 6
-22.836069 -6.3931384 -1.6582509 4 8
-19.944439 -4.5459137 -1.6699245 2 7
-20.263449 -6.7564721 -1.3689473 9 9
-28.012156 -4.9594707 -1.6567297 5 10
-21.512636 -6.0226331 -1.040622 3 12
-32.422821 -7.3900971 -1.7427876 7 11
-48.239914 -8.5407372 -1.7107732 21 14
-5.9637737 -1.3385278 -2.8501377 0 0
-44.87611 -10.072132 -1.3385136 14 15
-5.6321988 -1.5566562 -1.6357833 2 1
-8.0522423 -1.8072702 -1.6505232 2 2
-10.110744 -2.7944596 -1.6319705 1 3
-12.776498 -2.8675966 -1.6667407 2 4
-14.52046 -4.0132399 -1.6227345 15 5
-17.567642 -3.0502517 -1.6644425 1 6
-22.826376 -6.3088717 -1.6560187 4 8
-19.916615 -4.4701467 -1.6663445 2 7
-20.270576 -6.6842375 -1.367924 9 9
-27.961565 -4.854938 -1.6527762 5 10
-32.560177 -7.3079066 -1.7488585 7 11
-45.569065 -10.069052 -1.3581789 14 15
-5.6261811 -1.5349287 -1.6325485 2 1
-8.0543613 -1.7797114 -1.6497388 2 2
-10.112329 -2.7588346 -1.6307408 1 3
-12.782063 -2.8243556 -1.6662356 2 4
-17.569809 -2.9906418 -1.663699 1 6
-22.874117 -6.2404919 -1.6579719 4 8
-19.97415 -4.413537 -1.6699245 2 7
-20.338173 -6.6318297 -1.370994 4 9
-28.009001 -4.7675467 -1.6546366 5 10
-32.533527 -7.1886873 -1.746137 7 11
-48.295498 -8.2206087 -1.7107732 21 14
-23.278698 -6.3508692 -0.56147915 3 16
-46.38496 -10.06269 -1.3813349 15 15
-5.6394734 -1.5153135 -1.6347049 2 1
-8.0611353 -1.7487718 -1.6497388 1 2
-10.130481 -2.7220368 -1.6319705 1 3
-12.79669 -2.7760966 -1.6667407 2 4
-14.541124 -3.9071665 -1.6218779 2 5
-17.55759 -2.9192369 -1.6614684 1 6
-22.890203 -6.1505451 -1.6574137 4 8
-19.975367 -4.3334289 -1.6686227 2 7
-20.298891 -6.5328984 -1.3666449 4 9
-27.999529 -4.6553802 -1.6530087 5 10
-22.535364 -6.0552001 -1.086967 3 12
-32.510139 -7.0527053 -1.7434155 7 11
-23.314497 -6.2645512 -0.56175834 3 16
-47.315662 -10.109056 -1.4080982 16 15
-5.6442065 -1.4975888 -1.6347049 2 1
-8.0627537 -1.7226183 -1.6489543 1 2
-10.131343 -2.68817 -1.6307408 1 3
-12.778187 -2.7300768 -1.6632051 2 4
-14.530265 -3.8553448 -1.6193075 2 5
-17.566675 -2.864063 -1.6614684 1 6
-22.920984 -6.0816717 -1.6582509 4 8
-19.945993 -4.2614889 -1.6650426 2 7
-20.319315 -6.4690948 -1.3666449 4 9
-27.943075 -4.5558262 -1.6488227 5 10
-32.52042 -6.9480314 -1.7427876 15 11
-47.957169 -7.8189154 -1.6968136 21 14
-50.823189 -13.485021 -1.2235481 16 16
-48.348465 -10.153385 -1.4377706 16 15
-5.6568527 -1.479829 -1.6368617 2 1
-8.076396 -1.6960777 -1.6505232 1 2
-10.144488 -2.6537912 -1.6313556 1 3
-12.795403 -2.6870897 -1.6642152 2 4
-14.53209 -3.801585 -1.6180223 2 5
-17.576565 -2.8027303 -1.6614684 1 6
-22.922771 -5.996582 -1.6568557 4 8
-19.952946 -4.1902041 -1.6643918 2 7
-20.627363 -6.4879599 -1.3858321 4 9
-27.919373 -4.4519777 -1.6464972 5 10
-23.626471 -6.1806688 -1.1375929 3 12
-32.540565 -6.8336582 -1.7425781 7 11
-47.984169 -7.6514769 -1.6968136 21 14
-49.268589 -10.167167 -1.4640684 18 15
-5.6619844 -1.4600722 -1.6368617 2 1
-8.0822668 -1.6678733 -1.6505232 2 2
-10.157517 -2.619348 -1.6319705 1 3
-12.812479 -2.6440094 -1.6652254 2 4
-14.506763 -3.7409008 -1.6137384 2 5
-17.598047 -2.7431951 -1.6625836 1 6
-22.908791 -5.9075561 -1.6543446 4 8
-19.959644 -4.1189132 -1.663741 2 7
-20.527901 -6.3780107 -1.3776455 4 9
-27.871613 -4.344645 -1.6427763 5 10
-23.818142 -6.1420527 -1.1457824 3 12
-32.615082 -6.730515 -1.7452997 7 11
-47.911835 -7.4685283 -1.6933235 21 14
-50.275589 -10.192135 -1.4929262 20 15
-5.6595798 -1.4384013 -1.6347049 2 1
-8.0957279 -1.6412091 -1.6520922 2 2
-10.158938 -2.5819285 -1.6307408 1 3
-12.813851 -2.597692 -1.6642152 2 4
-14.523587 -3.6912189 -1.6141669 2 5
-17.568144 -2.6757524 -1.6588659 1 6
-74.037109 -11.276376 0.87187064 55 22
-22.871264 -5.812809 -1.6501592 4 8
-19.841049 -4.0222831 -1.6526753 2 7
-27.898453 -4.2491317 -1.643474 5 10
-34.694202 -8.8176498 -1.6674894 8 12
-32.524841 -6.5936093 -1.7392287 7 11
-47.838814 -7.28619 -1.6898336 21 14
-53.480827 -13.592334 -1.2840323 21 16
-51.351795 -10.214516 -1.5237621 23 15
-5.672287 -1.41952 -1.6368617 2 1
-8.0939951 -1.6099972 -1.6505232 1 2
-10.172167 -2.5456388 -1.6313556 1 3
-12.819395 -2.5499384 -1.6637102 2 4
-14.544734 -3.6398969 -1.6150236 2 5
-17.550257 -2.6072512 -1.6562635 1 6
-74.089821 -11.006721 0.87201035 55 22
-22.818867 -5.7105427 -1.6448578 3 8
-27.803244 -4.1304264 -1.6369624 5 10
-34.571239 -8.6516371 -1.6600444 8 12
-32.486107 -6.4618945 -1.7358793 7 11
-47.667492 -7.0814424 -1.6828537 20 14
-52.352837 -10.242763 -1.5525037 26 15
-5.6729789 -1.4007695 -1.6357833 2 1
-8.0990124 -1.584561 -1.6505232 1 2
-10.164764 -2.5098791 -1.6288961 1 3
-12.831236 -2.5104141 -1.6642152 2 4
-14.548375 -3.5922782 -1.6141669 2 5
-17.562302 -2.5526745 -1.6566353 1 6
-22.825073 -5.6359568 -1.6440206 3 8
-19.961872 -3.9055133 -1.6604863 21 7
-27.851648 -4.0482273 -1.6390554 5 10
-34.419807 -8.4989233 -1.6514826 8 12
-32.525845 -6.3636379 -1.7369258 7 11
-47.887306 -6.9604034 -1.6898336 21 14
-53.587666 -10.280571 -1.5879941 29 15
-5.681818 -1.3808769 -1.6368617 2 1
-8.1201735 -1.5578215 -1.6536611 1 2
-10.177735 -2.4735394 -1.629511 1 3
-12.824762 -2.4603775 -1.662195 2 4
-14.522799 -3.5295391 -1.609883 2 5
-17.547878 -2.4849374 -1.6544045 1 6
-22.83782 -5.550375 -1.6434625 3 8
-19.972134 -3.8315709 -1.6601609 13 7
-20.737453 -6.1269712 -1.3858321 4 9
-27.842573 -3.942759 -1.63766 5 10
-34.532261 -8.3925257 -1.6553912 8 12
-32.584259 -6.2511544 -1.7388101 7 11
-54.727367 -10.30127 -1.6206918 32 15
-5.6828575 -1.3601372 -1.6357833 2 1
-8.1178541 -1.5280144 -1.6520922 1 2
-10.186308 -2.4379947 -1.629511 1 3
-12.833275 -2.4155927 -1.662195 2 4
-14.535031 -3.4788196 -1.609883 2 5
-17.540665 -2.4214859 -1.6529174 1 6
-22.826014 -5.4631863 -1.6412303 3 8
-19.989309 -3.7625649 -1.6604863 5 7
-20.885176 -6.0914254 -1.3942745 5 9
-27.800787 -3.8378942 -1.6344043 5 10
-34.623524 -8.2868071 -1.6583693 8 12
-32.444935 -6.1070728 -1.7302269 7 11
-47.737885 -6.5902071 -1.6828537 20 14
-57.235565 -13.698781 -1.3694546 27 16
-55.918961 -10.323596 -1.6549023 35 15
-5.6913199 -1.3411767 -1.6368617 2 1
-8.1308517 -1.5010942 -1.6536611 1 2
-10.190909 -2.4015186 -1.6288961 1 3
-12.841628 -2.370784 -1.662195 2 4
-14.558699 -3.4308014 -1.6111681 2 5
-17.541119 -2.3591845 -1.6521739 1 6
-22.872129 -5.3898869 -1.6431836 3 8
-19.967035 -3.6862562 -1.6575572 2 7
-21.055916 -6.0615582 -1.4042519 5 9
-27.810061 -3.7403011 -1.6341717 5 10
-34.625015 -8.1594896 -1.6570665 8 12
-32.442486 -5.9894371 -1.7289709 7 11
-47.364414 -6.3702545 -1.6688941 20 14
-58.178265 -13.709884 -1.3908566 29 16
-57.272667 -10.366911 -1.6938837 38 15
-5.6922145 -1.3204316 -1.6357833 2 1
-8.1360416 -1.4727027 -1.6536611 1 2
-10.20308 -2.3668239 -1.629511 1 3
-12.822494 -2.3209963 -1.6586595 2 4
-14.578334 -3.3817582 -1.6120249 2 5
-17.482111 -2.289149 -1.6458536 1 6
-22.906353 -5.313621 -1.6442995 3 8
-19.901321 -3.6023328 -1.6510481 2 7
-21.26894 -6.0425673 -1.4170433 5 9
-27.866499 -3.6489055 -1.6367298 5 10
-34.591007 -8.0241289 -1.6540884 8 12
-32.416027 -5.8676167 -1.7264588 7 11
-47.38636 -6.2048821 -1.6688941 20 14
-58.456253 -10.381069 -1.7278614 41 15
-5.7078276 -1.304122 -1.6390183 2 1
-8.1524668 -1.4477719 -1.6560146 2 2
-10.203168 -2.3312154 -1.6282812 1 3
-12.83012 -2.2784622 -1.6586595 2 4
-14.581715 -3.3316238 -1.6111681 2 5
-22.919958 -5.2367425 -1.6440206 3 8
-19.909231 -3.53562 -1.6507225 2 7
-21.700109 -6.087368 -1.4444172 5 9
-27.850716 -3.5529382 -1.6351019 5 10
-34.687546 -7.9253955 -1.6574388 8 12
-32.403839 -5.7544999 -1.7247839 7 11
-47.803215 -6.0982943 -1.6828537 20 14
-23.126965 -6.4006362 -0.41885778 4 17
-59.996883 -10.438763 -1.7723117 42 15
-5.7010703 -1.2816553 -1.6357833 2 1
-8.1652002 -1.4206502 -1.6575835 2 2
-10.199675 -2.2929845 -1.6264365 1 3
-12.830176 -2.232302 -1.6576493 2 4
-14.597135 -3.2815757 -1.6115965 2 5
-17.489384 -2.1691184 -1.6451101 31 6
-23.027639 -5.1768336 -1.6504382 4 8
-19.929308 -3.4674687 -1.6513735 2 7
-22.029001 -6.0967627 -1.4648836 5 9
-27.878801 -3.4576647 -1.6360322 5 10
-34.691605 -7.799005 -1.6563219 8 12
-32.439472 -5.6440921 -1.7256212 7 11
-23.188852 -6.3263535 -0.41955584 4 17
-61.315762 -10.43684 -1.8101294 41 15
-5.7170129 -1.2632443 -1.6390183 2 1
-8.1664839 -1.3900552 -1.656799 1 2
-10.20801 -2.2555852 -1.6264365 1 3
-12.822625 -2.1825984 -1.655629 2 4
-14.585765 -3.222904 -1.6090262 2 5
-23.069838 -5.0975637 -1.6521124 4 8
-19.934021 -3.3930621 -1.6507225 2 7
-22.366985 -6.1021333 -1.4858617 5 9
-27.91111 -3.3578448 -1.637195 5 10
-34.673138 -7.6614561 -1.6540884 8 12
-32.542633 -5.5392327 -1.7300174 7 11
-61.995411 -13.698647 -1.4773955 32 16
-49.820175 -13.405205 -0.90054417 22 17
-62.728252 -10.452091 -1.8507398 40 15
-5.7100959 -1.2408266 -1.6357833 1 1
-8.1712866 -1.3615402 -1.656799 1 2
-10.211957 -2.219099 -1.6258215 1 3
-14.624129 -3.1778817 -1.6120249 2 5
-23.040699 -5.0068355 -1.648764 4 8
-19.961473 -3.3260796 -1.6520244 2 7
-22.611723 -6.084178 -1.5006998 6 9
-27.95439 -3.2641008 -1.6390554 5 10
-34.625484 -7.5242553 -1.6505519 8 12
-32.605114 -5.4328256 -1.7323203 7 11
-47.666897 -5.5658364 -1.6758738 20 14
-63.749096 -10.405035 -1.8798304 40 15
-5.7217121 -1.2234949 -1.6379399 1 1
-8.1796293 -1.3350673 -1.6575835 1 2
-10.211531 -2.1835694 -1.6245917 1 3
-14.626809 -3.1277049 -1.6111681 2 5
-17.507181 -1.985404 -1.6447383 1 6
-23.061077 -4.9312358 -1.6490431 4 8
-19.97633 -3.2605076 -1.6523498 2 7
-23.472847 -6.23248 -1.5564708 6 9
-27.889673 -3.162832 -1.6346369 5 10
-34.58382 -7.3951869 -1.647388 8 12
-32.551991 -5.3130884 -1.7285521 7 11
-5.7297177 -1.2043085 -1.6390183 2 1
-8.1726189 -1.3046538 -1.65523 2 2
-10.207486 -2.1454744 -1.6227469 2 3
-12.844419 -2.0504467 -1.655629 38 4
-14.649313 -3.0790858 -1.6124533 2 5
-17.506088 -1.9234148 -1.6439949 1 6
-23.082054 -4.8515329 -1.649322 4 8
-19.975777 -3.1888766 -1.6513735 2 7
-120.76033 -19.277838 2.1345689 44 23
-23.544659 -6.1636539 -1.5597966 6 9
-27.968021 -3.0728798 -1.6385903 5 10
-34.519489 -7.2555256 -1.6431071 8 12
-32.483555 -5.1855831 -1.7239466 7 11
-49.630684 -10.431693 6.2270365 30 29
-47.902363 -5.2630897 -1.6828537 20 14
-64.359909 -13.527575 -1.5303425 34 16
-65.20462 -10.164144 -1.9205571 39 15
-5.7529554 -1.1871923 -1.6444098 2 1
-8.1773453 -1.2746905 -1.65523 2 2
-10.215282 -2.1080477 -1.6227469 1 3
-12.867531 -2.0058 -1.6576493 14 4
-14.633237 -3.0197463 -1.6094546 2 5
-17.53282 -1.8613403 -1.6458536 1 6
-23.123129 -4.7717385 -1.6509962 4 8
-19.999147 -3.1174817 -1.6523498 2 7
-73.994995 -11.534393 1.3071852 38 23
-23.748764 -6.1241646 -1.5718206 6 9
-27.90365 -2.9623406 -1.6341717 5 10
-120.69707 -18.814348 4.9767098 45 26
-34.530197 -7.1257262 -1.6423626 8 12
-32.624699 -5.0855613 -1.7304363 7 11
-49.672478 -10.25052 6.2275238 30 29
-37.957729 -9.7882729 -1.5970283 14 13
-47.722569 -5.0663805 -1.6758738 20 14
-50.129875 -10.34491 -1.1910728 13 16
-52.9809 -13.475125 -0.95422781 30 17
-66.830879 -10.190755 -1.9674511 38 15
-5.7342105 -1.1635121 -1.6379399 2 1
-8.1854057 -1.2481575 -1.6560146 2 2
-10.222217 -2.0741603 -1.6227469 1 3
-74.189178 -11.31279 -0.43617254 28 19
-14.65876 -2.9743667 -1.6111681 2 5
-17.530973 -1.8023739 -1.6451101 1 6
-23.107542 -4.6886845 -1.648764 4 8
-20.001495 -3.0499423 -1.6516989 2 7
-74.052612 -11.291966 1.3075343 38 23
-27.837847 -2.8620322 -1.6297531 5 10
-34.471405 -6.994493 -1.638454 8 12
-32.625584 -4.974936 -1.7295988 7 11
-38.377319 -9.7608604 -1.6133112 14 13
-50.802715 -10.308231 -1.2062403 14 16
-5.7269039 -1.1412318 -1.6347049 2 1
-8.1819534 -1.2184238 -1.6544456 1 2
-10.225517 -2.0376954 -1.6221319 1 3
-12.861262 -1.9152479 -1.6551239 2 4
-14.672952 -2.9239602 -1.6115965 2 5
-17.541121 -1.7415656 -1.6454818 1 6
-23.123766 -4.6080008 -1.648764 4 8
-20.027792 -2.9824588 -1.6530008 2 7
-120.70242 -17.974522 2.1301012 44 23
-25.009594 -6.2680631 -1.6524071 7 9
-27.823824 -2.762481 -1.6283578 5 10
-34.432911 -6.8616362 -1.635476 8 12
-32.571636 -4.8504381 -1.7258307 7 11
-38.604992 -9.6754274 -1.6214526 14 13
-5.7382174 -1.1237148 -1.6368617 2 1
-8.1859493 -1.1912847 -1.6544456 1 2
-10.236097 -2.0045345 -1.6227469 2 3
-12.851837 -1.8703017 -1.6531037 2 4
-14.68647 -2.8760509 -1.6120249 2 5
-17.570587 -1.6856691 -1.6477126 1 6
-23.103674 -4.5243917 -1.6462528 3 8
-20.002066 -2.9108601 -1.6500716 2 7
-120.77322 -17.575882 2.1303105 44 23
-25.076746 -6.1965842 -1.655477 7 9
-27.836807 -2.6705792 -1.6285903 5 10
-34.51429 -6.7589316 -1.6382678 8 12
-32.512436 -4.7314687 -1.7218531 7 11
-38.982182 -9.6326847 -1.6359444 15 13
-47.572449 -4.5639567 -1.6688941 20 14
-5.7458873 -1.1044047 -1.6379399 2 1
-8.1861734 -1.1621513 -1.6536611 1 2
-10.235269 -1.9672991 -1.6215171 2 3
-12.893644 -1.830448 -1.6576493 2 4
-14.712043 -2.8277705 -1.6137384 2 5
-17.572399 -1.6239589 -1.6473408 1 6
-23.158514 -4.4512486 -1.6490431 4 8
-19.988422 -2.8376594 -1.6481189 2 7
-24.799576 -6.0363193 -1.6357782 7 9
-27.726673 -2.5623693 -1.6216137 5 10
-34.569065 -6.6444464 -1.6397568 8 12
-32.524799 -4.6173878 -1.7216437 7 11
-39.252453 -9.5542088 -1.645877 15 13
-47.190029 -4.3610816 -1.6549342 20 14
-5.7421379 -1.082912 -1.6357833 2 1
-8.2018366 -1.1351802 -1.6560146 1 2
-10.226539 -1.9286268 -1.6190575 2 3
-12.896025 -1.7848821 -1.6571442 2 4
-14.698376 -2.7719722 -1.6111681 2 5
-17.621599 -1.5664845 -1.6514304 1 6
-23.126858 -4.3615026 -1.6456947 3 8
-20.006105 -2.7689571 -1.6487699 2 7
-119.45493 -16.53323 2.1049697 44 23
-27.775225 -2.4690981 -1.6239393 5 10
