# .PCD v0.7 - Point Cloud Data file format
VERSION 0.7
FIELDS x y z intensity ring
SIZE 4 4 4 4 2
TYPE F F F F U
COUNT 1 1 1 1 1
WIDTH 1275
HEIGHT 1
VIEWPOINT 0 0 0 1 0 0 0
POINTS 1275
DATA ascii
-24.517849 -18.135633 -1.776031 6 10
-19.605528 -17.708738 1.5385911 4 27
-21.197954 -17.344147 1.1158681 3 26
-19.819107 -17.901655 -1.2440562 4 12
-20.642349 -16.889551 -1.3977889 9 11
-90.495766 -74.043556 9.5453548 63 28
-18.481222 -18.410397 -1.0627859 5 13
-37.223202 -27.533669 -1.6168239 19 14
-20.488092 -18.505919 -0.6424349 7 16
-2.7482502 -2.2342398 -1.6515923 1 0
-18.511728 -18.325283 -0.4546701 15 17
-4.6323881 -4.157866 -1.7425351 2 1
-7.1886806 -5.8441682 -1.8529164 4 2
-37.777729 -27.760666 -0.5457806 10 18
-8.2006102 -7.3605738 -1.7143685 2 3
-10.825422 -8.800724 -1.7758365 4 4
-18.556873 -18.369974 0.1517607 10 21
-21.933796 -17.831476 -0.16429119 4 19
-11.974779 -10.748133 -1.7332587 6 5
-15.497934 -11.388535 -1.7953076 4 6
-17.876675 -16.045464 0.55896676 7 24
-35.147697 -25.828007 0.50778407 16 22
-18.69021 -16.775663 -1.756189 4 8
-16.976877 -13.801661 -1.7861131 3 7
-16.264765 -16.100952 0.66605687 7 25
-19.820599 -16.113516 0.44587407 3 23
-18.499336 -18.313015 -1.6682687 7 9
-24.584351 -18.065617 -1.7767286 6 10
-19.750212 -17.727083 1.5455679 4 27
-21.332964 -17.343019 1.1201016 3 26
-19.98229 -17.935389 -1.2507566 4 12
-20.77899 -16.892656 -1.4034412 9 11
-42.429817 -34.494091 4.4639807 28 28
-18.715067 -18.526573 -1.0728812 5 13
-37.148441 -27.298241 -1.609844 18 14
-20.566956 -18.460163 -0.64308625 11 16
-2.7560329 -2.2246325 -1.6515923 1 0
-18.475763 -18.162418 -0.45222676 9 17
-21.8563 -17.642109 -0.81744397 12 15
-4.6468754 -4.1416688 -1.7425351 1 1
-7.2059851 -5.8165736 -1.8521318 2 2
-22.303097 -19.878313 0 5 20
-37.758083 -27.54376 -0.54410428 10 18
-8.2351074 -7.3397903 -1.7162132 2 3
-10.852991 -8.7603874 -1.7753313 4 4
-19.3283 -19.000496 0.15752612 16 21
-22.083059 -17.825146 -0.16494212 4 19
-12.006289 -10.700972 -1.732402 6 5
-15.534379 -11.332016 -1.7949359 4 6
-18.019154 -16.06012 0.5616653 7 24
-35.163326 -25.650938 0.50671309 16 22
-18.751638 -16.712969 -1.7564679 4 8
-17.012545 -13.732294 -1.7848111 3 7
-16.389305 -16.111345 0.66884953 7 25
-19.945196 -16.099491 0.4474099 3 23
-18.625778 -18.309889 -1.6738969 7 9
-24.663397 -17.991451 -1.7778914 6 10
-19.871597 -17.711164 1.5502189 4 27
-21.458685 -17.321159 1.123521 3 26
-20.047764 -17.868179 -1.2509427 4 12
-20.927975 -16.892776 -1.4095122 9 11
-92.225517 -82.198799 15.168835 63 29
-91.360222 -73.744728 9.5847359 63 28
-18.79958 -18.480742 -1.074021 5 13
-37.324253 -27.227289 -1.6133339 19 14
-21.031303 -18.744789 -0.65555531 12 16
-2.7637818 -2.2149985 -1.6515923 1 0
-21.020271 -20.519983 -0.5127517 12 17
-21.870953 -17.528202 -0.81569856 12 15
-4.6584196 -4.1228704 -1.741457 1 1
-7.2201247 -5.786479 -1.8505629 2 2
-37.727657 -27.320301 -0.54228824 10 18
-8.2665977 -7.3162394 -1.7174431 2 3
-19.443165 -18.980412 0.15792133 10 21
-22.173241 -17.770468 -0.16515136 4 19
-12.055483 -10.669541 -1.7341156 6 5
-15.573841 -11.277721 -1.7949359 4 6
-18.140984 -16.055429 0.56371242 7 24
-35.142506 -25.448277 0.50512993 16 22
-18.785959 -16.626257 -1.7542357 4 8
-17.072823 -13.682801 -1.7861131 3 7
-16.505526 -16.11269 0.67129314 7 25
-20.098019 -16.107307 0.44957402 3 23
-18.48963 -18.049572 -1.6559888 7 9
-24.703411 -17.888855 -1.7762635 6 10
-20.055901 -17.750202 1.5597538 4 27
-21.615698 -17.323633 1.1285688 3 26
-20.819143 -18.425699 -1.2950542 4 12
-21.074089 -16.889566 -1.4153737 10 11
-91.850403 -73.612366 9.6091452 63 28
-18.915453 -18.46526 -1.076952 5 13
-37.257179 -26.979607 -1.6063541 18 14
-21.087622 -18.663311 -0.65527612 12 16
-2.7714965 -2.2053382 -1.6515923 1 0
-18.401096 -17.838137 -0.4473401 9 17
-21.853785 -17.389517 -0.8127895 12 15
-4.6669955 -4.1015 -1.7393003 2 1
-7.2372084 -5.7587991 -1.8497784 1 2
-22.215981 -19.524092 0 11 20
-37.390846 -26.877951 -0.5360952 10 18
-8.2861471 -7.2821221 -1.7162132 2 3
-10.904571 -8.6769962 -1.773816 4 4
-19.606943 -19.007092 0.15871175 11 21
-60.6959 -48.297009 -0.45081854 29 19
-12.098625 -10.632646 -1.7349724 6 5
-15.609878 -11.220969 -1.7945641 4 6
-18.278019 -16.063288 0.56622487 10 24
-35.162918 -25.276434 0.50415206 16 22
-18.846876 -16.563217 -1.7545148 4 8
-17.111116 -13.615676 -1.7851366 3 7
-16.61334 -16.105076 0.67338771 7 25
-20.235485 -16.101803 0.45138901 6 23
-18.455069 -17.890457 -1.6472905 7 9
-24.801367 -17.828157 -1.7788216 6 10
-20.255714 -17.801348 1.5704514 4 27
-21.819895 -17.362551 1.1360589 3 26
-20.223038 -17.772633 -1.2541069 4 12
-21.217308 -16.883059 -1.421026 10 11
-18.480474 -17.915085 -1.0486197 5 13
-37.299187 -26.812063 -1.6041205 18 14
-21.164652 -18.600151 -0.65564835 8 16
-2.7791772 -2.1956501 -1.6515923 1 0
-21.854742 -17.266031 -0.8105787 12 15
-4.687088 -4.0902486 -1.741457 2 1
-7.260344 -5.7359328 -1.8505629 1 2
-22.238791 -19.406971 0 11 20
-37.422577 -26.703123 -0.53521049 10 18
-8.3174715 -7.2583504 -1.7174431 2 3
-10.934791 -8.6388779 -1.773816 4 4
-19.730804 -18.994015 0.15917671 11 21
-60.785645 -48.022846 -0.45023736 28 19
-12.147653 -10.600808 -1.736686 6 5
-15.665161 -11.177979 -1.7964231 4 6
-18.397251 -16.054602 0.56817895 7 24
-35.156517 -25.086161 0.50280166 16 22
-18.940655 -16.528809 -1.7578632 4 8
-17.167925 -13.563278 -1.7861131 3 7
-16.727066 -16.102442 0.67571491 5 25
-20.376297 -16.098007 0.45327392 6 23
-18.971786 -18.26334 -1.6877116 7 9
-24.873199 -17.748434 -1.7795193 6 10
-20.480198 -17.872313 1.5830094 4 27
-21.968178 -17.35565 1.1406181 3 26
-21.83403 -17.249668 -1.4582893 5 11
-18.479551 -17.789486 -1.0450374 5 13
-37.229851 -26.565603 -1.5971407 18 14
-21.226439 -18.523529 -0.65555531 12 16
-2.7868242 -2.1859365 -1.6515923 1 0
-18.464466 -17.651205 -0.44587407 14 17
-21.851952 -17.140291 -0.80825138 16 15
-4.6955142 -4.068819 -1.7393003 2 1
-7.2864923 -5.7153983 -1.8521318 0 2
-21.227198 -18.394072 0 10 20
-37.443748 -26.521481 -0.53418607 10 18
-8.3636646 -7.2473936 -1.7217475 4 3
-10.968 -8.6031084 -1.7743212 4 4
-19.834568 -18.960962 0.15947892 5 21
-60.795532 -47.686958 -0.44907498 28 19
-12.190591 -10.563552 -1.7375426 6 5
-15.71383 -11.130137 -1.7975384 4 6
-18.528728 -16.055759 0.57050526 7 24
-35.13942 -24.88932 0.50131166 16 22
-18.97109 -16.439081 -1.7553519 4 8
-17.227709 -13.513115 -1.7874148 3 7
-16.849644 -16.107508 0.67839128 5 25
-20.526768 -16.10084 0.45536819 6 23
-19.147951 -18.304586 -1.6976891 7 9
-24.957809 -17.677666 -1.7811472 6 10
-20.7024 -17.939318 1.5953348 4 27
-22.157555 -17.380001 1.1472942 4 26
-20.129198 -17.442619 -1.240706 12 12
-21.875246 -17.158564 -1.4570332 5 11
-18.535753 -17.719351 -1.0447117 5 13
-34.562561 -24.48073 -1.4790406 15 14
-21.303051 -18.459803 -0.65592754 12 16
-2.7915781 -2.1739669 -1.6499019 1 0
-18.523071 -17.583883 -0.44580427 14 17
-4.7067695 -4.0498905 -1.738222 1 1
-7.2971163 -5.6826959 -1.8497784 0 2
-21.67029 -18.645973 0 5 20
-37.784775 -26.565437 -0.53772491 10 18
-8.4158773 -7.241353 -1.7272816 6 3
-11.001097 -8.5672045 -1.7748263 4 4
-60.724949 -47.290108 -0.4473314 28 19
-12.233421 -10.526119 -1.7383994 6 5
-15.746075 -11.070634 -1.7967949 4 6
-18.654385 -16.050968 0.57264549 7 24
-35.150837 -24.713591 0.50024068 16 22
-19.046513 -16.388371 -1.7570261 4 8
-17.274778 -13.45289 -1.7874148 3 7
-16.972466 -16.111898 0.68106759 8 25
-20.683823 -16.107716 0.45760211 6 23
-18.606663 -17.663239 -1.6442206 7 9
-25.061834 -17.620289 -1.7841704 6 10
-20.858734 -17.947678 1.6025441 4 27
-22.322153 -17.383579 1.1526675 4 26
-20.13242 -17.322727 -1.2371695 12 12
-21.919254 -17.06982 -1.4559865 5 11
-18.620686 -17.676548 -1.0460144 5 13
-34.314251 -24.12541 -1.4648017 14 14
-21.497707 -18.497477 -0.6599288 12 16
-2.8020177 -2.1664267 -1.6515923 1 0
-18.601799 -17.53558 -0.44622311 19 17
-43.714428 -33.798538 -1.6081247 31 15
-4.7150207 -4.0284314 -1.7360654 1 1
-7.3107028 -5.6523919 -1.8482095 0 2
-40.425823 -28.211933 -0.57390547 11 18
-8.4651442 -7.2324715 -1.7322009 5 3
-11.040353 -8.5360327 -1.7763414 2 4
-19.529879 -18.410463 0.15599178 10 21
-60.775734 -46.989773 -0.44649449 28 19
-12.282187 -10.493686 -1.740113 6 5
-15.77809 -11.011042 -1.7960514 4 6
-18.792387 -16.055887 0.57515788 7 24
-35.128647 -24.515196 0.49870402 15 22
-19.097534 -16.316599 -1.7564679 4 8
-17.318478 -13.39007 -1.7870893 3 7
-17.08679 -16.107409 0.68339479 8 25
-20.834845 -16.108807 0.45969641 6 23
-18.647871 -17.579012 -1.6424297 7 9
-25.139563 -17.544123 -1.7853333 6 10
-21.018412 -17.957764 1.6099858 4 27
-22.455418 -17.361782 1.1564125 4 26
-20.135044 -17.203032 -1.2336332 12 12
-28.346371 -21.91647 -1.8778143 9 11
-18.688089 -17.616924 -1.04634 5 13
-34.326138 -23.955151 -1.4617306 14 14
-21.622952 -18.474274 -0.66178983 8 16
-2.8038113 -2.1522174 -1.6482112 1 0
-18.692095 -17.497871 -0.44692123 14 17
-44.070019 -33.828331 -1.6168519 31 15
-4.7319918 -4.0144401 -1.7371436 1 1
-7.3148322 -5.6148963 -1.8442872 0 2
-21.766384 -18.465765 0 15 20
-37.357758 -25.877382 -0.529064 10 18
-8.5234928 -7.2310042 -1.7389649 7 3
-11.076377 -8.5022745 -1.7773515 4 4
-22.172493 -20.755909 0.17651945 13 21
-37.021805 -28.418095 -0.27125365 11 19
-12.324807 -10.455894 -1.7409698 6 5
-15.819705 -10.958167 -1.7964231 4 6
-18.927607 -16.057455 0.57757723 7 24
-35.158115 -24.35371 0.49791244 15 22
-19.17263 -16.265326 -1.7581421 4 8
-17.3493 -13.317396 -1.785462 3 7
-17.212967 -16.113243 0.68618751 8 25
-20.99564 -16.116343 0.46200013 6 23
-19.510525 -18.264011 -1.712783 8 9
-25.249889 -17.490372 -1.7888216 6 10
-21.300213 -18.070284 1.62673 4 27
-22.661722 -17.395235 1.1639026 4 26
-20.137083 -17.083529 -1.2300968 12 12
-28.413195 -21.810087 -1.8771862 9 11
-18.758226 -17.559778 -1.0468285 5 13
-34.448982 -23.862501 -1.4634057 14 14
-21.891619 -18.57201 -0.66802436 4 16
-2.8170733 -2.1468124 -1.6515923 1 0
-18.799925 -17.476088 -0.44803819 14 17
-37.137489 -28.301439 -1.3588771 14 15
-4.7489209 -4.0003805 -1.738222 1 1
-7.3312664 -5.5869522 -1.8435028 0 2
-21.989786 -18.523685 0 10 20
-40.974453 -28.171499 -0.57888782 11 18
-8.5789089 -7.2266736 -1.745114 6 3
-11.099675 -8.4587507 -1.7763414 2 4
-22.285822 -20.716518 0.17684492 6 21
-12.361228 -10.412811 -1.7409698 3 5
-15.861139 -10.905139 -1.7967949 4 6
-19.059998 -16.055698 0.5799036 7 24
-35.147324 -24.165129 0.49656206 15 22
-19.235394 -16.203447 -1.7587003 4 8
-17.405193 -13.264009 -1.7864385 3 7
-22.162556 -20.601933 0.88062865 9 25
-21.124928 -16.098715 0.46360573 6 23
-19.609241 -18.228415 -1.715853 8 9
-25.343689 -17.424755 -1.791147 6 10
-21.402859 -18.029272 1.6297531 4 27
-22.862171 -17.422619 1.1710671 4 26
-20.141582 -16.966801 -1.2267466 8 12
-28.492325 -21.713202 -1.8773956 9 11
-56.95293 -43.402229 5.8455496 55 28
-19.48975 -18.117336 -1.0841165 6 13
-34.565002 -23.764761 -1.4648017 14 14
-2.8187678 -2.1325915 -1.6482112 1 0
-37.14677 -28.104086 -1.355619 14 15
-4.7569466 -3.9788373 -1.7360654 1 1
-5.486455 -4.1508803 -1.375959 0 2
-37.606876 -25.6633 -0.53004181 20 18
-8.6434946 -7.22965 -1.7531078 7 3
-11.151284 -8.4367132 -1.7798769 4 4
-22.454992 -20.728134 0.1776121 6 21
-37.289467 -28.212044 -0.27176511 11 19
-12.385298 -10.359394 -1.7392563 6 5
-15.895819 -10.847462 -1.7964231 4 6
-19.198746 -16.058344 0.582416 7 24
-35.155476 -23.99044 0.49549112 15 22
-19.325502 -16.164366 -1.7617694 4 8
-17.438667 -13.19355 -1.7851366 3 7
-22.204956 -20.497328 0.87946504 9 25
-21.292624 -16.109333 0.46604905 6 23
-19.608221 -18.10029 -1.7102247 8 9
-25.40106 -17.333931 -1.7909145 6 10
-21.59737 -18.064617 1.639753 4 27
-22.983404 -17.388525 1.174161 4 26
-20.212942 -16.906645 -1.227491 8 12
-28.577501 -21.620844 -1.8780237 9 11
-90.296371 -68.315407 9.24333 63 28
-19.52644 -18.024796 -1.0826509 5 13
-34.64114 -23.639454 -1.4645225 14 14
-21.818289 -18.249399 -0.66188288 32 16
-2.8287227 -2.1254101 -1.6499019 1 0
-21.768887 -19.961498 -0.51554406 6 17
-37.201412 -27.951927 -1.3542225 14 15
-4.7641892 -3.9581168 -1.7339088 0 1
-5.406116 -4.0619793 -1.352425 0 2
-21.841537 -18.14608 0 30 20
-37.493099 -25.403833 -0.52724797 10 18
-8.7008648 -7.2287302 -1.7598718 6 3
-11.191889 -8.4092207 -1.7818972 4 4
-37.616264 -28.263634 -0.27346218 11 19
-12.416524 -10.315722 -1.7388277 6 5
-15.938298 -10.799156 -1.7971666 4 6
-19.331865 -16.061029 0.58483535 7 24
-35.168613 -23.828852 0.49455979 15 22
-19.38821 -16.10784 -1.7626066 4 8
-17.514198 -13.159597 -1.7883912 3 7
-17.537107 -16.081068 0.69247109 8 25
-21.445049 -16.113111 0.46821317 3 23
-19.54751 -17.924553 -1.6997358 7 9
-25.461708 -17.251841 -1.791147 6 10
-21.872164 -18.171524 1.656032 4 27
-23.203901 -17.434656 1.1824652 4 26
-20.358028 -16.91357 -1.2328887 8 12
-28.617107 -21.501961 -1.8759302 9 11
-90.602104 -68.07547 9.2514668 63 28
-19.538973 -17.916727 -1.0800457 5 13
-37.211357 -25.212933 -1.5696398 17 14
-21.817171 -18.125835 -0.66002184 28 16
-2.8332188 -2.1133556 -1.6482112 1 0
-21.761549 -19.815378 -0.51372904 6 17
-37.317986 -27.836245 -1.3549207 14 15
-4.7750058 -3.9390116 -1.7328305 0 1
-5.3762465 -4.0102515 -1.3414423 0 2
-21.836863 -18.013727 0 30 20
-37.694397 -25.34869 -0.52883112 10 18
-8.7534847 -7.2209501 -1.765406 5 3
-11.217996 -8.3677311 -1.7813922 2 4
-20.602188 -18.759699 0.16194318 11 21
-12.455526 -10.274849 -1.7392563 6 5
-15.979201 -10.745677 -1.7975384 4 6
-19.474184 -16.064701 0.58744085 7 24
-35.145374 -23.634523 0.49306977 15 22
-19.422771 -16.022289 -1.7606534 4 8
-17.537659 -13.081697 -1.7861131 3 7
-17.67 -16.089743 0.6954965 8 25
-21.606955 -16.117067 0.47051689 6 23
-19.819519 -18.047026 -1.7178997 8 9
-25.521774 -17.162857 -1.791147 6 10
-21.99091 -18.140804 1.660218 4 27
-23.312674 -17.389397 1.1849077 4 26
-20.490917 -16.903427 -1.2373556 8 12
-28.72081 -21.423435 -1.8778143 9 11
-19.678232 -17.918373 -1.0842793 6 13
-36.6954 -24.676884 -1.544233 17 14
-21.809361 -17.991041 -0.65788162 28 16
-2.843492 -2.1056101 -1.6499019 1 0
-20.483788 -18.521515 -0.48203546 5 17
-37.289604 -27.613008 -1.3503826 14 15
-4.7917056 -3.9247603 -1.7339088 0 1
-5.339777 -3.954113 -1.3288909 0 2
-21.837717 -17.886702 0 30 20
-36.741356 -24.521975 -0.51425654 9 18
-8.8153286 -7.2204046 -1.7727849 5 3
-5.5326848 -4.0969615 -0.87630153 0 4
-20.510296 -18.545485 0.16071105 11 21
-38.159832 -28.257414 -0.27597293 11 19
-12.479008 -10.221228 -1.7375426 3 5
-16.039803 -10.70531 -1.8001407 2 6
-19.613668 -16.065042 0.58995324 7 24
-35.154465 -23.462849 0.49204531 15 22
-19.487841 -15.961979 -1.7614905 4 8
-17.580011 -13.018025 -1.7857877 3 7
-17.791302 -16.086962 0.69805646 8 25
-21.772362 -16.122467 0.47289041 6 23
-19.882393 -17.977732 -1.7178997 8 9
-25.568243 -17.064798 -1.7902169 6 10
-22.298147 -18.263826 1.6785899 4 27
-23.431046 -17.350723 1.1878386 4 26
-20.64562 -16.910286 -1.2431256 8 12
-28.856407 -21.368212 -1.8817918 9 11
-19.829592 -17.929991 -1.089164 6 13
-36.721466 -24.508699 -1.5417202 17 14
-21.813248 -17.866657 -0.65611362 20 16
-2.848269 -2.0930271 -1.6482112 1 0
-37.31646 -27.421694 -1.3477063 14 15
-4.8150253 -3.9144609 -1.7371436 0 1
-5.2941804 -3.8903852 -1.3139859 0 2
-21.881405 -17.788877 0 10 20
-36.777626 -24.351816 -0.51351148 9 18
-8.8816042 -7.2204585 -1.7807788 7 3
-5.4837136 -4.0296621 -0.86620003 0 4
-20.530504 -18.427437 0.16033909 11 21
-38.404972 -28.221579 -0.27699584 11 19
-12.513302 -10.172913 -1.7371143 3 5
-6.1632581 -4.0809193 -0.69001681 0 6
-19.756199 -16.061155 0.59246564 7 24
-36.800972 -24.367273 0.51383746 16 22
-19.533831 -15.880376 -1.7603744 4 8
-17.640457 -12.962945 -1.7870893 3 7
-17.921558 -16.085741 0.70084918 8 25
-21.92477 -16.111237 0.47491491 6 23
-19.986769 -17.939402 -1.7212254 8 9
-25.650595 -16.9842 -1.7916123 6 10
-22.445501 -18.247471 1.6846365 4 27
-90.557625 -66.545532 4.5784297 45 26
-20.791172 -16.902554 -1.2481508 8 12
-28.924877 -21.255209 -1.8811637 9 11
-19.975483 -17.929272 -1.0935606 6 13
-36.737717 -24.32539 -1.538649 16 14
-21.856867 -17.76893 -0.65546227 8 16
-2.8551941 -2.0835705 -1.6482112 1 0
-37.307064 -27.224733 -1.344099 14 15
-4.8219862 -3.8936327 -1.7349871 0 1
-5.2595267 -3.8381259 -1.3022189 0 2
-21.990068 -17.756428 0 5 20
-36.798019 -24.190174 -0.51267332 9 18
-8.9393244 -7.2182798 -1.7875427 7 3
-5.4265304 -3.9599965 -0.85508847 0 4
-22.272375 -19.857916 0.17342752 12 21
-38.695442 -28.237898 -0.27841395 23 19
-12.537684 -10.123865 -1.735829 3 5
-6.1434774 -4.0385814 -0.68629903 0 6
-19.899578 -16.068409 0.59516418 7 24
-35.40765 -23.276178 0.49330258 15 22
-19.589489 -15.81802 -1.7606534 4 8
-17.689787 -12.909076 -1.7877402 3 7
-18.049408 -16.092743 0.70375824 8 25
-22.091148 -16.120958 0.47735822 3 23
-20.174269 -17.987255 -1.7322261 8 9
-25.733471 -16.916594 -1.7934726 6 10
-22.521423 -18.185482 1.6857992 4 27
-48.765865 -35.586765 2.4595342 30 26
-20.931046 -16.901293 -1.2531762 8 12
-29.00811 -21.168592 -1.8820013 9 11
-91.178116 -73.624031 14.389359 63 29
-48.190422 -35.166832 4.8701525 43 28
-20.12134 -17.940065 -1.0982826 6 13
-36.828205 -24.210016 -1.5390679 16 14
-21.865891 -17.656157 -0.6539734 20 16
-2.8653853 -2.0757186 -1.6499019 1 0
-21.407259 -18.952875 -0.49906901 11 17
-37.314438 -27.031017 -1.3409573 14 15
-4.8265309 -3.8695493 -1.7317522 0 1
-5.2633624 -3.8128412 -1.2998655 0 2
-22.133055 -17.744617 0 5 20
-37.029625 -24.157743 -0.51472217 9 18
-9.0014706 -7.2167015 -1.7949218 6 3
-5.4210391 -3.9270642 -0.85205799 0 4
-21.19453 -18.764536 0.16452366 5 21
-37.271301 -26.999765 -0.26748753 10 19
-12.569842 -10.077553 -1.7354007 6 5
-6.0941606 -3.9757669 -0.67923534 0 6
-20.042902 -16.06889 0.59776968 7 24
-35.481979 -23.148075 0.49320945 15 22
-19.653921 -15.757034 -1.7614905 4 8
-17.760569 -12.865963 -1.790344 3 7
-18.180315 -16.095905 0.7066673 5 25
-22.263884 -16.128218 0.47987139 3 23
-20.419247 -18.07814 -1.7478318 8 9
-25.755571 -16.802668 -1.7909145 6 10
-22.600338 -18.119249 1.6869619 4 27
-49.99025 -36.21352 2.5148959 31 26
-21.083435 -16.903111 -1.25876 8 12
-29.075354 -21.062527 -1.8815826 9 11
-91.704025 -73.521385 14.431769 63 29
-49.44289 -35.817009 4.9840627 45 28
-20.806261 -18.420782 -1.132151 6 13
-37.187023 -24.260429 -1.5505148 17 14
-21.868105 -17.5322 -0.65220541 19 16
-2.8696702 -2.0635874 -1.6482112 1 0
-37.307941 -26.828238 -1.3373501 14 15
-4.849051 -3.8598745 -1.7349871 0 1
-5.251164 -3.7761257 -1.2935897 0 2
-36.824986 -23.841396 -0.51071763 9 18
-9.0606232 -7.2123117 -1.8016857 7 3
-5.4250503 -3.9011679 -0.85054284 0 4
-22.440506 -19.728355 0.17366 6 21
-37.336098 -26.848486 -0.26727831 10 19
-12.5925 -10.023707 -1.7336873 6 5
-6.0645399 -3.9263313 -0.67440224 0 6
-20.18335 -16.066071 0.60028207 8 24
-35.468555 -22.963209 0.49190563 15 22
-19.696318 -15.678391 -1.7603744 4 8
-17.789186 -12.792251 -1.7887167 3 7
-18.305454 -16.093063 0.70934355 6 25
-22.443432 -16.13913 0.48252413 3 23
-20.371302 -17.909235 -1.7383661 8 9
-25.897869 -16.766912 -1.7967284 6 10
-90.426849 -65.026184 4.5377226 45 26
-21.220465 -16.891621 -1.2634131 8 12
-29.145454 -20.958572 -1.8813732 9 11
-49.648533 -35.702389 4.9921989 45 28
-20.105015 -17.675131 -1.0906296 6 13
-36.81847 -23.837177 -1.531669 16 14
-21.866598 -17.405949 -0.65034437 27 16
-2.8853486 -2.06038 -1.6532828 1 0
-21.48155 -18.759371 -0.49781245 11 17
-37.299084 -26.634663 -1.3338592 14 15
-4.8557811 -3.8389955 -1.7328305 0 1
-5.2317371 -3.7358973 -1.285745 0 2
-36.937492 -23.740776 -0.51118326 9 18
-9.1154957 -7.2067394 -1.8078347 5 3
-5.4088945 -3.8624024 -0.84599715 0 4
-37.307735 -26.640841 -0.26644138 10 19
-12.622549 -9.9794264 -1.7332587 6 5
-6.0741768 -3.9040461 -0.67403042 0 6
-20.327488 -16.070976 0.60298061 8 24
-35.470493 -22.797894 0.49088123 15 22
-19.751331 -15.615464 -1.7606534 4 8
-17.834755 -12.735505 -1.7890421 3 7
-18.430998 -16.09539 0.71213627 6 25
-22.597727 -16.136665 0.48468822 3 23
-20.141935 -17.589514 -1.7138064 8 9
-26.000357 -16.711168 -1.7999842 6 10
-57.443237 -41.019268 2.8757255 37 26
-21.812347 -17.244909 -1.2952403 9 12
-29.205042 -20.854839 -1.8807451 9 11
-50.009987 -35.711308 5.0166082 46 28
-36.951122 -23.749537 -1.5339028 16 14
-21.855186 -17.278778 -0.64829725 31 16
-2.8836505 -2.0440054 -1.6482112 1 0
-21.31122 -18.479893 -0.4923673 11 17
-34.384308 -24.372478 -1.2265732 11 15
-4.8691525 -3.822021 -1.7328305 1 1
-5.2319474 -3.7085381 -1.2826072 0 2
-36.983047 -23.588024 -0.51067108 9 18
-9.1872339 -7.2114806 -1.8170584 6 3
-5.3932099 -3.8228452 -0.84145153 0 4
-21.214382 -18.39592 0.16319855 11 21
-39.805553 -28.215195 -0.28357491 12 19
-12.644796 -9.9254799 -1.7315452 3 5
-6.0642629 -3.8678255 -0.67142802 0 6
-20.471542 -16.069052 0.60558611 8 24
-35.492527 -22.637362 0.49008963 15 22
-19.783751 -15.529173 -1.7587003 4 8
-17.879105 -12.673167 -1.7890421 3 7
-18.574677 -16.106915 0.71551079 6 25
-22.738754 -16.117811 0.48650327 3 23
-20.613373 -17.874758 -1.7485993 8 9
-26.068636 -16.626741 -1.8006819 6 10
-50.014885 -35.451832 2.4976361 31 26
-21.872414 -17.168659 -1.2952403 9 12
-29.300478 -20.768929 -1.8822105 9 11
-49.971722 -35.421234 5.0003352 45 28
-20.092005 -17.422657 -1.0834651 11 13
-37.03717 -23.622543 -1.5340422 16 14
-21.86504 -17.16287 -0.64680833 15 16
-2.8907676 -2.0339279 -1.6482112 1 0
-21.548342 -18.554142 -0.49634644 11 17
-4.8824635 -3.8050022 -1.7328305 1 1
-5.2256122 -3.6767118 -1.2779003 0 2
-36.957005 -23.390347 -0.50918102 9 18
-9.2528772 -7.2109537 -1.8250523 5 3
-5.3935394 -3.7948644 -0.83943117 0 4
-21.508825 -18.520117 0.16496536 5 21
-40.060814 -28.186567 -0.2846908 12 19
-12.673088 -9.8763933 -1.7306883 6 5
-6.0777264 -3.8466356 -0.67142802 0 6
-20.637901 -16.083532 0.60884291 8 24
-35.490215 -22.462006 0.48897207 15 22
-19.866159 -15.4821 -1.7612114 4 8
-17.936274 -12.619862 -1.790344 3 7
-18.68532 -16.088945 0.71760529 9 25
-36.454136 -25.648928 0.77802831 8 23
-20.705885 -17.828747 -1.7511575 8 9
-26.18387 -16.571955 -1.8046353 6 10
-50.164474 -35.295444 2.4989388 31 26
-21.894388 -17.062738 -1.2930069 4 12
-29.362997 -20.659641 -1.8815826 9 11
-50.095051 -35.246601 5.0003352 45 28
-20.028519 -17.245502 -1.0767891 11 13
-35.15686 -22.251022 -1.4529359 14 14
-21.89958 -17.066784 -0.64606392 3 16
-2.8978496 -2.0238247 -1.6482112 1 0
-21.664656 -18.522993 -0.4975332 11 17
-34.41922 -24.037987 -1.2218025 22 15
-4.8926687 -3.7855785 -1.7317522 0 1
-5.2094731 -3.6382358 -1.2708402 0 2
-36.730198 -23.067619 -0.50494367 9 18
-9.312377 -7.2052155 -1.8318162 5 3
-5.3904872 -3.7646542 -0.83690584 0 4
-21.655428 -18.515104 0.16559306 17 21
-37.260014 -26.021963 -0.26413986 10 19
-12.710633 -9.8345299 -1.7311169 6 5
-6.0371532 -3.7915056 -0.6654796 0 6
-20.779314 -16.077465 0.6113553 8 24
-35.470181 -22.276291 0.48762169 15 22
-19.932707 -15.422426 -1.7623276 4 8
-17.993286 -12.566304 -1.7916458 3 7
-18.835577 -16.104168 0.72121257 15 25
-36.4254 -25.439081 0.77551514 8 23
-20.786198 -17.771923 -1.7526926 8 9
-13.925611 -8.7456837 -0.95766598 2 10
-49.740162 -34.737953 2.4717462 30 26
-29.987009 -23.201687 -1.7661353 9 12
-29.470953 -20.582174 -1.8838853 9 11
-49.0215 -34.23605 4.881218 44 28
-19.930632 -17.040426 -1.0683219 11 13
-35.176765 -22.09202 -1.4505627 14 14
-43.807346 -33.894821 -1.288871 21 16
-2.9019172 -2.0116315 -1.6465209 1 0
-21.848085 -18.548201 -0.50025576 11 17
-34.529205 -23.935913 -1.2227334 33 15
-4.8997445 -3.7637839 -1.7295955 0 1
-37.047401 -28.458303 0 15 20
-36.637371 -22.831379 -0.50256884 9 18
-9.3782196 -7.2039657 -1.8398101 5 3
-5.3840289 -3.7322505 -0.83387536 0 4
-21.991312 -18.669796 0.1676621 12 21
-12.744885 -9.7901011 -1.7311169 3 5
-6.1044331 -3.8041108 -0.67142802 0 6
-20.933617 -16.080351 0.61423999 8 24
-35.473042 -22.105801 0.48659733 15 22
-19.976927 -15.34546 -1.7614905 4 8
-18.033768 -12.501147 -1.7913203 3 7
-18.967878 -16.103012 0.72412163 15 25
-36.42852 -25.252533 0.77370006 8 23
-20.857235 -17.707006 -1.75346 8 9
-13.952665 -8.6949081 -0.95743346 2 10
-90.508774 -62.741383 4.4867573 45 26
-30.086828 -23.111475 -1.7672522 9 12
-29.526205 -20.467794 -1.8828386 9 11
-49.766518 -34.498535 4.9433804 45 28
-19.910778 -16.9035 -1.0640885 5 13
-35.046715 -21.840126 -1.4420472 14 14
-44.131527 -33.90004 -1.2949195 21 16
-2.9119074 -2.0035453 -1.6482112 1 0
-34.635601 -23.831112 -1.2235478 22 15
-4.9128518 -3.7466583 -1.7295955 1 1
-37.121063 -28.30941 0 15 20
-36.774673 -22.73912 -0.50336045 9 18
-9.4441643 -7.2023458 -1.847804 5 3
-5.3643341 -3.6909435 -0.82882464 0 4
-22.053288 -18.590342 0.16763885 12 21
-37.328728 -25.684124 -0.26334944 21 19
-12.785304 -9.7503786 -1.7319736 6 5
-6.0431504 -3.7367001 -0.6632489 0 6
-21.104088 -16.094482 0.61758983 12 24
-35.512562 -21.958712 0.48608509 15 22
-20.04306 -15.285317 -1.7626066 4 8
-18.064156 -12.429087 -1.7900186 3 7
-19.10651 -16.106287 0.72726339 9 25
-36.420895 -25.059488 0.77167565 8 23
-20.10096 -16.944582 -1.6848977 7 9
-13.965947 -8.6356544 -0.95627064 2 10
-90.523079 -62.28463 4.4766617 45 26
-30.230856 -23.054775 -1.7709745 10 12
-29.65012 -20.400839 -1.886188 9 11
-19.99716 -16.85708 -1.0655539 17 13
-34.877922 -21.566292 -1.4319961 13 14
-37.165073 -28.342976 -1.0875983 20 16
-2.9218779 -1.9954123 -1.6499019 1 0
-21.83597 -18.27714 -0.49704453 23 17
-34.738396 -23.723585 -1.2242461 11 15
-4.9136171 -3.7201848 -1.7252823 1 1
-5.1825051 -3.5392425 -1.2551507 41 2
-37.229229 -28.186897 0 15 20
-9.497611 -7.1908064 -1.8533381 2 3
-5.3706331 -3.6677189 -0.82781452 0 4
-21.811323 -18.256508 0.16531409 5 21
-37.348797 -25.506283 -0.26286125 21 19
-12.831948 -9.715291 -1.7336873 6 5
-6.0459747 -3.7093337 -0.66213363 0 6
-21.239849 -16.081059 0.61991614 8 24
-35.479908 -21.767677 0.48459503 15 22
-20.109022 -15.22489 -1.7637227 4 8
-18.114019 -12.370447 -1.7906694 3 7
-19.23007 -16.095949 0.72982335 6 25
-36.399166 -24.857761 0.76937193 8 23
-13.989202 -8.5826721 -0.95580554 2 10
-38.98851 -26.62608 1.9235007 10 26
-30.30797 -22.946692 -1.7707886 10 12
-29.71126 -20.290449 -1.8855599 9 11
-50.911518 -34.768555 5.0328813 46 28
-20.111052 -16.833347 -1.0684848 17 13
-34.952999 -21.444407 -1.4319961 13 14
-37.219158 -28.17927 -1.0862956 10 16
-2.9258242 -1.9831669 -1.6482112 1 0
-21.816591 -18.131786 -0.49515969 23 17
-37.041779 -25.107464 -1.302325 13 15
-5.1850877 -3.514529 -1.2527974 67 2
-37.388145 -28.102434 0 15 20
-5.5164404 -4.1463785 -1.0736325 0 3
-5.3702645 -3.6400447 -0.82579422 0 4
-21.798012 -18.116344 0.1647329 11 21
-41.702183 -28.266354 -0.29280424 13 19
-12.853065 -9.6608801 -1.7319736 6 5
-5.9976501 -3.6509306 -0.65544164 0 6
-21.404537 -16.088511 0.62307996 8 24
-35.490761 -21.604179 0.48371032 15 22
-20.155663 -15.149807 -1.7631646 4 8
-18.157087 -12.307142 -1.7906694 3 7
-19.452187 -16.166727 0.73610687 3 25
-36.340042 -24.631819 0.76630026 8 23
-21.06608 -17.508036 -1.7555068 8 9
-6.7400713 -4.1028624 -0.45953086 0 10
-39.074596 -26.485338 1.923175 10 26
-30.368717 -22.826349 -1.7696717 10 12
-29.801746 -20.200064 -1.8868161 9 11
-90.509247 -68.030396 13.902369 63 29
-51.148075 -34.668922 5.0442719 46 28
-20.264975 -16.842236 -1.0735326 17 13
-34.515442 -21.010475 -1.4110565 13 14
-37.400402 -28.111647 -1.088715 10 16
-2.932729 -1.9729416 -1.6482112 0 0
-21.82114 -18.007154 -0.4938333 17 17
-36.714508 -24.699036 -1.2877798 12 15
-4.9302073 -3.67888 -1.7220476 1 1
-5.1810517 -3.485461 -1.248875 111 2
-37.630276 -28.079403 0 15 20
-5.4390163 -4.0585489 -1.0558002 0 3
-5.3928151 -3.6279209 -0.82730949 0 4
-36.673012 -24.671122 -0.2568866 10 19
-12.893084 -9.6207123 -1.7328303 6 5
-6.0921779 -3.679388 -0.66436422 0 6
-21.553513 -16.083054 0.6257785 8 24
-35.476944 -21.426401 0.48249963 15 22
-20.221218 -15.088905 -1.7642808 4 8
-18.190014 -12.23701 -1.789693 3 7
-19.856976 -16.386293 0.74925578 3 25
-36.346165 -24.451239 0.76462483 8 23
-21.123985 -17.431852 -1.7552509 8 9
-6.7611885 -4.0834389 -0.45999596 0 10
-49.753853 -37.125912 3.6153171 47 27
-38.994373 -26.232775 1.9147079 10 26
-30.473833 -22.739323 -1.7711607 10 12
-29.89196 -20.109287 -1.888072 9 11
-90.410881 -60.822323 8.8954153 63 28
-20.400705 -16.83499 -1.0776032 11 13
-34.417477 -20.786531 -1.4040766 13 14
-2.9395978 -1.9626931 -1.6482112 0 0
-21.815804 -17.875114 -0.4922975 16 17
-36.677464 -24.48859 -1.2834744 12 15
-4.9461131 -3.6639416 -1.7231257 1 1
-5.1997108 -3.4717119 -1.2504439 117 2
-37.409851 -27.712168 0 15 20
-5.4595008 -4.0442448 -1.05703 0 3
-5.3724451 -3.5870421 -0.82225865 0 4
-21.824945 -17.882605 0.16398898 11 21
-36.675739 -24.48744 -0.25630543 10 19
-12.926585 -9.5756512 -1.7328303 6 5
-5.9990768 -3.5946422 -0.65283918 0 6
-21.721983 -16.091034 0.62903529 8 24
-35.506912 -21.275715 0.48189431 15 22
-20.280172 -15.022983 -1.7648388 4 8
-18.245878 -12.1823 -1.7909949 3 7
-20.028482 -16.410646 0.7535612 3 25
-36.348137 -24.268707 0.76287961 8 23
-21.184704 -17.358013 -1.7552509 8 9
-6.7993784 -4.0741825 -0.46162388 0 10
-38.962715 -26.014393 1.9086831 10 26
-30.575491 -22.649466 -1.7724637 10 12
-30.001837 -20.031448 -1.8905842 9 11
-20.552086 -16.839668 -1.0824881 11 13
-34.146908 -20.4608 -1.3901167 12 14
-37.425434 -27.723709 -1.0837831 10 16
-2.954814 -1.9594582 -1.6532828 0 0
-21.853249 -17.791336 -0.49187863 11 17
-36.694241 -24.333456 -1.2813798 12 15
-4.9544983 -3.6461008 -1.7220476 1 1
-5.2171302 -3.4596932 -1.2520128 144 2
-37.393642 -27.518627 0 15 20
-34.325806 -20.4217 -0.46499142 8 18
-5.4307971 -3.9966173 -1.0490361 0 3
-5.3903027 -3.5745306 -0.82326889 0 4
-21.881023 -17.813946 0.16398898 5 21
-36.745831 -24.367666 -0.25625893 10 19
-12.972623 -9.5467768 -1.7349724 3 5
-6.0103412 -3.5757761 -0.65283918 0 6
-21.891603 -16.110407 0.6324783 4 24
-38.746296 -23.051615 0.5248732 16 22
-20.314419 -14.94973 -1.7637227 4 8
-18.287386 -12.127116 -1.7913203 3 7
-20.287689 -16.516769 0.76135743 3 25
-36.304214 -24.074814 0.76036644 7 23
-21.248425 -17.298931 -1.7560184 8 9
-6.8258724 -4.060966 -0.46255407 0 10
-38.970978 -25.843254 1.9051009 10 26
-30.704432 -22.595921 -1.7758138 10 12
-30.01469 -19.903973 -1.8874441 9 11
-90.210907 -59.822556 8.8365078 63 28
-20.68548 -16.840622 -1.0867217 12 13
-37.525242 -27.615471 -1.0841554 10 16
-2.9559181 -1.944631 -1.6499019 1 0
-21.983629 -17.763912 -0.49334463 5 17
-36.839962 -24.23617 -1.283358 12 15
-4.9709387 -3.6301897 -1.7231257 1 1
-5.2199445 -3.4340823 -1.2496594 144 2
-37.394108 -27.308264 0 15 20
-5.4007211 -3.9440525 -1.0404273 1 3
-5.3702173 -3.5329435 -0.81821817 0 4
-22.017717 -17.791456 0.16452366 5 21
-36.948502 -24.307575 -0.25704932 10 19
-13.020372 -9.5085506 -1.736686 6 5
-6.0062551 -3.5436058 -0.65098029 0 6
-22.137808 -16.166855 0.63787532 4 24
-39.219784 -23.13912 0.53013492 16 22
-20.394852 -14.894005 -1.765955 4 8
-18.355024 -12.075352 -1.7935985 3 7
-20.562668 -16.615702 0.76938647 3 25
-36.275261 -23.864666 0.75792313 7 23
-21.289944 -17.203379 -1.7542275 8 9
-6.851028 -4.0420098 -0.46325177 0 10
-49.717503 -36.307823 3.5853174 47 27
-39.005329 -25.660715 1.9021699 10 26
-30.8064 -22.497377 -1.7769307 10 12
-30.047392 -19.767492 -1.884932 9 11
-90.512817 -59.546314 8.8446445 63 28
-20.843426 -16.842567 -1.0917693 12 13
-33.94109 -20.024765 -1.376157 12 14
-37.509937 -27.392853 -1.0808055 10 16
-2.9593153 -1.9328353 -1.6482112 1 0
-22.13287 -17.763506 -0.49536911 5 17
-37.077465 -24.216629 -1.2888269 12 15
-4.9767132 -3.6091626 -1.7209692 1 1
-5.1951799 -3.3931594 -1.2410302 144 2
-38.769993 -28.11639 0 16 20
-5.3817744 -3.9029171 -1.0342783 0 3
-5.3520041 -3.4955866 -0.81367248 0 4
-22.151466 -17.778431 0.16508161 5 21
-37.156166 -24.268032 -0.25793275 10 19
-13.045392 -9.4606495 -1.735829 6 5
-5.9973516 -3.5115943 -0.64874965 0 6
-22.472937 -16.2976 0.64597088 4 24
-37.408283 -21.903454 0.50466424 16 22
-20.43121 -14.81692 -1.7648388 4 8
-18.388292 -12.010056 -1.7929476 3 7
-20.795393 -16.690067 0.7760191 3 25
-36.417824 -23.785791 0.75924951 7 23
-21.328197 -17.117689 -1.7526926 8 9
-6.9264212 -4.0555868 -0.46743774 0 10
-49.756813 -36.084145 3.5795035 46 27
-38.929596 -25.426321 1.8943542 10 26
-30.935822 -22.434971 -1.7800946 10 12
-30.096056 -19.656818 -1.8838853 9 11
-90.526207 -59.125927 8.8267441 63 28
-20.992674 -16.848402 -1.0966542 12 13
-37.38044 -27.108673 -1.074478 10 16
-2.9724646 -1.9259185 -1.6515923 0 0
-36.796867 -23.841417 -1.2760272 12 15
-4.9774022 -3.5818982 -1.716656 1 1
-5.1944151 -3.3655641 -1.2378924 179 2
-38.902008 -27.995132 0 16 20
-5.3639622 -3.8600793 -1.0281292 0 3
-5.3914213 -3.4932082 -0.81771302 0 4
-36.808468 -23.848932 -0.25491056 9 19
-13.086437 -9.4174204 -1.736686 3 5
-6.003294 -3.4855895 -0.64800608 0 6
-22.691566 -16.329578 0.65053046 4 24
-39.885384 -23.157965 0.5369333 16 22
-20.508051 -14.758252 -1.7667919 4 8
-18.408768 -11.927403 -1.7906694 3 7
-21.019049 -16.74328 0.78206992 3 25
-36.336937 -23.543417 0.755759 7 23
-21.306492 -16.97225 -1.7457851 8 9
-49.866051 -35.885208 3.5778756 46 27
-38.99234 -25.263906 1.8928888 10 26
-31.037304 -22.33544 -1.7812115 10 12
-30.161198 -19.542036 -1.8834666 9 11
-90.511444 -58.644154 8.8042879 63 28
-21.141815 -16.841074 -1.1012135 12 13
-7.0006223 -4.064651 -0.28268594 0 14
-37.34322 -26.873379 -1.0705698 10 16
-2.9788344 -1.9160516 -1.6515923 0 0
-36.838734 -23.69548 -1.2747473 12 15
-4.9986544 -3.5720921 -1.7198908 1 1
-5.1791558 -3.3313465 -1.2316166 191 2
-37.360901 -26.698502 0 15 20
-15.307601 -8.8200493 -0.20567468 2 18
-5.3124175 -3.7963109 -1.015831 0 3
-5.3729396 -3.4559927 -0.81316745 0 4
-36.931084 -23.754881 -0.25521278 9 19
-13.156421 -9.40172 -1.7418264 3 5
-6.0355239 -3.4775937 -0.65023673 0 6
-22.79114 -16.286793 0.65183318 4 24
-39.958488 -23.023582 0.53688681 16 22
-20.54389 -14.680885 -1.7656758 4 8
-6.7328281 -4.3307023 -0.65351951 0 7
-21.177931 -16.755356 0.78590989 3 25
-36.145714 -23.249716 0.75017422 7 23
-21.434658 -16.958469 -1.7516692 8 9
-49.695618 -35.513023 3.557178 46 27
-38.874218 -25.004747 1.883119 10 26
-31.107946 -22.230072 -1.7810253 10 12
-30.266148 -19.46785 -1.8859788 9 11
-56.622143 -36.420601 5.4960079 51 28
-21.285307 -16.840309 -1.1057727 12 13
-7.0140615 -4.0414147 -0.28268594 0 14
-37.341026 -26.684299 -1.0679642 10 16
-2.9797251 -1.9012198 -1.6482112 0 0
-36.986008 -23.599001 -1.2768418 12 15
-5.0148559 -3.5559742 -1.7209692 0 1
-5.1781058 -3.3039012 -1.2284788 195 2
-39.651199 -28.116194 0 16 20
-23.897072 -13.652766 -0.32040921 4 18
-5.3262968 -3.7768135 -1.015831 0 3
-5.385571 -3.436275 -0.81316745 0 4
-37.044876 -23.636562 -0.25539875 9 19
-5.9076328 -4.1890321 -0.78009498 0 5
-5.9721527 -3.411983 -0.64205766 0 6
-36.417561 -25.823259 1.0388389 11 24
-23.844976 -13.623003 0.31971073 6 22
-20.597563 -14.605486 -1.7656758 4 8
-6.5301981 -4.1666069 -0.63236475 0 7
-21.336689 -16.754166 0.7895171 3 25
-36.227318 -23.114918 0.75010449 7 23
-21.524929 -16.901979 -1.7539717 8 9
-49.076244 -34.799381 3.5036902 45 27
-38.945393 -24.84919 1.8821421 10 26
-31.221813 -22.139015 -1.7828866 10 12
-30.320461 -19.346035 -1.884932 9 11
-21.434906 -16.831289 -1.1103319 6 13
-7.0392413 -4.0216269 -0.28310472 0 14
-34.427711 -24.412279 -0.98207676 8 16
-2.9798884 -1.8874488 -1.6448303 0 0
-37.134995 -23.521149 -1.2792853 12 15
-5.0234709 -3.5371072 -1.7198908 0 1
-5.1790929 -3.2804155 -1.2261254 198 2
-39.816174 -28.035213 0 16 20
-5.3194017 -3.745477 -1.0121415 0 3
-5.3466544 -3.3865483 -0.80559129 0 4
-36.690529 -23.239628 -0.25242305 9 19
-5.6873641 -4.0045652 -0.74925101 0 5
-6.0665851 -3.4393005 -0.65098029 0 6
-36.457222 -25.67012 1.037536 11 24
-15.379243 -8.7188816 0.20581436 3 22
-20.645884 -14.537102 -1.7656758 4 8
-6.5035639 -4.1193299 -0.62845922 0 7
-21.474104 -16.747248 0.79254252 3 25
-36.236195 -22.951853 0.74870825 7 23
-21.577713 -16.828051 -1.753716 8 9
-50.252518 -35.383614 3.5792708 46 27
-38.858761 -24.612974 1.8740005 9 26
-31.337528 -22.065262 -1.7853061 10 12
-13.886273 -8.7955065 -0.86144996 2 11
-35.483604 -27.672993 -1.8332933 18 13
-7.0490608 -3.9962909 -0.28296512 0 14
-34.410385 -24.22891 -0.97928512 17 16
-2.9987354 -1.8847525 -1.6515923 0 0
-45.698051 -35.383224 -1.0088189 38 17
-35.236526 -22.146711 -1.2112135 10 15
-5.0231571 -3.5107245 -1.7155776 0 1
-5.1639442 -3.2456203 -1.2198496 144 2
-40.310497 -28.173328 0 17 20
-5.3194838 -3.7178297 -1.0096819 0 3
-5.3517232 -3.3636425 -0.80458117 0 4
-36.690144 -23.060333 -0.25186512 9 19
-5.7078261 -3.9892449 -0.75010777 0 5
-6.0473094 -3.4005353 -0.64763433 0 6
-36.481041 -25.496891 1.0356749 11 24
-15.444446 -8.6847525 0.20628001 3 22
-20.709581 -14.474092 -1.7667919 4 8
-21.611464 -16.733389 0.79545158 3 25
-36.24498 -22.780542 0.74724221 7 23
-21.645786 -16.759964 -1.7544833 8 9
-50.411716 -35.23315 3.5818291 46 27
-38.859837 -24.424019 1.8699298 9 26
-31.45693 -21.985498 -1.7877258 10 12
-13.896596 -8.73423 -0.86019385 2 11
-35.579979 -27.548971 -1.8332933 18 13
-7.0664506 -3.9736211 -0.28310472 0 14
-34.452137 -24.078871 -0.9780755 8 16
-2.9963949 -1.8679945 -1.6465209 0 0
-45.729137 -35.139942 -1.0066549 77 17
-34.893345 -21.753002 -1.1966683 10 15
-5.0296612 -3.4878995 -1.7134211 0 1
-5.1791348 -3.2287455 -1.2206341 188 2
-37.317154 -25.87818 0 15 20
-5.3168364 -3.6870456 -1.0066073 0 3
-5.3606501 -3.3419044 -0.80407614 0 4
-36.978378 -28.415539 0.27104443 19 21
-36.689568 -22.872793 -0.25128394 9 19
-5.6766572 -3.9365692 -0.74411035 0 5
-5.9866829 -3.3376203 -0.63982701 0 6
-36.363945 -25.217163 1.0297197 11 24
-15.388839 -8.5793924 0.2051159 3 22
-20.746101 -14.386718 -1.7653968 4 8
-21.843855 -16.785616 0.8017351 3 25
-36.236603 -22.590406 0.74535733 7 23
-21.713406 -16.685373 -1.754995 8 9
-38.799873 -24.188385 1.8627653 9 26
-31.550438 -21.87916 -1.7884703 10 12
-13.91496 -8.6747808 -0.85935646 2 11
-7.1228685 -3.9710524 -0.28477991 0 14
-34.579594 -23.979776 -0.97919214 8 16
-3.0145779 -1.8662052 -1.6532828 0 0
-45.839302 -34.996109 -1.0066549 38 17
-34.937714 -21.62855 -1.1958537 10 15
-5.0564542 -3.4830072 -1.7188126 0 1
-5.1859174 -3.2103949 -1.2198496 213 2
-5.2990975 -3.6501458 -1.0010731 0 3
-5.357626 -3.3166931 -0.80205578 0 4
-37.127865 -28.345346 0.27148613 19 21
-36.713623 -22.727943 -0.25095844 9 19
-5.6365924 -3.8826203 -0.73725611 0 5
-6.0041075 -3.3226535 -0.64057058 0 6
-36.390293 -25.066507 1.0282308 11 24
-39.363441 -21.783602 0.52375561 16 22
-20.797766 -14.326001 -1.765955 4 8
-22.090336 -16.864914 0.80883318 3 25
-36.171368 -22.392254 0.74256498 7 23
-21.778406 -16.62677 -1.7560184 8 9
-49.561867 -34.139404 3.504853 45 27
-38.770321 -24.001163 1.8577176 9 26
-31.586111 -21.757273 -1.7866092 10 12
-13.921763 -8.6184092 -0.85810035 2 11
-35.92551 -27.427408 -1.8414348 18 13
-7.1527963 -3.9583344 -0.28547788 0 14
-34.681099 -23.889175 -0.97993648 8 16
-3.0062728 -1.8451347 -1.6448303 0 0
-37.154869 -28.140808 -0.81356138 16 17
-34.70359 -21.29973 -1.185032 10 15
-5.0634294 -3.4592204 -1.716656 0 1
-5.1881776 -3.184304 -1.2174962 217 2
-37.364788 -25.526777 0 30 20
-15.262486 -8.3698215 -0.20264798 2 18
-5.3228645 -3.6364605 -1.0029179 0 3
-5.3601766 -3.2898703 -0.80054057 0 4
-37.258747 -28.219484 0.27164885 19 21
-36.769939 -22.567976 -0.25074923 9 19
-5.598918 -3.8250539 -0.73040193 0 5
-6.0098372 -3.2957454 -0.63982701 0 6
-36.436745 -24.892757 1.0268351 11 24
-39.53447 -21.680378 0.52491975 16 22
-20.865799 -14.255041 -1.767071 4 8
-22.269672 -16.866875 0.81302226 3 25
-36.185505 -22.209272 0.741099 7 23
-21.845266 -16.545433 -1.7562742 8 9
-38.862194 -23.852121 1.8577176 9 26
-31.685911 -21.647097 -1.7875396 10 12
-13.947945 -8.5607128 -0.85768169 2 11
-57.460159 -35.266838 5.503819 51 28
-36.03056 -27.289263 -1.8414348 18 13
-6.9786668 -3.8270435 -0.27793959 0 14
-90.858116 -55.765217 19.437128 63 30
-37.486755 -25.610102 -1.0564258 9 16
-3.0306282 -1.8470016 -1.6549731 0 0
-46.958122 -35.334129 -1.0257826 83 17
-34.599621 -21.086571 -1.1792139 10 15
-5.0710845 -3.441134 -1.7155776 0 1
-5.1914563 -3.1639075 -1.2159272 213 2
-37.395145 -25.375582 0 15 20
-5.3179097 -3.6086247 -0.9998433 0 3
-5.3704848 -3.273016 -0.80054057 0 4
-37.385571 -28.131163 0.27192783 19 21
-36.956791 -22.523134 -0.25153965 9 19
-5.5812888 -3.7873485 -0.72654647 0 5
-6.0166626 -3.274946 -0.6394552 0 6
-36.29306 -24.627728 1.0206006 11 24
-20.926987 -14.200625 -1.7684661 4 8
-22.447147 -16.890591 0.81756037 3 25
-36.197037 -22.060108 0.73991227 7 23
-21.893948 -16.474329 -1.7560184 8 9
-7.6249237 -4.1503429 -0.50557697 0 10
-38.766293 -23.625927 1.8495761 9 26
-31.76368 -21.554184 -1.788098 10 12
-13.967947 -8.5126972 -0.85726309 2 11
-57.570663 -35.086159 5.503819 51 28
-36.275784 -27.296093 -1.8495761 19 13
-90.86483 -55.377129 19.401253 63 30
-37.308922 -25.317072 -1.0491676 9 16
-3.0246482 -1.8289071 -1.6482112 0 0
-47.07478 -35.165203 -1.025643 41 17
-34.361664 -20.77739 -1.1686249 9 15
-5.0862608 -3.4255624 -1.716656 0 1
-5.1924 -3.1396766 -1.2135738 213 2
-41.796528 -28.149679 0 18 20
-5.3534226 -3.605494 -1.0041478 0 3
-5.3750868 -3.2501414 -0.79953045 0 4
-37.364979 -27.911913 0.27106768 19 21
-5.604372 -3.7745066 -0.7278316 0 5
-6.0490866 -3.2652731 -0.6416859 0 6
-36.30584 -24.451738 1.0185533 11 24
-15.303583 -8.2608137 0.20246172 18 22
-20.969814 -14.123029 -1.7679081 4 8
-22.589258 -16.874342 0.82058579 4 25
-36.232754 -21.908777 0.73907453 7 23
-21.944927 -16.393021 -1.7555068 8 9
-7.6077409 -4.1066284 -0.50348401 0 10
-90.519676 -60.964394 6.3557582 63 27
-38.807487 -23.465633 1.8476222 9 26
-31.815531 -21.427546 -1.7867951 10 12
-13.973652 -8.4494162 -0.85579765 2 11
-90.573456 -61.00061 13.408066 63 29
-57.303879 -34.649803 5.4667168 51 28
-36.210758 -27.0497 -1.8414348 18 13
-90.805038 -54.906876 19.347443 63 30
-36.737026 -24.742138 -1.0306501 9 16
-3.0126767 -1.8066233 -1.6380684 0 0
-37.365562 -27.69957 -0.81188595 16 17
-34.406723 -20.632809 -1.1675776 9 15
-5.0827675 -3.3961983 -1.7112645 0 1
-5.1937799 -3.114574 -1.2112205 217 2
-36.711044 -24.529545 0 14 20
-5.3928914 -3.6034162 -1.0090669 1 3
-5.3869619 -3.2304201 -0.79953045 0 4
-37.399544 -27.724762 0.27057949 19 21
-5.6479287 -3.7738268 -0.73168707 0 5
-6.0329204 -3.22805 -0.63871169 0 6
-36.278839 -24.240755 1.0152965 10 24
-15.552406 -8.3216658 0.20534873 6 22
-21.034704 -14.054946 -1.7690241 4 8
-22.692707 -16.822395 0.82209855 4 25
-36.213337 -21.71619 0.73705006 7 23
-22.014479 -16.319616 -1.7562742 8 9
-7.6403441 -4.0881381 -0.50464672 0 10
-38.694424 -23.204033 1.8381782 9 26
-31.860624 -21.288597 -1.7849339 10 12
-6.8446765 -4.1045732 -0.41826901 0 11
-90.527283 -54.286842 8.6171494 63 28
-36.550453 -27.095318 -1.853647 19 13
-7.6345296 -4.0850272 -0.30236924 0 14
-90.921288 -54.523117 19.329506 63 30
-36.714413 -24.531796 -1.0274864 9 16
-38.036945 -28.002295 -0.82445168 16 17
-34.258499 -20.389769 -1.1602468 9 15
-5.1036305 -3.3857117 -1.7144994 0 1
-5.183857 -3.0852971 -1.2065136 219 2
-36.715519 -24.35681 0 14 20
-15.601113 -8.2812967 -0.20562811 72 18
-5.3685813 -3.5614781 -1.002303 0 3
-5.3737769 -3.1983325 -0.79599494 0 4
-37.339882 -27.489126 0.26948684 19 21
-34.461472 -20.510572 -0.233081 8 19
-5.6372137 -3.7396867 -0.72868836 0 5
-5.9802709 -3.1744142 -0.6320197 0 6
-36.275715 -24.065046 1.0129702 10 24
-15.590515 -8.2756701 0.20548841 27 22
-21.074545 -13.9807 -1.7684661 4 8
-22.754807 -16.751787 0.82233125 4 25
-36.219856 -21.557117 0.73572367 7 23
-22.078121 -16.25362 -1.7570417 8 9
-7.6644402 -4.0683956 -0.50534439 0 10
-50.17009 -33.282475 3.5062482 45 27
-38.733383 -23.053104 1.836387 9 26
-31.997637 -21.227001 -1.7886565 10 12
-6.8445201 -4.0736804 -0.41743162 0 11
-90.473846 -53.847687 8.5950174 63 28
-36.720562 -27.033192 -1.8577176 19 13
-7.5103269 -3.9865899 -0.29692492 0 14
-90.888557 -54.094509 19.284306 63 30
-36.755569 -24.383379 -1.0263698 9 16
-38.02145 -27.786762 -0.82200837 16 17
-34.116001 -20.14402 -1.1530324 9 15
-5.108984 -3.3636401 -1.7123427 0 1
-5.1979723 -3.0691774 -1.2072982 191 2
-36.820366 -24.241701 0 14 20
-5.3849087 -3.1795549 -0.79599494 0 4
-34.446747 -20.339312 -0.23249981 8 19
-5.6336246 -3.7090518 -0.72654647 0 5
-6.0371318 -3.1776352 -0.6368528 0 6
-36.269318 -23.878902 1.0104578 10 24
-15.629926 -8.2267885 0.20562811 9 22
-21.136553 -13.915831 -1.7695823 4 8
-36.619827 -26.76243 1.3200121 10 25
-36.191566 -21.369551 0.73362941 7 23
-22.118608 -16.164679 -1.7557626 8 9
-7.6927299 -4.049057 -0.50627464 1 10
-50.369347 -33.162048 3.5120623 45 27
-38.686279 -22.842569 1.8303623 9 26
-32.091564 -21.128365 -1.7897731 10 12
-6.851819 -4.045702 -0.41701293 0 11
-36.753395 -26.860046 -1.8546239 19 13
-7.630321 -4.0162082 -0.30111286 0 14
-90.883682 -53.662872 19.243408 63 30
-36.877201 -24.279119 -1.0273933 9 16
-38.074471 -27.611996 -0.82096118 16 17
-34.103348 -19.968336 -1.1501234 9 15
-5.1212778 -3.344892 -1.7123427 0 1
-37.1367 -24.255323 0 14 20
-5.407166 -3.5316157 -1.0047626 2 3
-5.3965259 -3.1597967 -0.79599494 0 4
-37.380207 -27.108509 0.26837096 19 21
-34.262184 -20.061338 -0.23075624 7 19
-5.6205435 -3.6709805 -0.72311932 0 5
-6.0734553 -3.1683807 -0.6394552 0 6
-36.229366 -23.662712 1.0069218 10 24
-21.190754 -13.840449 -1.7698613 4 8
-36.565544 -26.517706 1.3145431 10 25
-36.193718 -21.192299 0.73209357 7 23
-22.197096 -16.097561 -1.7572975 8 9
-7.7287617 -4.0319157 -0.50766999 0 10
-50.637661 -33.073288 3.5222948 46 27
-38.68697 -22.652157 1.8264545 9 26
-32.172131 -21.012785 -1.7899593 10 12
-6.8838363 -4.030653 -0.41805965 0 11
-36.913071 -26.769735 -1.8577176 19 13
-7.6768889 -4.0048547 -0.30236924 0 14
-90.954109 -53.255833 19.216862 63 30
-36.99942 -24.165663 -1.0283239 9 16
-37.35268 -26.890089 -0.80336916 15 17
-33.999973 -19.748762 -1.1443052 9 15
-5.1038318 -3.3081393 -1.702638 0 1
-36.80492 -23.855762 0 14 20
-7.6488028 -3.9562998 -0.10025302 0 18
-5.3796606 -3.4869225 -0.99738371 1 3
-5.3937984 -3.1329687 -0.79397458 0 4
-37.370724 -26.903078 0.267627 19 21
-15.24291 -8.8537903 -0.10245242 1 19
-5.5966134 -3.6275444 -0.71840703 0 5
-6.0349536 -3.1215451 -0.63425034 0 6
-36.231209 -23.483902 1.0046885 10 24
-15.866025 -8.2066107 0.20795631 3 22
-21.242287 -13.768565 -1.7701403 4 8
-36.560535 -26.319824 1.3110522 10 25
-36.125683 -20.983475 0.72923136 7 23
-22.275829 -16.036306 -1.7590884 8 9
-38.651756 -22.450737 1.8210812 9 26
-32.372696 -20.982939 -1.7970321 10 12
-6.9082265 -4.0126185 -0.41868767 0 11
-23.714565 -13.774521 2.2388248 4 28
-37.116577 -26.720116 -1.8632538 19 13
-7.7334294 -4.000072 -0.30404443 0 14
-90.908073 -52.803631 19.168074 63 30
-36.841942 -23.879759 -1.0216241 9 16
-37.355209 -26.694429 -0.80141449 15 17
-5.1315465 -3.3007226 -1.7080296 0 1
-5.2133613 -3.0038731 -1.2033758 0 2
-36.864418 -23.711998 0 14 20
-7.7301884 -3.9642544 -0.10113774 0 18
-5.2521839 -3.378319 -0.97155744 0 3
-5.3909492 -3.1061971 -0.79195434 0 4
-37.321217 -26.670137 0.26660413 18 21
-23.827288 -13.728984 -0.15982765 3 19
-5.6125865 -3.6101377 -0.71883547 0 5
-6.0280933 -3.091373 -0.63239151 0 6
-36.191887 -23.279409 1.0013386 10 24
-41.003452 -21.027702 0.53646773 16 22
-21.340557 -13.72671 -1.7743256 4 8
-36.577366 -26.138575 1.3083758 10 25
-22.383635 -15.995584 -1.7631816 8 9
-23.776772 -13.699877 1.1179849 3 26
-32.445744 -20.869808 -1.7970321 10 12
-6.9914136 -4.0283647 -0.42287454 0 11
-23.762505 -13.691656 2.2388248 4 28
-37.147835 -26.546238 -1.8601601 19 13
-7.8825145 -4.0423713 -0.30934915 0 14
-90.836113 -52.338627 19.114264 63 30
-36.844357 -23.699093 -1.0193908 9 16
-37.740334 -26.781027 -0.80776715 16 17
-23.77968 -13.596715 -0.79719698 4 15
-5.1424646 -3.2836874 -1.7080296 0 1
-5.2198892 -2.9846215 -1.2025913 0 2
-36.986683 -23.617605 0 14 20
-7.7896376 -3.9621716 -0.10174308 0 18
-5.2533655 -3.354502 -0.96971273 0 3
-5.3736629 -3.0725462 -0.78791374 0 4
-39.650497 -28.136503 0.28257528 21 21
-23.862267 -13.643936 -0.1597579 3 19
-5.6010647 -3.5765233 -0.71583676 0 5
-6.0276623 -3.0659492 -0.63127613 0 6
-36.198112 -23.114069 0.99938452 10 24
-41.354595 -21.034868 0.54014629 17 22
-6.7631974 -4.3185954 -0.56112111 0 8
-36.585587 -25.961603 1.3055831 10 25
-23.855564 -13.640103 0.47966194 3 23
-22.433302 -15.91896 -1.7629257 8 9
-23.83942 -13.630873 1.118799 3 26
-13.911811 -8.883296 -0.76888025 1 12
-23.85277 -13.638506 2.2430558 4 28
-34.396702 -24.408342 -1.7183359 16 13
-7.5395651 -3.8349731 -0.29538935 0 14
-37.013748 -23.634888 -1.0219033 9 16
-34.401371 -24.222567 -0.73439729 13 17
-5.1447029 -3.2586329 -1.7047946 0 1
