# .PCD v0.7 - Point Cloud Data file format
VERSION 0.7
FIELDS x y z intensity ring
SIZE 4 4 4 4 2
TYPE F F F F U
COUNT 1 1 1 1 1
WIDTH 1343
HEIGHT 1
VIEWPOINT 0 0 0 1 0 0 0
POINTS 1343
DATA ascii
0.61283553 15.126625 -1.0586243 3 8
1.2438209 13.882025 -1.1378008 1 7
-0.43608558 52.052139 1.5149187 16 25
1.9619519 21.896933 0.38374352 6 23
-0.13246243 15.811007 -1.0133433 2 9
2.4320102 17.481737 -1.027898 2 10
1.6866362 41.631256 2.4264905 12 27
0.78285354 19.323181 -0.90084255 2 12
1.6989759 18.961914 -0.99773276 2 11
-0.17089464 20.398363 -0.8310799 3 13
2.4572308 17.663029 -0.62274665 2 14
0.88676858 21.888117 -0.5097419 9 16
-0.10685705 21.86441 -0.38164926 10 17
2.0393004 21.899948 -0.64010811 7 15
0.63060254 6.7720094 -1.3602697 3 2
0.9639504 21.902802 0 12 20
2.5569534 17.921284 -0.21075018 2 18
0.36007366 8.1815634 -1.274093 3 3
0.91571057 9.8337708 -1.2571265 3 4
-0.10696924 21.887369 0.12721117 14 21
2.0427256 21.936728 -0.12804809 5 19
0.48068944 10.922185 -1.1776392 2 5
1.8220683 12.77059 -1.2041835 2 6
0.98338181 22.344318 0.52044302 3 24
0.66668284 15.148312 -1.0602984 3 8
1.291898 13.87363 -1.1374754 3 7
-0.24740267 50.621964 1.473261 14 25
2.0387406 21.893934 0.38381332 6 23
-0.077352315 15.82734 -1.0143666 2 9
2.4941423 17.48105 -1.0283631 2 10
10.216081 109.70998 4.4890366 45 26
0.85187602 19.356256 -0.90251774 2 12
1.7692249 18.999619 -1.0000356 2 11
-0.09965533 20.390841 -0.83075428 3 13
2.5007989 17.527704 -0.61827952 2 14
0.96368963 21.896875 -0.51002109 11 16
-0.038168173 21.868637 -0.38171905 10 17
2.109247 21.905369 -0.64045721 7 15
0.65187627 6.7699943 -1.3602697 3 2
1.0329502 21.903658 0 9 20
2.5826459 17.703394 -0.20828226 2 18
0.38596362 8.1843395 -1.274708 3 3
0.94698292 9.834795 -1.2576315 3 4
-0.034843296 19.963631 0.11602905 5 21
2.112788 21.942144 -0.12811783 5 19
0.51519072 10.924594 -1.1780677 2 5
1.8650578 12.784507 -1.2060423 2 6
1.0524499 22.31715 0.51988471 3 24
0.71502572 15.162086 -1.0614145 3 8
1.3370093 13.885374 -1.1387773 1 7
-0.088451073 50.678463 1.47489 14 25
2.1079021 21.891401 0.38388312 6 23
-0.027645255 15.839479 -1.0151341 2 9
2.538101 17.39805 -1.0239445 2 10
10.553447 109.60175 4.4859428 45 26
0.91569853 19.417343 -0.9054957 2 12
1.8300593 19.005894 -1.0006636 2 11
2.5391214 17.405045 -0.61423111 2 14
1.032859 21.901724 -0.51020718 7 16
0.034799073 19.940933 -0.34807077 5 17
2.1864877 21.90583 -0.64068991 7 15
0.67589211 6.7715812 -1.3610542 3 2
1.109802 21.907909 0 9 20
2.6065865 17.441103 -0.20530216 2 18
0.41472819 8.1868906 -1.2753229 3 3
0.98051679 9.8235331 -1.2566215 3 4
2.1897602 21.938616 -0.12814108 5 19
0.55372161 10.930673 -1.1789244 2 5
1.9079039 12.766102 -1.204927 2 6
1.1331726 22.369255 0.52118742 3 24
2.6929014 18.01865 0.21210055 3 22
0.76895303 15.179423 -1.0628097 3 8
1.3850714 13.876657 -1.1384518 1 7
0.034908261 20.003502 0.58215976 3 25
2.1846972 21.88789 0.38395295 6 23
0.02766946 15.855448 -1.0161575 2 9
2.5952709 17.365389 -1.0225492 2 10
10.93078 109.51254 4.4838257 45 26
0.98427665 19.429993 -0.90624022 2 12
1.8983706 19.019264 -1.0017103 2 11
0.03484527 19.967407 -0.81349438 18 13
2.5514054 17.071878 -0.60278416 2 14
1.109097 21.893993 -0.51011413 7 16
0.048816744 0.47238961 -0.221452 10 0
2.2633572 21.902042 -0.64080632 7 15
0.27059117 4.9963183 -1.4007136 0 1
0.70033342 6.7769828 -1.3626231 3 2
1.1867064 21.911888 0 12 20
2.6541455 17.344913 -0.20427774 2 18
0.4433054 8.1853933 -1.2753229 4 3
1.0160276 9.8318901 -1.2581366 3 4
0.10425762 19.91139 0.11572684 40 21
2.2671552 21.938795 -0.12818758 5 19
0.59252143 10.940586 -1.1802095 2 5
1.9554695 12.779047 -1.2067858 2 6
1.2110386 22.36117 0.52109438 3 24
2.757601 18.020998 0.21224023 3 22
0.82280159 15.192584 -1.0639257 3 8
1.4363738 13.899495 -1.14073 1 7
2.262737 21.896042 0.38423219 6 23
0.083082072 15.867229 -1.016925 2 9
2.3520539 15.370737 -0.90557349 2 10
1.0529634 19.442396 -0.90698469 2 12
1.967628 19.040333 -1.0031757 2 11
3.5935981 34.774513 2.8539402 8 28
0.10454965 19.967163 -0.81349438 18 13
2.3600459 15.422966 -0.54485095 2 14
3.617461 35.005428 6.4163833 15 30
1.186169 21.901966 -0.51039332 7 16
0.17411685 19.952204 -0.34828022 11 17
2.3402159 21.897985 -0.64092267 7 15
0.28669846 4.972271 -1.3942438 1 1
0.72356695 6.770597 -1.3618386 3 2
1.2631813 21.907614 0 12 20
2.7097206 17.303934 -0.20390522 2 18
0.47232834 8.1916885 -1.2765528 3 3
1.0511823 9.836175 -1.2591467 3 4
0.1738961 19.926907 0.11581983 31 21
2.3445673 21.938704 -0.12823407 5 19
0.63070524 10.938452 -1.1802095 2 5
2.0019107 12.78395 -1.2079011 2 6
1.2881607 22.340837 0.52072215 3 24
0.87674409 15.205554 -1.0650418 3 8
1.4869987 13.914219 -1.1423573 1 7
0.17438368 19.982779 0.58157796 18 25
2.340425 21.899942 0.38444161 6 23
0.13874383 15.898777 -1.0189717 2 9
3.7531037 35.118732 1.4389212 6 26
1.1208194 19.438602 -0.90698469 2 12
2.0361977 19.053211 -1.0042225 2 11
3.7454574 35.04718 2.8773735 8 28
0.17466168 20.014635 -0.81544834 9 13
2.386652 15.24086 -0.53870863 2 14
3.7362778 34.961288 6.4106431 15 30
1.2628394 21.901686 -0.51048636 7 16
0.060069706 0.54410404 -0.25526145 10 0
2.4179618 21.901602 -0.64127171 5 15
0.74719816 6.7680297 -1.3618386 3 2
1.3394072 21.899078 0 9 20
2.3987806 14.976078 -0.17657197 1 18
0.5011633 8.1939335 -1.2771677 3 3
1.0863841 9.8403339 -1.2601569 3 4
0.24409364 19.978172 0.11612204 27 21
2.4228952 21.946289 -0.12832707 5 19
0.66985792 10.952062 -1.1819232 2 5
2.0471563 12.780816 -1.2082731 2 6
1.367852 22.364143 0.52137351 3 24
0.92982024 15.2024 -1.0650418 3 8
1.5368755 13.920831 -1.1433337 1 7
0.24399446 19.970057 0.58122891 15 25
2.4186172 21.907539 0.38472083 6 23
0.19448826 15.918153 -1.0202508 2 9
2.385412 14.892614 -0.87836438 2 10
1.1903788 19.462488 -0.90828753 2 12
2.1044517 19.061865 -1.0050598 2 11
0.24609269 20.141788 -0.82065886 6 13
2.3955851 14.956128 -0.5289368 2 14
1.3397772 21.905128 -0.51067245 7 16
0.058685403 0.51507568 -0.24173766 10 0
0.34349582 21.865973 -0.38171905 10 17
2.4966567 21.912895 -0.64185357 5 15
0.32314453 4.9970551 -1.4017919 4 1
0.77214915 6.7770724 -1.364192 2 2
1.4166111 21.906246 0 12 20
2.4187202 14.770255 -0.17424373 1 18
0.52976072 8.1921349 -1.2771677 3 3
1.1202755 9.8325405 -1.2596519 2 4
0.31432739 20.009193 0.11630803 6 21
2.5012939 21.953596 -0.12842005 5 19
0.70808142 10.949656 -1.1819232 2 5
2.0962598 12.801105 -1.2108754 2 6
1.4459044 22.359234 0.52137351 3 24
0.98493773 15.230918 -1.0672741 1 8
1.5886152 13.94311 -1.1456119 1 7
2.4955223 21.902937 0.38479066 6 23
0.25017384 15.925359 -1.0207624 2 9
2.4322166 14.852672 -0.87650394 2 10
3.6647408 32.165047 1.318916 31 26
1.2608827 19.498089 -0.9101488 2 12
2.1754954 19.094095 -1.0071533 2 11
0.31965929 20.348606 -0.82912594 3 13
2.3670213 14.454547 -0.51148707 2 14
1.4164858 21.904308 -0.51076555 11 16
0.40814671 21.064837 -0.36775711 6 17
2.5774271 21.907566 -0.64196992 5 15
0.34119606 4.9919939 -1.4007136 5 1
0.79606825 6.7664051 -1.3626231 3 2
1.4974428 21.908886 0 9 20
2.4067602 14.366816 -0.16958731 1 18
0.56032383 8.1980228 -1.2783974 3 3
1.1576993 9.8401899 -1.2611672 3 4
0.38805535 20.027903 0.11642427 9 21
2.5840833 21.96414 -0.1285363 5 19
0.74983895 10.970794 -1.1844934 3 5
2.1444831 12.801189 -1.2116189 2 6
1.5273056 22.345802 0.52118742 3 24
1.0413032 15.235167 -1.0678321 3 8
1.6387804 13.929274 -1.1449609 1 7
2.5767238 21.901587 0.38493028 6 23
0.30870035 15.932317 -1.0212741 2 9
2.4226446 14.461636 -0.85394603 2 10
1.3326156 19.49732 -0.91033494 2 12
2.244535 19.078054 -1.0067345 2 11
0.39865705 20.575066 -0.83840722 3 13
1.4975829 21.910934 -0.51104468 9 16
0.058275998 0.48227283 -0.2265234 10 0
0.45603988 20.25178 -0.35358575 3 17
2.6457553 21.895393 -0.64185357 2 15
0.35660151 4.9870553 -1.3996353 5 1
0.8187319 6.7755537 -1.3649765 3 2
1.5674013 21.920034 0 9 20
2.4188924 14.165994 -0.16730566 1 18
0.58607435 8.1962223 -1.2783974 2 3
1.1890814 9.8404436 -1.2616721 3 4
0.44997829 19.982597 0.11616854 9 21
2.6540282 21.963856 -0.12858279 5 19
0.7842989 10.968384 -1.1844934 2 5
2.1900492 12.825798 -1.2145932 2 6
1.6006325 22.384771 0.52221102 3 24
2.628938 15.396105 0.18183373 2 22
1.0894423 15.2358 -1.0681111 1 8
1.6858774 13.951763 -1.1472391 3 7
2.6474316 21.909267 0.3852095 6 23
0.35865855 15.927278 -1.0210183 2 9
2.4196692 14.170544 -0.83720195 2 10
14.675679 121.45106 4.9840369 45 26
1.3947128 19.504993 -0.91089326 2 12
2.3111646 19.126432 -1.0096654 2 11
14.617634 120.97069 9.9472952 63 28
0.46400917 20.605679 -0.83970982 3 13
2.386631 13.977058 -0.49515405 1 14
14.576632 120.63137 22.154207 63 30
1.5661213 21.902136 -0.51095164 11 16
0.52486253 20.178101 -0.35232919 3 17
2.4877591 20.001348 -0.58658153 2 15
0.37400874 4.9857802 -1.3996353 5 1
0.8418957 6.7687621 -1.364192 3 2
1.6448104 21.926394 0 9 20
2.3996315 13.763433 -0.16264923 1 18
0.61557019 8.2059517 -1.2802422 3 3
1.2244059 9.8441076 -1.2626822 3 4
0.51838106 19.928923 0.11586632 8 21
2.7306862 21.954458 -0.12858279 2 19
0.82317895 10.973512 -1.1853503 3 5
2.2341256 12.814151 -1.2142215 2 6
1.6769716 22.355124 0.5216527 3 24
2.61397 14.992804 0.1771773 2 22
1.1447122 15.259759 -1.0700643 1 8
1.7350639 13.94975 -1.1475646 1 7
2.7248864 21.907829 0.38534915 6 23
0.41498378 15.953861 -1.022809 5 9
2.4046512 13.792225 -0.81534171 2 10
15.053689 121.03024 4.968894 45 26
1.465485 19.53587 -0.91256845 2 12
2.3803844 19.138067 -1.010712 2 11
15.031971 120.85563 9.9420891 63 28
0.52554661 20.204399 -0.82342696 3 13
14.999115 120.59147 22.156359 63 30
1.6434679 21.908499 -0.51123083 7 16
2.481792 19.373417 -0.56842905 1 15
0.39197671 4.9805365 -1.3985571 4 1
0.86669731 6.7656312 -1.364192 3 2
1.7242173 21.908258 0 15 20
0.64564055 8.2036409 -1.2802422 3 3
1.262997 9.8592339 -1.2652076 3 4
0.65051067 21.91798 0.12744366 7 21
2.816721 21.987947 -0.12883851 2 19
0.86495101 10.990245 -1.1874921 2 5
2.2859631 12.833323 -1.2168238 2 6
1.7601458 22.364773 0.52202487 3 24
1.2018832 15.271374 -1.0711805 3 8
1.7892169 13.967023 -1.1495173 1 7
1.3855395 46.683674 1.3592261 11 25
2.806684 21.909597 0.38555858 6 23
0.47368824 15.960215 -1.0233207 2 9
2.3998609 13.472741 -0.79696971 2 10
15.49716 120.97426 4.968894 45 26
1.5377002 19.538334 -0.91294068 2 12
2.4525392 19.145063 -1.0115495 2 11
15.482906 120.86299 9.9472952 63 28
0.61215961 20.625801 -0.8406868 3 13
2.3940504 13.440122 -0.47672713 1 14
1.7246919 21.914288 -0.51150995 7 16
0.68236786 20.569551 -0.35924035 37 17
2.4899132 18.912727 -0.5551638 1 15
0.40967658 4.982976 -1.3996353 5 1
0.88979834 6.7586751 -1.3634075 3 2
1.80167 21.914062 0 12 20
0.67492259 8.2092152 -1.281472 3 3
1.2979251 9.8586988 -1.2657127 3 4
0.72675526 21.907581 0.12739716 10 21
2.4888368 18.904551 -0.11082157 1 19
0.90494126 11.006976 -1.1896341 2 5
2.3300369 12.821345 -1.216452 1 6
1.8395194 22.374434 0.5223971 3 24
1.2571487 15.290945 -1.0728546 3 8
1.8379638 13.96069 -1.1495173 1 7
1.5479695 46.662567 1.3587607 11 25
2.8852401 21.915525 0.38583782 6 23
0.53019518 15.982401 -1.0248556 2 9
2.4083221 13.252122 -0.78441173 2 10
1.6081893 19.56072 -0.91424352 2 12
2.5204008 19.144304 -1.0119681 2 11
0.68694156 20.707422 -0.8441062 3 13
2.4052153 13.235024 -0.46974725 1 14
1.8024931 21.924074 -0.51188219 7 16
0.80619514 21.881819 -0.38220772 10 17
2.505033 18.503294 -0.5434112 1 15
0.42859563 4.9891171 -1.4017919 5 1
0.91561508 6.7631426 -1.3649765 2 2
1.8836839 21.92724 0 12 20
0.70398968 8.1948729 -1.2796273 3 3
1.334048 9.8538752 -1.2657127 3 4
0.80689341 21.90077 0.1273739 10 21
2.5103447 18.542528 -0.10875254 1 19
0.94595599 11.01151 -1.1904908 2 5
2.3813698 12.836216 -1.2186826 2 6
1.9245889 22.4034 0.52323455 3 24
1.3179624 15.341894 -1.0767609 3 8
1.8901864 13.961762 -1.1501683 1 7
2.9650035 21.900841 0.38576803 2 23
0.58861947 15.976361 -1.0245999 2 9
2.420455 13.046895 -0.77278394 2 10
1.6846559 19.610432 -0.91684926 2 12
2.5948341 19.166605 -1.0136429 2 11
11.596782 85.659012 7.0565786 57 28
0.76327026 20.716747 -0.84459472 3 13
2.3946409 12.907751 -0.4584398 1 14
16.34271 120.71457 22.210171 63 30
1.8828319 21.917322 -0.51188219 7 16
0.8749308 21.879177 -0.38220772 10 17
2.5016754 18.051764 -0.53037858 1 15
0.44392458 4.9839091 -1.4007136 5 1
0.93739462 6.7641177 -1.3657609 2 2
1.9536214 21.933167 0 15 20
0.73113209 8.2083673 -1.2820868 4 3
1.3660859 9.8574982 -1.2667229 3 4
0.87648773 21.918112 0.12749015 10 21
2.5323424 18.273054 -0.10721818 1 19
0.98054284 11.008484 -1.1904908 2 5
2.4157717 12.797364 -1.2157085 2 6
1.9949573 22.397242 0.52323455 3 24
1.3675669 15.353576 -1.077877 3 8
1.9373202 13.979451 -1.1521211 1 7
1.6664714 41.673035 1.2137735 8 25
0.64039987 16.01432 -1.0271583 2 9
2.3814301 12.615442 -0.74766785 2 10
1.7469608 19.613003 -0.91722155 2 12
2.4411809 17.615246 -0.93199879 2 11
0.8305819 20.770155 -0.84687436 3 13
2.3676984 12.5427 -0.44573638 1 14
16.708338 120.56519 22.192234 63 30
1.9520285 21.915283 -0.51197523 7 16
0.95130384 21.87599 -0.38220772 10 17
2.521914 17.742075 -0.5215351 1 15
0.46061003 4.9746585 -1.3985571 5 1
0.96155393 6.7646875 -1.3665454 2 2
2.0298076 21.922232 0 15 20
0.76051122 8.2136364 -1.2833167 4 3
1.4027228 9.8683815 -1.2687432 3 4
0.95317048 21.918915 0.12751339 10 21
2.5685346 18.070057 -0.10607906 1 19
1.0200666 11.016874 -1.191776 3 5
2.3596065 12.264784 -1.1658905 1 6
2.0742383 22.402088 0.52351373 3 24
2.6870754 13.966905 0.16558278 2 22
1.4215246 15.352682 -1.078156 3 8
1.9911591 14.008126 -1.1550502 1 7
0.69647408 16.015976 -1.0274141 2 9
15.439753 108.62116 4.4698229 45 26
1.8183646 19.638615 -0.91871053 2 12
2.4891682 17.511702 -0.92697448 2 11
0.90464646 20.803066 -0.8483398 3 13
2.4137354 12.546135 -0.44615516 1 14
2.0288897 21.912317 -0.51206827 7 16
1.0282178 21.88452 -0.38241711 10 17
2.5400133 17.432467 -0.51269156 1 15
0.478708 4.9806886 -1.4007136 5 1
0.98459429 6.7574086 -1.3657609 3 2
2.1070788 21.922976 0 12 20
0.78955394 8.2148666 -1.2839316 4 3
1.4383036 9.8712788 -1.2697533 3 4
1.0300467 21.923447 0.1275599 10 21
2.5912206 17.783909 -0.10445172 1 19
1.0600361 11.029082 -1.1934896 2 5
2.3893783 12.19003 -1.1595703 1 6
2.1508884 22.37879 0.5231415 3 24
2.5819395 13.172431 0.15626991 2 22
1.475867 15.35557 -1.0787141 3 8
2.0394666 13.997145 -1.1547247 1 7
0.75293446 16.025408 -1.0281814 2 9
15.81476 108.53892 4.4686832 45 26
1.8899591 19.663965 -0.92019951 2 12
0.97762781 20.807766 -0.84866548 3 13
2.1065085 21.917042 -0.5123474 7 16
1.1047999 21.884794 -0.38248694 7 17
2.5506694 17.087362 -0.50280076 1 15
0.49608988 4.9789877 -1.4007136 5 1
1.0104909 6.7694483 -1.3688989 3 2
2.1855698 21.935389 0 12 20
0.8182227 8.2120609 -1.2839316 3 3
1.4715782 9.8583488 -1.2687432 3 4
1.1063613 21.915722 0.12753664 10 21
2.6261139 17.592777 -0.10338233 1 19
1.1004976 11.045102 -1.1956315 2 5
2.4272344 12.158183 -1.1573396 1 6
2.22978 22.379103 0.52332759 3 24
1.5290601 15.346354 -1.0784351 3 8
2.0936077 14.025429 -1.1576538 3 7
2.7249548 18.25493 0.32217142 1 23
0.81128079 16.070524 -1.0312514 5 9
2.4149005 12.096403 -0.71836579 2 10
1.9605641 19.67713 -0.92113018 2 12
2.5777392 17.268707 -0.91504198 2 11
17.313906 115.98876 9.5736704 63 28
1.0510561 20.820194 -0.84931678 3 13
17.985041 120.48481 22.210886 63 30
2.183789 21.917517 -0.51253355 7 16
1.1811913 21.880802 -0.38248694 7 17
2.6072841 17.058592 -0.50221896 1 15
0.51346809 4.9772248 -1.4007136 5 1
1.0335238 6.762002 -1.3681144 3 2
2.2629523 21.935583 0 12 20
0.84810209 8.2209482 -1.2857764 4 3
1.5077826 9.8649197 -1.2702584 3 4
1.1830764 21.915722 0.1275599 10 21
2.6772389 17.516285 -0.10298712 1 19
1.1386403 11.037236 -1.1952032 2 5
2.4712496 12.157441 -1.1580832 1 6
2.3115835 22.406982 0.52416509 3 24
2.7104876 13.334385 0.15841188 2 22
1.5846711 15.360767 -1.0798302 1 8
2.1431589 14.021976 -1.1579792 1 7
2.7928946 18.27298 0.32266009 1 23
0.8680225 16.079554 -1.032019 5 9
2.4165459 11.888324 -0.70650542 2 10
2.0304737 19.682087 -0.9216885 2 12
2.3640068 15.46691 -0.81999987 2 11
17.732561 116.01825 9.5811558 63 28
1.1250242 20.840343 -0.85029376 3 13
18.434072 120.608 22.245325 63 30
2.2611086 21.917713 -0.51271963 7 16
0.48348281 3.0909908 -1.4588783 0 0
1.2575576 21.876547 -0.38248694 7 17
2.4184189 15.461379 -0.45544142 1 15
0.53124636 4.9792328 -1.4017919 5 1
1.057726 6.762229 -1.3688989 2 2
2.3407764 21.939484 0 9 20
0.87721097 8.2218685 -1.2863913 2 3
1.5434327 9.8674374 -1.2712686 3 4
1.2600236 21.919445 0.12760639 10 21
2.7321811 17.467316 -0.10275464 1 19
1.1775801 11.03715 -1.1956315 2 5
2.5152831 12.156542 -1.1588267 1 6
2.3906281 22.406731 0.52435118 3 24
1.6399705 15.371015 -1.0809463 3 8
2.1945531 14.030166 -1.1592811 1 7
0.92459995 16.084394 -1.0325307 2 9
2.4863451 12.016682 -0.71464491 2 10
3.7462783 35.112885 2.0564935 8 27
2.0991604 19.674881 -0.9216885 2 12
2.4031634 15.363848 -0.81497556 2 11
3.7393963 35.048382 4.3278246 14 29
18.158972 116.09351 9.5925465 63 28
1.1993648 20.86422 -0.85143352 3 13
2.4793208 11.982734 -0.42730945 1 14
18.844599 120.47684 22.23313 63 30
2.3380218 21.913666 -0.51281267 7 16
0.49939474 3.1178348 -1.4724021 0 0
1.3382145 21.879778 -0.38262656 7 17
2.4434497 15.255011 -0.44962329 1 15
0.54822338 4.9657664 -1.3985571 5 1
1.0837429 6.7660527 -1.3704678 2 2
2.4224844 21.942682 0 9 20
0.90820527 8.2264547 -1.2876211 3 3
1.5808412 9.8695498 -1.2722787 3 4
1.3408376 21.922665 0.12765288 10 21
2.795547 17.453234 -0.10273139 1 19
1.2202049 11.052525 -1.1977736 2 5
2.5614619 12.155035 -1.1595703 1 6
2.4692214 22.366022 0.52360678 3 24
2.9740813 14.113058 0.16791099 2 22
1.6976073 15.3768 -1.0817834 3 8
2.2472193 14.029901 -1.159932 1 7
0.98476094 16.100819 -1.0338098 5 9
2.4480269 11.616746 -0.69138926 1 10
3.8745019 35.094948 2.0562611 8 27
2.1721308 19.674999 -0.92206079 2 12
2.3880661 14.909238 -0.79131973 2 11
3.8652081 35.010765 4.3248997 14 29
18.58622 116.03799 9.593523 63 28
1.2794833 20.919523 -0.85387605 3 13
2.503437 11.879686 -0.42395911 1 14
2.4205127 21.924822 -0.51327795 7 16
1.4156187 21.890934 -0.38290578 10 17
2.3674605 14.457238 -0.42635089 1 15
0.56555516 4.9638228 -1.3985571 5 1
1.1060883 6.754487 -1.3688989 3 2
2.4990699 21.934093 0 9 20
0.93781263 8.2310905 -1.288851 3 3
1.6165679 9.8718042 -1.2732888 3 4
1.4181337 21.929827 0.12772264 10 21
2.444052 14.924955 -0.087899387 1 19
1.2592311 11.05215 -1.1982019 2 5
2.7499762 12.827506 -1.2246312 1 6
2.553169 22.408918 0.52481645 3 24
3.0233305 14.102592 0.16791099 2 22
1.7526312 15.382674 -1.0826205 3 8
2.2968271 14.025906 -1.1602575 1 7
1.0422493 16.117201 -1.0350889 2 9
2.5262325 11.783834 -0.70185429 2 10
2.2466815 19.718904 -0.92448032 2 12
2.4246056 14.806204 -0.78629553 2 11
19.007938 116.07471 9.601985 63 28
1.353793 20.93487 -0.85469013 3 13
2.497941 21.924187 -0.51346403 5 16
0.52234727 3.1214232 -1.475783 1 0
1.4920295 21.885859 -0.38290578 10 17
2.4014173 14.350299 -0.42344183 1 15
0.58422816 4.9732947 -1.4017919 5 1
1.1309555 6.7583213 -1.3704678 3 2
2.5765581 21.933184 0 9 20
0.96654087 8.227766 -1.288851 3 3
1.6523292 9.8739271 -1.2742989 3 4
1.4944081 21.92075 0.12769938 10 21
1.2987335 11.055586 -1.1990587 2 5
2.6332471 22.415754 0.52518862 3 24
1.8086478 15.396277 -1.0840156 3 8
2.3431442 14.002073 -1.1589556 1 7
1.0995929 16.129395 -1.0361122 2 9
2.5562947 11.724222 -0.69883108 2 10
2.3192341 19.742691 -0.92596942 2 12
2.382 14.234266 -0.75635934 1 11
19.417633 116.03516 9.6042633 63 28
1.4293133 20.965904 -0.85615563 3 13
20.182055 120.60316 22.294832 63 30
2.5767939 21.93519 -0.51392931 5 16
1.5657448 21.896749 -0.38318503 10 17
2.3823698 13.95207 -0.41192198 1 15
0.60071838 4.9713302 -1.4017919 5 1
1.1553433 6.7661328 -1.3728212 3 2
2.6521623 21.948345 0 9 20
0.99429625 8.2284393 -1.2894659 3 3
1.6850661 9.8683929 -1.2742989 3 4
1.5673834 21.919664 0.12772264 10 21
1.3368224 11.063064 -1.2003437 2 5
2.8527369 12.878481 -1.2313231 2 6
2.7075722 22.406898 0.52518862 3 24
1.8620914 15.410002 -1.0854107 1 8
2.3962784 14.033524 -1.1622102 1 7
1.1550714 16.153532 -1.0379031 2 9
2.5977538 11.727377 -0.69952875 2 10
2.384217 19.730925 -0.92578328 2 12
2.4016271 14.064849 -0.74777621 1 11
19.811739 116.02514 9.60882 63 28
1.499692 20.973007 -0.85664409 3 13
2.6394751 11.915726 -0.42619267 100 14
20.607742 120.68684 22.322813 63 30
2.6524038 21.950344 -0.51448762 2 16
0.54537278 3.1248429 -1.479164 2 0
1.6453854 21.882887 -0.38304543 7 17
2.4169896 13.848715 -0.40912929 1 15
0.61941028 4.9729176 -1.4028703 5 1
1.1794587 6.7579889 -1.3720367 3 2
2.7330787 21.942446 0 9 20
1.024935 8.2286615 -1.2900807 2 3
1.7232687 9.8738766 -1.2758142 2 4
1.6486073 21.925737 0.12779237 10 21
2.3430121 13.424843 -0.07920476 1 19
1.3773592 11.058089 -1.2003437 2 5
2.9086726 12.906792 -1.2350409 2 6
2.7941232 22.432539 0.52602613 3 24
1.9239813 15.44663 -1.08848 1 8
2.4483802 14.028575 -1.1625357 3 7
2.6246157 15.038359 0.26646334 1 23
1.215463 16.165112 -1.0389264 2 9
2.6477396 11.74894 -0.70138919 2 10
15.071164 120.99841 7.1011004 63 27
2.4609587 19.757738 -0.92745841 2 12
15.034717 120.7058 14.935333 63 29
20.22998 115.91247 9.6055651 63 28
1.5783452 20.991283 -0.85762107 3 13
2.6708238 11.851374 -0.42423826 24 14
14.989173 120.34015 32.494213 63 31
2.4965711 20.04365 -0.47000849 2 16
0.558272 3.1372938 -1.4859259 2 0
1.7182512 21.881296 -0.38311523 7 17
2.4278731 13.6438 -0.40331116 1 15
0.63540787 4.9670148 -1.4017919 5 1
1.2039226 6.7656255 -1.3743901 3 2
2.8088686 21.957067 0 6 20
2.8489835 12.449304 -0.14867991 1 18
1.0537195 8.2369785 -1.2919254 3 3
1.7573906 9.8759222 -1.2768244 3 4
1.7213022 21.920151 0.12779237 10 21
2.3524764 13.220096 -0.078042381 1 19
1.4145242 11.057406 -1.2007723 2 5
2.9567852 12.920368 -1.2372715 2 6
2.8669703 22.411249 0.52574694 3 24
1.9756969 15.444122 -1.0887591 1 8
2.4983764 14.040003 -1.164163 3 7
1.2699959 16.172932 -1.0396938 2 9
2.6261089 11.4754 -0.68557543 1 10
15.468249 120.91608 7.0992403 63 27
2.5300095 19.777212 -0.92876124 2 12
15.4369 120.67102 14.937284 63 29
20.656132 116.08025 9.6250925 63 28
1.6510707 21.025778 -0.85924941 3 13
2.7002978 11.799586 -0.4227027 28 14
15.374892 120.1863 32.466263 63 31
2.4726985 19.329208 -0.45344514 1 16
0.56857157 3.1317592 -1.4842354 2 0
1.7965784 21.899084 -0.3835341 7 17
2.4040594 13.241843 -0.39167497 1 15
0.65324318 4.9685864 -1.4028703 5 1
1.2268298 6.7575231 -1.3736056 3 2
2.5319743 19.25827 0 2 20
1.0840095 8.2450075 -1.2937702 3 3
1.793269 9.8775368 -1.2778345 3 4
1.7991111 21.929955 0.12788536 10 21
2.4078948 13.262969 -0.078344598 1 19
1.4541473 11.060287 -1.2016289 2 5
3.0009634 12.906091 -1.2368997 2 6
2.9467416 22.413002 0.52602613 3 24
2.0316722 15.452957 -1.0898751 1 8
2.5537765 14.066503 -1.1670921 3 7
1.3283974 16.19227 -1.0412288 2 9
2.702323 11.621742 -0.69487762 1 10
2.606317 19.823723 -0.93136698 2 12
2.4167657 13.31183 -0.70904762 1 11
15.850756 120.56131 14.930459 63 29
16.73913 92.201096 7.6498885 50 28
1.7254305 21.031837 -0.85973787 3 13
21.897057 120.61156 22.350077 63 30
2.4775984 18.844685 -0.44227883 1 16
0.58082092 3.1368847 -1.4876164 1 0
1.873697 21.900648 -0.3836737 7 17
2.4320724 13.135083 -0.3887659 1 15
0.67006862 4.9624581 -1.4017919 5 1
1.2518406 6.7609129 -1.3751746 3 2
2.4354005 18.036322 0 2 20
1.1122566 8.237257 -1.2931553 3 3
1.8291847 9.8790197 -1.2788446 3 4
1.8759966 21.927526 0.1279086 10 21
2.4505391 13.234818 -0.078228369 1 19
1.4943455 11.066968 -1.2029141 2 5
3.0524075 12.922668 -1.2395022 2 6
3.0265708 22.414467 0.52630526 3 24
2.0893424 15.473452 -1.0918283 1 8
2.6064954 14.077103 -1.1687193 1 7
9.9235411 115.99099 3.388 30 25
1.3852553 16.191513 -1.0414846 2 9
2.7520564 11.651102 -0.69720322 2 10
13.219983 71.398193 2.9582798 39 26
2.6819201 19.86202 -0.93360049 2 12
2.3963139 12.941958 -0.68978798 1 11
21.479816 116.00771 9.6312761 63 28
1.8012251 21.05356 -0.86087763 3 13
2.7890415 11.807683 -0.42367989 6 14
2.4834361 18.392069 -0.43185696 1 16
0.5871883 3.1135669 -1.4774735 2 0
1.9473697 21.906265 -0.38388312 7 17
2.4111488 12.78512 -0.37864241 1 15
0.68652004 4.9602094 -1.4017919 4 1
1.2749791 6.7605791 -1.375959 3 2
1.1406482 8.241353 -1.2943851 2 3
1.8626679 9.8767996 -1.2793498 3 4
1.9490501 21.925169 0.12793185 10 21
2.4810679 13.155867 -0.077809907 1 19
1.5321251 11.069832 -1.203771 2 5
3.0989547 12.927968 -1.2409892 2 6
3.1025238 22.416195 0.52658445 3 24
2.1406395 15.466439 -1.0918283 1 8
2.3598418 12.513065 -1.0395126 1 7
10.056382 113.12582 3.3052664 30 25
1.440351 16.202734 -1.042508 2 9
2.7916062 11.645796 -0.69743574 2 10
16.733318 120.90071 7.108077 63 27
2.441546 17.640532 -0.82955688 1 12
2.3947983 12.698421 -0.67722732 1 11
21.88875 116.06514 9.6420164 63 28
1.8738579 21.079321 -0.86218023 3 13
2.8207247 11.76727 -0.42256311 1 14
2.4841022 17.948008 -0.42162114 1 16
0.60010529 3.1221786 -1.4825449 2 0
2.0238206 21.899334 -0.38388312 7 17
2.3893468 12.431098 -0.36840251 1 15
0.70437068 4.961596 -1.4028703 5 1
1.3007898 6.7676425 -1.3783125 3 2
2.5491097 17.955961 0 19 20
1.1710739 8.2490597 -1.2962298 2 3
1.8993778 9.8819275 -1.2808648 3 4
2.0270393 21.934164 0.12802485 10 21
2.5231977 13.127486 -0.077693671 1 19
1.5707544 11.064415 -1.203771 2 5
3.1468861 12.92868 -1.2421046 2 6
2.2019024 15.510229 -1.0954556 1 8
1.4991013 16.221458 -1.0440429 2 9
2.8312938 11.632099 -0.69720322 2 10
17.164194 120.90481 7.1117983 63 27
13.694319 71.247681 2.9558375 39 26
2.4868176 17.517176 -0.8241592 1 12
2.3855746 12.411472 -0.66236389 2 11
17.130411 120.66683 14.964581 63 29
22.311045 116.07807 9.6495018 63 28
1.9511008 21.11245 -0.86380857 3 13
2.8485448 11.702974 -0.42060876 1 14
17.062517 120.18859 32.527344 63 31
2.5163817 17.725426 -0.41659632 1 16
0.61154532 3.1199579 -1.4825449 1 0
2.1044602 21.89575 -0.38395295 10 17
0.72255236 4.9589815 -1.4028703 5 1
1.3255874 6.7628293 -1.3783125 3 2
2.6154857 17.950457 0 8 20
1.2024423 8.2525358 -1.2974597 2 3
1.9363499 9.8787928 -1.28137 3 4
2.1081893 21.934551 0.12807134 10 21
2.525135 12.882634 -0.076298803 1 19
1.6130199 11.07039 -1.2050561 2 5
3.1932981 12.913194 -1.2417328 2 6
2.7889042 19.140654 0.45009527 2 24
2.2621915 15.525747 -1.0971298 1 8
1.5589317 16.219828 -1.0442988 2 9
2.8691182 11.602261 -0.69604039 2 10
13.93616 71.098953 2.9517665 39 26
2.3941712 12.214488 -0.65231544 1 11
17.584042 120.68182 14.974332 63 29
22.750172 116.06593 9.6553602 63 28
2.0288563 21.109135 -0.86397141 7 13
2.8808658 11.649767 -0.41907316 1 14
23.631163 120.56053 22.399584 63 30
2.5282915 17.35203 -0.40803549 1 16
0.621889 3.1179125 -1.4825449 1 0
2.1794386 21.912529 -0.38437179 10 17
0.73899436 4.9565582 -1.4028703 5 1
1.3480084 6.7583957 -1.3783125 3 2
1.2303872 8.2524118 -1.2980746 3 3
1.9706535 9.8800993 -1.2823801 3 4
2.1821089 21.939379 0.12814108 10 21
2.5905349 12.987947 -0.076972991 1 19
1.6508979 11.072846 -1.2059128 2 5
3.2390125 12.914121 -1.2428482 2 6
2.7898591 18.712049 0.44023168 2 24
2.3148453 15.526053 -1.0976878 1 8
2.408869 12.077144 -1.0053395 1 7
7.5507803 75.917122 2.2203059 30 25
1.6154799 16.242373 -1.0460896 2 9
2.9066088 11.58881 -0.69580787 1 10
14.289143 71.640274 2.976191 39 26
2.5701699 17.238558 -0.81187505 1 12
2.4120073 12.092877 -0.64624447 1 11
23.152124 116.07585 9.6625204 63 28
2.1024113 21.138083 -0.86543685 3 13
2.9311554 11.686678 -0.42074835 1 14
2.5622356 17.185341 -0.40431339 1 16
0.63186765 3.1085074 -1.479164 1 0
2.2601433 21.908373 -0.38444161 7 17
0.75773686 4.957623 -1.4039485 5 1
1.3751125 6.7649417 -1.3806659 2 2
2.6978307 17.651018 0 2 20
1.2618181 8.2556601 -1.2993045 2 3
2.0100121 9.8883648 -1.2844005 2 4
2.2616808 21.923277 0.12809458 10 21
2.6357274 12.966605 -0.076903246 1 19
1.6962754 11.098172 -1.20934 2 5
3.2892699 12.913742 -1.2439635 2 6
2.8203552 18.452656 0.43436936 2 24
2.3711293 15.513519 -1.0974088 1 8
2.4427912 12.017446 -1.0011085 1 7
7.8252716 75.853142 2.2192585 30 25
2.7397337 13.47827 0.24007531 1 23
1.6745876 16.232374 -1.0458338 2 9
2.9549761 11.601296 -0.69720322 2 10
18.479408 120.90469 7.122961 63 27
2.3622708 15.455561 -0.72830516 3 12
23.585323 116.02929 9.6657743 63 28
2.1860199 21.189869 -0.86787933 3 13
2.6173477 17.124445 -0.40310371 1 16
0.6434499 3.109833 -1.4808545 1 0
2.3383064 21.916256 -0.38472083 7 17
0.7750389 4.9549479 -1.4039485 5 1
1.4003096 6.7677822 -1.3822348 3 2
1.2906301 8.2512054 -1.2993045 3 3
2.0469313 9.8929453 -1.2859156 3 4
2.340745 21.939112 0.12823407 10 21
2.6777351 12.941659 -0.076810256 1 19
1.734393 11.088253 -1.2089115 2 5
3.3373196 12.913749 -1.2450788 2 6
2.8791928 18.407143 0.43353191 2 24
2.3654566 15.122744 -1.0703434 1 8
2.4306071 11.747273 -0.97930282 1 7
1.7350541 16.262152 -1.0481362 2 9
3.0104442 11.648906 -0.70069158 2 10
14.760933 71.3405 2.9680495 39 26
18.870798 120.64404 14.993343 63 29
24.016079 116.07119 9.6761894 63 28
2.2646422 21.225824 -0.86967039 3 13
3.0297117 11.72346 -0.42284229 4 14
18.789804 120.12624 32.579109 63 31
0.65430057 3.1075678 -1.4808545 1 0
2.4156661 21.915913 -0.38486049 7 17
0.79293776 4.956017 -1.4050269 5 1
1.4239235 6.7628531 -1.3822348 3 2
1.3206716 8.2544565 -1.3005341 3 3
2.0855372 9.9051542 -1.2884411 3 4
2.4177463 21.934784 0.12825732 10 21
2.7204182 12.92049 -0.076740511 1 19
1.7737139 11.086061 -1.20934 2 5
3.3854043 12.913579 -1.2461942 2 6
2.9484785 18.42857 0.43427631 2 24
2.4005759 15.004071 -1.0625306 1 8
2.4715953 11.738718 -0.97930282 1 7
1.7913685 16.252028 -1.0478804 2 9
3.0429847 11.607424 -0.69883108 2 10
19.318756 120.74602 15.014304 63 29
24.444069 116.09589 9.6853018 63 28
2.3417814 21.245598 -0.87081021 3 13
3.0706136 11.712813 -0.42284229 4 14
25.421614 120.73868 22.496443 63 30
0.66384286 3.1018362 -1.479164 1 0
2.4883244 21.90778 -0.38486049 7 17
2.5445683 11.889612 -0.35385725 1 15
0.80874598 4.9495583 -1.4039485 5 1
1.4471618 6.7619295 -1.3830193 3 2
1.3486729 8.253933 -1.3011491 2 3
2.1192009 9.9020634 -1.288946 3 4
2.4918215 21.93857 0.12832707 10 21
2.7598987 12.895754 -0.076647528 1 19
1.81303 11.095818 -1.2110535 2 5
3.432297 12.917678 -1.2476813 2 6
3.0057011 18.395012 0.433718 2 24
2.4535325 15.015718 -1.0639257 1 8
2.5196843 11.77334 -0.98288292 1 7
3.5421019 16.550632 0.29543436 1 23
1.8484026 16.273762 -1.0496712 2 9
3.0722282 11.562534 -0.69673806 2 10
2.4066014 14.728498 -0.69517499 1 12
2.5087185 11.722102 -0.62824088 1 11
24.844757 116.08826 9.6914864 63 28
2.4144726 21.25757 -0.87162435 3 13
3.1145682 11.721884 -0.42354029 4 14
25.868778 120.87305 22.537338 63 30
0.67597806 3.1029243 -1.4808545 1 0
2.5704622 21.914402 -0.3851397 7 17
2.6094029 11.977873 -0.35676631 1 15
0.8268804 4.9465609 -1.4039485 5 1
1.4727689 6.7604122 -1.3838037 3 2
1.3789141 8.2489347 -1.3011491 3 3
2.1597004 9.9136162 -1.2914715 3 4
2.5745382 21.949152 0.1284433 10 21
2.8139536 12.916817 -0.076833501 1 19
1.8569618 11.10871 -1.2131954 2 5
3.4827271 12.916548 -1.2487966 2 6
3.0750754 18.395704 0.43399712 2 24
2.5032847 14.975139 -1.0616935 1 8
2.5568757 11.736759 -0.98060471 1 7
3.6018839 16.533632 0.29536456 1 23
1.909893 16.282738 -1.0506946 2 9
3.1104252 11.535775 -0.69580787 1 10
20.222279 120.97363 7.1429605 63 27
2.3953447 14.329421 -0.67674869 1 12
25.287865 116.07822 9.6983204 63 28
2.4984171 21.300184 -0.87374115 3 13
3.1491818 11.679514 -0.42242354 4 14
26.359343 120.99659 22.578236 63 30
0.68626487 3.1006656 -1.4808545 1 0
2.6436043 21.909729 -0.3852095 7 17
2.620599 11.840327 -0.35292637 1 15
0.84587145 4.9589796 -1.4082618 4 1
1.4960287 6.7593207 -1.3845882 3 2
1.4055986 8.2404194 -1.3005341 2 3
2.1942809 9.9141464 -1.2924815 3 4
2.6497121 21.960348 0.12855954 10 21
2.8247936 12.762914 -0.075973339 1 19
1.8951302 11.110332 -1.2140522 2 5
3.5328918 12.931821 -1.251399 2 6
3.1394279 18.405113 0.4344624 2 24
2.5583022 14.998223 -1.0639257 1 8
2.5906162 11.70486 -0.978652 1 7
3.6618814 16.545025 0.29578337 1 23
1.96723 16.304056 -1.0524853 2 9
20.63142 120.95313 7.1457515 63 27
20.581093 120.65808 15.028929 63 29
25.682165 116.03654 9.7019005 63 28
2.4172757 20.033957 -0.8221243 3 13
3.1699891 11.603449 -0.42005032 2 14
20.509205 120.23663 32.682636 63 31
0.69867641 3.1053245 -1.4842354 1 0
2.5155008 20.253273 -0.35623851 3 17
2.6750815 11.889619 -0.35467178 1 15
0.8618558 4.9484072 -1.406105 5 1
1.5204767 6.7578835 -1.3853726 3 2
1.4363912 8.2471437 -1.3023789 2 3
2.2297482 9.9102983 -1.2929868 3 4
2.7258646 21.946995 0.1285363 10 21
2.8816228 12.807609 -0.076298803 1 19
1.9339039 11.103648 -1.2140522 2 5
3.5822656 12.934761 -1.2528862 2 6
3.2029738 18.390104 0.43436936 2 24
2.6414545 15.166101 -1.0764819 1 8
2.6340866 11.707414 -0.97962838 1 7
2.0265939 16.316895 -1.0537645 2 9
3.185683 11.502789 -0.69511014 3 10
17.963497 79.840233 3.3340895 43 26
2.6427345 11.74585 -0.63096237 37 11
21.013758 120.652 15.037216 63 29
26.121212 116.09787 9.7145929 63 28
2.458626 19.795353 -0.81268024 3 13
3.2296815 11.661658 -0.42256311 4 14
27.133154 120.59553 22.537338 63 30
0.70789492 3.0957992 -1.4808545 1 0
2.4903941 19.494579 -0.34304449 2 17
2.6880448 11.755483 -0.35094818 1 15
0.87979686 4.9491615 -1.4071834 5 1
1.5458041 6.7601833 -1.3869417 4 2
2.383112 13.405828 0 1 20
1.4658605 8.2459717 -1.3029939 2 3
2.2669795 9.9140606 -1.2945019 3 4
2.8034666 21.945282 0.12858279 7 21
1.9740407 11.104661 -1.2149091 2 5
3.6306212 12.933683 -1.2540015 2 6
2.6820254 15.08732 0.35657743 1 24
3.9650483 14.125042 0.17079799 2 22
2.7732921 15.600726 -1.1080118 1 8
2.667825 11.667058 -0.97702467 1 7
2.08657 16.333481 -1.0552994 2 9
3.2301302 11.506979 -0.69604039 6 10
26.545837 116.0915 9.7217541 63 28
2.5302382 19.806475 -0.81349438 3 13
3.2552407 11.596432 -0.42060876 4 14
0.71705544 3.086247 -1.4774735 1 0
2.4881375 18.950445 -0.33362022 2 17
0.89637882 4.9422698 -1.406105 5 1
1.5702785 6.7585669 -1.3877261 3 2
2.4056196 13.263612 0 1 20
1.4960443 8.2485819 -1.3042237 2 3
2.3042641 9.9176817 -1.2960172 3 4
2.0177572 11.125096 -1.2179078 2 5
3.6790125 12.932423 -1.2551168 2 6
2.6989884 14.881129 0.35192478 1 24
4.0548205 14.253458 0.17252086 2 22
2.8298652 15.60273 -1.1088489 1 8
2.6796603 11.533408 -0.96660995 1 7
2.1456473 16.34193 -1.0563228 2 9
3.2735531 11.507156 -0.69673806 6 10
21.943188 120.98585 7.1608677 63 27
16.826294 72.421318 3.0291104 40 26
2.4037271 13.253178 -0.62742567 1 12
26.971638 116.08744 9.7292385 63 28
3.2935097 11.577308 -0.42032954 1 14
0.7328214 3.1048946 -1.4876164 1 0
2.4997594 18.537363 -0.32649961 2 17
0.91292584 4.9353232 -1.4050269 5 1
1.5938625 6.7530441 -1.3877261 3 2
2.4460864 13.223668 0 1 20
1.5248301 8.243309 -1.3042237 2 3
2.3434293 9.9288874 -1.2985425 3 4
2.0587516 11.129716 -1.219193 2 5
3.728549 12.93481 -1.2566038 2 6
2.4256122 13.112983 -0.93250459 1 8
2.742801 11.620987 -0.97474647 1 7
2.2064166 16.362032 -1.0581136 2 9
3.3192344 11.514845 -0.69790089 4 10
2.3925622 12.934313 -0.6127218 1 12
2.7408133 11.612564 -0.62531006 1 11
22.327299 120.70251 15.071827 63 29
27.406948 116.12063 9.7399788 63 28
2.4120753 17.887127 -0.73533642 2 13
3.3305836 11.554217 -0.41991076 1 14
0.73827755 3.0775113 -1.475783 0 0
2.5127897 18.131924 -0.31951866 2 17
0.93315333 4.9432993 -1.4082618 5 1
1.6204346 6.7547846 -1.389295 3 2
1.5557685 8.2415495 -1.3048387 3 3
2.3807328 9.9240885 -1.2990475 3 4
2.1002707 11.126003 -1.2196213 2 5
3.7848725 12.951637 -1.2595781 2 6
3.9390659 13.47928 0.16348737 2 22
2.3863201 12.641325 -0.89957952 1 8
2.7937486 11.645746 -0.97767562 1 7
2.2658277 16.34988 -1.0578578 2 9
3.364779 11.514099 -0.69859856 4 10
18.10305 75.462593 3.1616535 43 26
2.3977089 12.701656 -0.60211277 1 12
2.7908144 11.633514 -0.62698483 1 11
27.863085 116.14732 9.7507191 63 28
2.440316 17.608965 -0.72426403 2 13
28.927073 120.58255 22.609085 63 30
0.752765 3.092658 -1.4842354 0 0
2.5307398 17.826515 -0.31428295 2 17
0.94881272 4.9363952 -1.4071834 5 1
1.6437516 6.7531853 -1.3900795 3 2
1.5845803 8.2441082 -1.3060684 2 3
2.4183192 9.9354172 -1.3015729 3 4
2.1401548 11.1346 -1.2213348 2 5
3.8300579 12.946654 -1.2603216 2 6
3.9689901 13.416284 0.16288204 2 22
2.8266923 11.613176 -0.97572285 1 7
2.3239574 16.369942 -1.0596486 2 9
3.4074714 11.518195 -0.69952875 4 10
16.477367 85.726921 5.083909 57 27
2.3870201 12.418966 -0.58908403 1 12
2.8255959 11.608672 -0.62614745 1 11
28.252779 116.07365 9.752347 63 28
2.4835248 17.493933 -0.71986759 2 13
3.4621973 11.703184 -0.42619267 2 14
0.76355517 3.0900116 -1.4842354 0 0
2.5318959 17.398058 -0.30688313 2 17
0.96751761 4.9406133 -1.40934 5 1
1.6691949 6.7550216 -1.3916484 2 2
1.6133462 8.2385263 -1.3060684 2 3
2.4529834 9.9269142 -1.3015729 3 4
2.1820636 11.142673 -1.2230483 2 5
3.8809395 12.952283 -1.2621806 2 6
4.0100546 13.383191 0.16264923 2 22
2.397155 12.241034 -0.87223494 1 8
2.874861 11.6342 -0.97832644 1 7
2.7868643 19.150085 0.56319273 1 25
2.3839562 16.381481 -1.0609277 2 9
3.4510927 11.517708 -0.70022643 4 10
16.798746 85.782524 5.0906529 56 27
2.4011736 12.261554 -0.58201128 1 12
2.8641813 11.590981 -0.62572873 1 11
28.685492 116.08656 9.7617846 63 28
2.5180955 17.303228 -0.71237743 2 13
3.5099096 11.714005 -0.42703027 2 14
0.77786535 3.1013927 -1.4909973 0 0
0.98325211 4.9296503 -1.4071834 5 1
1.691812 6.7453499 -1.390864 3 2
1.6436427 8.2405968 -1.3072983 2 3
2.4895535 9.9259901 -1.3025831 3 4
2.6590297 17.834564 0.10480044 2 21
2.2232823 11.146688 -1.2243335 2 5
3.9307575 12.9539 -1.2636677 2 6
2.4031889 12.048671 -0.85912079 1 8
2.89994 11.562224 -0.9731192 1 7
2.8100677 18.847601 0.55458194 1 25
2.4434824 16.388851 -1.061951 2 9
3.4947577 11.517053 -0.7009241 4 10
2.9085143 11.59641 -0.62656611 1 11
24.077192 120.71384 15.11375 63 29
29.138092 116.17521 9.7777319 63 28
2.5425329 17.0532 -0.70244491 2 13
3.5589066 11.728456 -0.42800745 2 14
0.78779304 3.095145 -1.4893068 0 0
0.99968851 4.9224129 -1.406105 5 1
1.7163165 6.7432032 -1.3916484 3 2
2.6534169 13.065283 0 1 20
1.6731865 8.2386818 -1.3079132 2 3
2.5271249 9.9287729 -1.3040982 3 4
2.7182541 17.805401 0.1046842 2 21
2.2653472 11.154449 -1.2260472 2 5
3.9759543 12.940099 -1.2636677 2 6
2.4285576 11.958089 -0.85326117 1 8
2.9629025 11.640891 -0.98060471 1 7
2.8619676 18.746769 0.55190557 1 25
2.3241682 15.224018 -0.98699284 2 9
3.5419784 11.527686 -0.70231944 2 10
30.833691 121.1419 5.0928073 45 26
2.9440522 11.566831 -0.62551939 1 11
29.54937 116.09595 9.779685 63 28
2.337863 15.313723 -0.63112575 1 13
3.5810418 11.654821 -0.42577386 2 14
30.708221 120.64894 22.698771 63 30
1.0176413 4.9226665 -1.4071834 5 1
1.7398397 6.7371721 -1.3916484 3 2
2.6957591 13.040275 0 1 20
1.7027292 8.2366629 -1.3085279 3 3
2.5647373 9.9314194 -1.3056134 3 4
2.7976665 17.906462 0.10533513 2 21
2.3058722 11.154264 -1.2269039 2 5
4.0246396 12.937552 -1.264783 2 6
2.8018916 13.553674 0.32205492 1 24
2.9855676 11.560998 -0.97474647 1 7
2.9224384 18.705065 0.55097473 1 25
2.3514054 15.050168 -0.97624797 2 9
3.6035388 11.583887 -0.70650542 2 10
23.32103 112.81151 6.7087784 63 27
31.256287 121.03356 5.0928073 45 26
2.9844024 11.556486 -0.62551939 1 11
29.998226 116.16198 9.7940054 63 28
2.360446 15.108032 -0.62298429 1 13
3.6193199 11.634618 -0.42549467 2 14
1.0356126 4.9228535 -1.4082618 5 1
1.7643418 6.7348523 -1.3924329 3 2
1.7330997 8.2384052 -1.3097578 2 3
2.6014023 9.9300823 -1.3066236 3 4
2.3456154 11.150039 -1.2273324 2 5
4.0733681 12.934821 -1.2658983 2 6
2.8417797 13.50859 0.32121745 1 24
2.4988327 11.878368 -0.84879673 1 8
3.0319695 11.573646 -0.97669923 1 7
2.9908731 18.714489 0.55155653 1 25
2.3799911 14.892079 -0.96652639 2 9
3.6259634 11.514107 -0.70301712 2 10
3.0297878 11.565318 -0.62656611 1 11
30.415674 116.10283 9.7979107 63 28
3.6539097 11.602849 -0.4247967 1 14
1.0544546 4.9227915 -1.40934 5 1
1.7920368 6.7397127 -1.3947864 3 2
1.7649372 8.239727 -1.3109877 2 3
2.6418569 9.9358215 -1.3086439 2 4
2.3872972 11.145256 -1.2277607 2 5
3.9864132 12.498631 -1.2246312 1 6
2.8904316 13.494173 0.3211244 1 24
7.030993 22.044323 0.26937467 4 22
2.521456 11.771585 -0.84182113 1 8
3.0825617 11.593278 -0.97930282 1 7
2.435843 14.891136 -0.96703809 2 9
3.7069669 11.62248 -0.71045887 2 10
18.259092 68.671043 2.8949394 38 26
3.0731812 11.557998 -0.6267755 1 11
25.864391 120.74963 15.162498 63 29
30.879915 116.13699 9.8102779 63 28
3.7158449 11.650315 -0.42703027 1 14
1.0707747 4.9192677 -1.40934 5 1
1.8143784 6.7337322 -1.3947864 3 2
6.7589908 20.951244 -0.25629011 2 18
1.7947754 8.2454138 -1.3128324 2 3
2.6799552 9.9461622 -1.3111693 2 4
2.4267836 11.148935 -1.2290459 2 5
3.9728169 12.314776 -1.2079011 1 6
2.9309151 13.464977 0.32065913 1 24
2.5655737 11.786553 -0.84349531 1 8
3.1272159 11.606088 -0.98125559 1 7
2.4885018 14.902661 -0.96831721 2 9
3.7516217 11.629125 -0.7116217 2 10
32.628105 121.09322 5.1094155 45 26
2.5461071 11.697122 -0.55762899 1 12
3.1187696 11.574741 -0.62824088 1 11
31.301201 116.16866 9.8216686 63 28
1.0879411 4.9154992 -1.40934 5 1
1.8378744 6.7273569 -1.3947864 3 2
6.8221579 20.897104 -0.25591758 2 18
1.8235487 8.2390976 -1.3128324 3 3
2.7198887 9.955883 -1.3136946 2 4
2.5584586 14.999105 0.088434085 2 21
2.4708457 11.163694 -1.2316163 2 5
3.9799383 12.191038 -1.1971197 1 6
2.9830878 13.478089 0.32121745 1 24
2.6325729 11.894404 -0.85186607 2 8
3.1729665 11.614328 -0.98288292 1 7
3.1866891 18.682142 0.55155653 1 25
2.3767366 13.93375 -0.90589464 1 9
3.7946734 11.623549 -0.71208674 2 10
22.14716 81.067482 3.4238081 41 26
2.5869255 11.688162 -0.55762899 1 12
3.1644208 11.583048 -0.6292876 1 11
31.719156 116.10483 9.8255739 63 28
3.8583376 11.81856 -0.43414974 46 14
1.1050916 4.9116721 -1.40934 5 1
1.8634384 6.7284617 -1.3963553 3 2
6.9414749 21.013687 -0.25764048 2 18
1.8522955 8.2326822 -1.3128324 3 3
2.7546225 9.9463291 -1.3136946 3 4
2.5141613 11.174401 -1.2337581 2 5
4.0087247 12.135473 -1.1930301 1 6
3.0301137 13.467595 0.32121745 1 24
2.6740732 11.885142 -0.85186607 2 8
3.201781 11.56092 -0.97930282 1 7
3.9132545 14.129891 0.25592208 1 23
2.406179 13.815257 -0.89873147 1 9
3.7625751 11.390313 -0.69859856 2 10
16.727283 60.398502 2.5533237 32 26
2.6268294 11.675163 -0.55744284 1 12
3.195236 11.537286 -0.6274035 1 11
32.151886 116.09331 9.8340368 63 28
1.123088 4.9154906 -1.4114966 5 1
1.8867985 6.7260227 -1.3971398 3 2
1.8822255 8.2380562 -1.3146771 3 3
2.7886605 9.9409628 -1.3141998 3 4
2.5529728 11.173759 -1.2346148 2 5
4.0552521 12.141002 -1.1948891 1 6
3.0800991 13.480865 0.32177576 1 24
2.7090249 11.856762 -0.8504709 1 8
3.2519433 11.592464 -0.98288292 1 7
2.3835747 13.422031 -0.87366009 1 9
2.6744287 11.705342 -0.55930412 1 12
3.2442641 11.565089 -0.62949693 1 11
27.606606 120.82759 15.21807 63 29
32.559277 116.06667 9.8408709 63 28
27.469469 120.22737 33.044979 63 31
1.1393698 4.9077883 -1.4104184 4 1
1.9134847 6.7307129 -1.3994931 3 2
7.1560516 21.178148 -0.26024806 28 18
1.9109725 8.2314348 -1.3146771 3 3
2.8276868 9.946434 -1.31622 3 4
2.5955613 11.180273 -1.2363285 2 5
4.1014352 12.138091 -1.1960044 1 6
3.1253321 13.462238 0.32158965 1 24
5.4825926 16.22559 0.19938847 2 22
2.7061834 11.656774 -0.83679867 1 8
3.292392 11.581041 -0.98288292 1 7
2.6831541 14.808511 0.43798709 1 25
3.860606 13.579743 0.24642798 1 23
2.3862906 13.1701 -0.85779858 1 9
3.9282229 11.625473 -0.71464491 2 10
16.818129 72.443398 4.3311248 58 27
2.7053354 11.653121 -0.55725676 1 12
3.2824326 11.546009 -0.62907827 1 11
32.993694 116.05584 9.849659 63 28
2.3813663 13.142922 -0.54417497 1 13
4.0310178 11.929691 -0.43973365 43 14
1.155609 4.9000325 -1.40934 5 1
1.9369662 6.7239928 -1.3994931 3 2
1.9424137 8.2362547 -1.3165219 3 3
2.8634853 9.9403152 -1.3167251 3 4
2.638221 11.186628 -1.238042 4 5
4.1386251 12.108626 -1.1945173 1 6
3.1741378 13.459033 0.32177576 1 24
5.4253573 15.873298 0.19529082 2 22
2.7468541 11.647257 -0.83679867 1 8
3.3327949 11.569479 -0.98288292 1 7
3.8958037 13.523911 0.24566007 1 23
2.3495505 12.714202 -0.82863396 1 9
4.0126877 11.740165 -0.72255182 2 10
2.7459934 11.643607 -0.55725676 1 12
3.3304532 11.561349 -0.63054365 1 11
2.3575032 12.757236 -0.52854335 1 13
4.0713401 11.911767 -0.43959406 13 14
1.1727076 4.8959684 -1.40934 5 1
1.9615263 6.7209558 -1.4002776 2 2
5.5447698 16.03949 -0.19757247 1 18
1.9693128 8.2217369 -1.3152921 3 3
2.9026155 9.9454956 -1.3187454 3 4
2.6809583 14.229399 0.084156513 1 21
2.6763303 11.173483 -1.2376136 2 5
4.4606357 12.903389 -1.2744492 1 6
3.2276235 13.475092 0.32242712 1 24
5.4415321 15.740852 0.19389388 2 22
2.7865677 11.633716 -0.83651966 1 8
3.3642273 11.527158 -0.98027921 1 7
2.6917138 14.286484 0.42309272 1 25
3.9553163 13.552461 0.24642798 1 23
2.366574 12.56078 -0.81916821 1 9
4.0614753 11.748729 -0.72394717 2 10
2.7838314 11.622293 -0.55669838 1 12
3.3797455 11.58033 -0.63221842 1 11
2.3961034 12.717508 -0.52724075 1 13
1.1915542 4.89538 -1.4104184 5 1
1.9872578 6.7174826 -1.4010621 3 2
5.5823865 15.958656 -0.19682744 1 18
2.0013013 8.2221441 -1.3165219 2 3
2.9446743 9.9538155 -1.3212708 2 4
2.7238464 11.190648 -1.2406123 2 5
3.2892821 13.513683 0.3236368 1 24
3.4347253 11.610324 -0.98841572 1 7
2.6753786 13.919217 0.41250378 1 25
2.3666317 12.312897 -0.80356258 1 9
4.0847292 11.677225 -0.72045881 2 10
35.954483 121.53612 5.1636376 45 26
2.8226283 11.596483 -0.55595386 1 12
3.4198983 11.560204 -0.6317997 1 11
29.404917 120.80713 15.26633 63 29
2.4442055 12.716492 -0.52756643 1 13
5.4948888 15.708521 -0.58114642 5 14
35.707699 120.70192 22.949886 63 30
1.2077804 4.8914022 -1.4104184 5 1
2.0095215 6.7108564 -1.4010621 3 2
5.6419396 15.958913 -0.19706027 1 18
2.0313969 8.2269745 -1.3183665 2 3
2.978802 9.9477978 -1.3217758 3 4
2.7609386 11.181555 -1.2406123 2 5
4.5784807 12.950789 -1.2822565 2 6
5.4752941 15.487535 0.19123973 5 22
2.8571911 11.571367 -0.83345038 1 8
3.4823542 11.629425 -0.99101931 1 7
2.3652918 12.089519 -0.78949195 1 9
6.3169098 17.868149 -1.1037112 3 10
36.360729 121.42773 5.1641264 45 26
2.8620234 11.590939 -0.55614001 1 12
3.4627953 11.564107 -0.63263708 1 11
5.5496106 15.697749 -0.58142561 5 14
1.2256991 4.8869433 -1.4104184 5 1
2.0352418 6.7071996 -1.4018465 3 2
3.3465037 13.342731 0 1 20
5.6020613 15.663203 -0.19366108 3 18
2.063458 8.2271433 -1.3195964 2 3
3.018697 9.948205 -1.3232911 2 4
2.6319935 13.195849 0.078205116 1 21
3.9884231 13.143967 -0.079832457 1 19
2.8028677 11.175219 -1.2410407 2 5
4.6299372 12.945172 -1.2833718 2 6
5.4835267 15.331784 0.18956341 5 22
2.9092879 11.599524 -0.83624065 1 8
3.4960117 11.52121 -0.98288292 1 7
2.4009948 12.037706 -0.78667778 1 9
5.4544511 15.250489 -0.94324756 2 10
2.9083726 11.595874 -0.55688447 1 12
3.5144334 11.581919 -0.63431185 1 11
5.4657497 15.28208 -0.56676787 2 14
1.2427515 4.8826342 -1.4104184 5 1
2.0586438 6.7000537 -1.4018465 3 2
2.0950904 8.2313795 -1.3214412 2 3
3.0580685 9.9527769 -1.3253113 4 4
2.7035184 13.312018 0.078949042 1 21
4.0272346 13.10702 -0.079692967 1 19
2.8477483 11.18849 -1.243611 2 5
4.6872888 12.96264 -1.2867178 2 6
5.4839716 15.165856 0.18774739 5 22
2.9664953 11.655033 -0.84098405 1 8
3.5654833 11.604207 -0.99101931 1 7
5.4370451 15.036082 -0.93115461 2 10
2.9547489 11.608883 -0.55800122 1 12
3.5747881 11.63449 -0.63787073 1 11
5.4850802 15.168923 -0.5632779 2 14
1.2589375 4.8784862 -1.4104184 5 1
2.0808525 6.6931891 -1.4018465 3 2
5.6152201 15.36924 -0.19049469 3 18
2.1253402 8.2358685 -1.3232859 2 3
3.0957713 9.957737 -1.3273315 2 4
4.0457435 13.013381 -0.07920476 1 19
2.8878195 11.190537 -1.2448962 2 5
4.7343526 12.958245 -1.2878331 2 6
5.4930601 15.034881 0.18635048 7 22
3.0061285 11.648995 -0.84126306 1 8
3.6335371 11.687494 -0.99915582 1 7
5.451252 14.920447 -0.92510813 5 10
37.73238 121.3685 5.1781292 45 26
5.4187508 14.831491 -0.55141205 2 14
1.2768085 4.8738394 -1.4104184 5 1
2.1065471 6.68926 -1.402631 3 2
5.4829679 14.838315 -0.18416195 3 18
2.1555102 8.2280235 -1.3232859 2 3
3.1322453 9.9463243 -1.3273315 4 4
4.1618938 13.215935 -0.080529884 1 19
2.9308288 11.187574 -1.245753 2 5
4.785954 12.952016 -1.2889484 2 6
5.4968314 14.875833 0.18462759 7 22
3.6464095 11.579033 -0.99101931 1 7
29.960617 95.138794 1.741052 29 23
2.4809046 11.793149 -0.77235126 1 9
5.5086665 14.907862 -0.92557329 5 10
38.150528 121.14554 5.1745472 45 26
3.0306592 11.568647 -0.55707061 3 12
2.4822884 11.799726 -0.49125552 1 13
5.4287329 14.691541 -0.54694492 2 14
1.2929627 4.8695788 -1.4104184 5 1
2.1299069 6.6859756 -1.4034154 3 2
2.1837959 8.2246504 -1.3239008 3 3
3.1676178 9.9434462 -1.3283417 2 4
4.2154064 13.232551 -0.080715865 1 19
2.96893 11.181637 -1.2461814 2 5
