# .PCD v0.7 - Point Cloud Data file format
VERSION 0.7
FIELDS x y z intensity ring
SIZE 4 4 4 4 2
TYPE F F F F U
COUNT 1 1 1 1 1
WIDTH 1345
HEIGHT 1
VIEWPOINT 0 0 0 1 0 0 0
POINTS 1345
DATA ascii
12.217448 16.877745 -0.12109704 6 19
8.3941774 12.876646 -1.6557205 2 5
9.5721159 11.947955 -1.429108 15 6
11.02609 16.913992 0.46982241 14 24
14.034495 17.517916 0.26131907 13 22
10.740718 16.476233 -1.3753186 5 8
11.915321 16.460373 -1.658859 2 7
9.5436401 16.331984 0.55050927 8 25
12.227519 16.891659 0.36398739 6 23
9.4938955 16.246857 -1.2059835 7 9
9.6523972 12.048162 -0.89906186 15 10
11.04749 16.946821 1.1781293 11 27
12.216903 16.876991 0.84882832 12 26
10.788013 16.548784 -0.92019951 9 12
12.179831 16.825779 -1.088588 9 11
10.816778 16.592907 2.432025 20 29
12.445983 17.193455 1.732738 8 28
9.5337172 16.315004 -0.76985615 11 13
10.480181 13.081406 -0.58533436 2 14
12.478396 19.141827 6.1226239 4 31
12.321783 17.021879 3.8313189 28 30
10.77495 16.528744 -0.45912132 3 16
9.5991297 16.296097 -0.33012971 8 17
12.278363 16.837849 -0.60647947 6 15
3.2652354 4.970849 -1.6648974 2 1
4.982553 6.8327899 -1.6913157 0 2
11.10563 16.906715 0 12 20
14.075463 17.44392 -0.26094654 8 18
6.1150208 9.3092356 -1.7328157 0 3
8.096221 11.102696 -1.7490674 4 4
9.6207314 16.332769 0.11017065 8 21
8.4412565 12.850593 -1.6561489 5 5
9.5912533 11.886577 -1.4257622 22 6
11.120189 16.928879 0.47131121 16 24
14.077974 17.447033 0.26099312 9 22
10.833214 16.492002 -1.379783 5 8
11.989146 16.441233 -1.6611371 2 7
9.6330566 16.353693 0.55237108 8 25
9.5809355 16.265209 -1.2098209 7 9
9.6768389 11.992644 -0.897434 15 10
11.152617 16.978247 1.183013 11 27
12.593637 17.270197 0.87081021 9 26
10.885199 16.571142 -0.92354977 9 12
12.287909 16.850939 -1.0929842 9 11
10.922584 16.628054 2.4427493 17 29
12.538806 17.195005 1.7372943 8 28
9.6271181 16.343613 -0.77278709 11 13
12.489983 19.014193 6.0957065 4 31
12.420537 17.032818 3.8435161 23 30
10.858924 16.531143 -0.46023795 3 16
9.6935186 16.319258 -0.3313165 8 17
12.382616 16.850723 -0.60857397 6 15
3.2791805 4.9524236 -1.6627408 1 1
5.007565 6.8144803 -1.6913157 0 2
11.202859 16.919258 0 10 20
14.103984 17.348763 -0.26029462 8 18
6.1578302 9.2999411 -1.7352754 0 3
8.1627092 11.108118 -1.7546233 7 4
9.7030029 16.335224 0.11042637 8 21
12.702671 17.286266 -0.12467719 9 19
8.4883022 12.819565 -1.6561489 2 5
9.6146593 11.826618 -1.4227879 19 6
11.226318 16.954689 0.47317228 14 24
14.10146 17.345659 0.26024806 9 22
10.935447 16.515396 -1.3850845 5 8
9.461935 12.876153 -1.3044354 4 7
9.7215214 16.366402 0.55400014 8 25
12.708055 17.293592 0.37459844 10 23
9.6731081 16.284897 -1.2139143 7 9
9.6955414 11.926109 -0.89510846 13 10
11.247841 16.987194 1.1865013 9 27
12.708923 17.294775 0.87439251 6 26
10.987779 16.594431 -0.92708617 9 12
12.394536 16.866945 -1.0969617 9 11
11.022911 16.647491 2.451524 17 29
12.627717 17.184267 1.7408744 8 28
9.7155352 16.356323 -0.77506667 8 13
12.529729 18.923182 6.0812125 4 31
12.527161 17.047426 3.8571482 23 30
10.961391 16.554579 -0.46200597 3 16
9.7825031 16.34536 -0.33250323 8 17
12.49551 16.886703 -0.61136669 6 15
3.2934494 4.9383168 -1.6616627 1 1
5.0254698 6.7915292 -1.6897466 0 2
11.294417 16.935257 0 10 20
14.128508 17.261652 -0.2596893 8 18
6.1864457 9.2761793 -1.7346605 0 3
8.2254658 11.116074 -1.760179 7 4
9.7920446 16.361301 0.11082157 8 21
12.81703 17.321213 -0.12523513 9 19
8.5307703 12.791344 -1.6561489 2 5
9.6437378 11.782339 -1.4213008 19 6
11.317986 16.970596 0.47466114 14 24
14.120909 17.252369 0.25954962 9 22
11.025582 16.532154 -1.3895489 5 8
9.8085995 16.388962 0.55586195 8 25
12.815295 17.318869 0.37606445 8 23
9.7639608 16.314379 -1.2185191 7 9
9.7274532 11.884619 -0.89441079 18 10
11.346213 17.01292 1.1909198 12 27
12.820887 17.326426 0.87813753 7 26
11.08044 16.61441 -0.93025023 9 12
12.497925 16.889967 -1.1011486 9 11
11.104495 16.65048 2.4573736 21 29
12.705979 17.171137 1.7438035 8 28
9.7943563 16.365164 -0.77702069 8 13
11.394058 17.084661 5.5024929 3 31
12.646827 17.091196 3.8765199 30 30
11.049514 16.568039 -0.46340173 3 16
9.8642759 16.352215 -0.33334094 8 17
12.597379 16.900696 -0.6134612 6 15
3.3106639 4.9267926 -1.6616627 1 1
5.0491409 6.7739491 -1.6897466 1 2
11.402534 16.968777 0 13 20
14.226827 17.258537 -0.26038778 5 18
6.192328 9.2151651 -1.7272816 0 3
8.2926664 11.125477 -1.76624 7 4
9.8862734 16.388681 0.11124004 8 21
12.92043 17.334105 -0.12565358 7 19
8.5797958 12.768095 -1.6570057 2 5
9.6797323 11.742465 -1.4205573 19 6
11.417292 16.99074 0.47633609 17 24
14.229371 17.261623 0.26043433 9 22
11.116595 16.543255 -1.3937343 5 8
9.8946486 16.402563 0.557491 8 25
12.925852 17.341377 0.37753049 8 23
9.8455801 16.321222 -1.2215891 7 9
9.7612505 11.841354 -0.89371312 10 10
11.430018 17.009678 1.193478 12 27
12.92427 17.339254 0.88106847 7 26
11.174014 16.628702 -0.93322825 9 12
12.606925 16.913504 -1.1055448 6 11
11.213467 16.687414 2.4685855 21 29
12.770594 17.133081 1.7444544 8 28
9.8823748 16.382217 -0.77946305 8 13
12.720508 17.065886 3.8808248 30 30
11.149646 16.59244 -0.46516976 4 16
9.9587011 16.37919 -0.33459753 8 17
12.711517 16.930157 -0.6161375 6 15
3.3256836 4.9120154 -1.6605843 1 1
5.0680485 6.7500086 -1.6881778 1 2
11.466187 16.935492 0 7 20
14.343197 17.276466 -0.26141217 8 18
6.2244601 9.1934919 -1.7272816 0 3
8.3576622 11.131364 -1.7717957 7 4
9.9642057 16.388245 0.11147251 8 21
13.0337 17.359264 -0.12616503 10 19
8.6087093 12.715013 -1.654007 2 5
9.7054024 11.690216 -1.4183266 17 6
11.463084 16.930908 0.47577778 7 24
14.353416 17.288776 0.26159844 9 22
11.216784 16.567125 -1.3990359 5 8
9.3953419 12.513424 -1.2774223 6 7
9.9809303 16.415751 0.55912006 8 25
13.03914 17.366508 0.37906629 8 23
9.931531 16.334503 -1.2251707 7 9
9.9428205 11.976187 -0.90650368 5 10
11.446793 16.906845 1.1890594 15 27
13.039915 17.367542 0.88481361 7 26
11.276798 16.655766 -0.93695074 7 12
9.7566471 12.994637 -0.85161078 2 11
11.307267 16.700768 2.4763854 21 29
12.839902 17.101149 1.7457563 8 28
9.9768791 16.409088 -0.78239405 8 13
11.467558 16.937515 5.480752 18 31
12.742202 16.971025 3.8693449 23 30
11.250099 16.616331 -0.46693775 4 16
10.047155 16.395481 -0.33564466 8 17
12.818769 16.949463 -0.61846477 6 15
3.3471498 4.9067416 -1.6627408 1 1
5.0868459 6.7260203 -1.6866088 1 2
11.480148 16.829281 0 7 20
14.467552 17.303011 -0.26257628 8 18
6.2609663 9.1782398 -1.7285115 0 3
8.4227934 11.136936 -1.7773515 7 4
10.058968 16.414757 0.11189097 8 21
13.144881 17.380661 -0.12665324 7 19
8.6597605 12.694743 -1.655292 2 5
9.7487011 11.659325 -1.4186984 19 6
11.490562 16.844547 0.47447503 7 24
14.482945 17.321423 0.26285568 9 22
11.317267 16.590506 -1.4043374 5 8
10.071592 16.435358 0.56098187 8 25
13.143102 17.378307 0.38032284 9 23
10.021856 16.354197 -1.229264 7 9
9.9999294 11.95979 -0.90789902 5 10
11.467481 16.810709 1.1851059 16 27
13.148673 17.385675 0.88807017 7 26
11.373144 16.672417 -0.9401148 7 12
9.7007446 12.826692 -0.84281826 4 11
11.403525 16.716955 2.4846723 17 29
12.918752 17.081665 1.7483599 8 28
10.067505 16.428688 -0.78499925 8 13
11.504835 16.865469 5.4703999 15 31
12.763381 16.876226 3.8578656 29 30
11.346339 16.633123 -0.46851966 4 16
10.136616 16.406178 -0.336622 8 17
12.929279 16.965965 -0.62079197 6 15
3.3607481 4.8880916 -1.6605843 1 1
5.1090884 6.7042112 -1.6858244 1 2
11.505498 16.734348 0 7 20
14.595298 17.326338 -0.26374039 9 18
6.3259163 9.2008257 -1.7371202 0 3
8.4900141 11.140705 -1.7829074 7 4
10.154809 16.435623 0.11228619 8 21
13.264262 17.405535 -0.12718792 10 19
8.6972218 12.649807 -1.6535785 2 5
9.7913723 11.623511 -1.4186984 17 6
11.509182 16.739706 0.47270703 7 24
14.605605 17.338573 0.26392666 9 22
11.416433 16.604807 -1.4090807 5 8
10.169596 16.459557 0.56307638 8 25
13.26974 17.412722 0.38213789 9 23
10.119502 16.378479 -1.233869 7 9
9.9793835 11.846704 -0.90208513 2 10
11.506398 16.735657 1.1827804 19 27
13.268028 17.410477 0.89181519 7 26
11.481717 16.69976 -0.94402343 9 12
11.511959 16.743746 2.4949093 18 29
13.012691 17.07542 1.7525909 8 28
10.161268 16.446077 -0.78760457 8 13
10.461513 12.419047 -0.56704706 2 14
11.562199 16.816816 5.468329 18 31
12.834695 16.84185 3.8607352 35 30
11.452541 16.657326 -0.47038072 4 16
10.231871 16.431807 -0.33787858 8 17
13.04685 16.996853 -0.62358469 7 15
3.3690155 4.8636656 -1.656271 1 1
5.1300693 6.6832252 -1.6850398 2 2
11.561561 16.6908 0 7 20
14.722961 17.354589 -0.26495105 6 18
6.3489904 9.1656942 -1.7346605 0 3
8.5481777 11.136184 -1.786948 7 4
10.245943 16.454407 0.11265814 8 21
13.376082 17.425762 -0.12767613 7 19
8.7345285 12.609567 -1.6522933 2 5
9.839613 11.598377 -1.4198138 17 6
11.578925 16.715868 0.47317228 7 24
14.728138 17.360691 0.26504421 9 22
11.519765 16.630463 -1.4146613 5 8
10.2608 16.478266 0.56493813 8 25
13.386447 17.439264 0.38374352 6 23
10.210368 16.397274 -1.2379622 7 9
10.012923 11.802666 -0.90138745 2 10
11.59885 16.744635 1.1862687 14 27
13.377389 17.427465 0.89507174 7 26
11.576342 16.712139 -0.94700146 7 12
9.6974239 12.633371 -0.83465391 4 11
11.608765 16.758945 2.5031965 18 29
13.120764 17.093145 1.7591001 20 28
10.252411 16.464794 -0.79020977 8 13
11.653828 16.824001 5.4838581 16 31
12.907779 16.815678 3.8650401 35 30
10.317435 16.453796 -0.33899555 8 17
13.14907 17.019062 -0.62591195 7 15
3.3776677 4.8435798 -1.6530362 1 1
5.1342521 6.645349 -1.6795485 1 2
11.652832 16.710175 0 7 20
11.154475 13.064841 -0.19999382 6 18
6.3664479 9.1294937 -1.7315861 0 3
8.6219349 11.159515 -1.7950292 5 4
10.325207 16.46619 0.11296036 8 21
13.482115 17.450129 -0.12816434 7 19
8.7786455 12.588589 -1.6531502 2 5
9.8941021 11.588611 -1.4224161 15 6
11.674838 16.741734 0.47494027 7 24
14.850125 17.393425 0.26625487 9 22
11.608469 16.646559 -1.4191258 5 8
9.4548531 12.237576 -1.2624513 122 7
10.33588 16.483212 0.56621814 8 25
13.497405 17.469919 0.38534915 9 23
10.295758 16.419228 -1.2420554 7 9
10.003279 11.716486 -0.89720148 2 10
11.692509 16.767071 1.1904547 17 27
13.483383 17.451771 0.89849114 7 26
11.66535 16.728127 -0.94997942 7 12
9.6906605 12.542786 -0.83067638 6 11
11.706772 16.787525 2.5129461 18 29
13.220708 17.111784 1.7652837 14 28
10.333809 16.479908 -0.79248941 8 13
11.755241 16.857031 5.5066342 19 31
12.974976 16.79373 3.8693449 35 30
11.681702 16.751575 -0.47521946 6 16
10.400448 16.45825 -0.33983326 8 17
13.267336 17.048788 -0.62870467 7 15
3.3967698 4.8349109 -1.6541145 1 1
5.1598287 6.6304817 -1.6803331 1 2
11.763981 16.744673 0 7 20
11.145254 12.962135 -0.19901597 2 18
6.3619256 9.0554686 -1.7217475 0 3
8.6827707 11.157533 -1.7995749 5 4
10.423224 16.494293 0.11340207 5 21
13.604362 17.481874 -0.12874551 7 19
8.7996759 12.525327 -1.6488663 2 5
9.9578657 11.581181 -1.4257622 6 6
11.779188 16.766319 0.47680131 7 24
14.978554 17.420334 0.26746556 9 22
11.716975 16.677765 -1.4252642 5 8
9.4681339 12.166739 -1.2585458 132 7
10.555689 16.703911 0.57506168 7 25
13.609888 17.488976 0.38681516 6 23
10.387134 16.43718 -1.2461488 7 9
11.796881 16.791502 1.1951058 17 27
13.603134 17.480297 0.90239906 7 26
11.774209 16.759232 -0.9540742 7 12
9.6926832 12.455289 -0.82711756 6 11
11.81095 16.811529 2.5226955 13 29
13.331779 17.131601 1.7721183 11 28
10.425437 16.497793 -0.79509473 9 13
11.337296 13.185484 -0.60725129 2 14
11.847332 16.863314 5.5221634 16 31
13.057691 16.77939 3.8765199 36 30
11.783787 16.772863 -0.47698745 6 16
10.70646 16.799305 -0.34772176 5 17
13.384523 17.063782 -0.63114822 7 15
3.4197633 4.8281178 -1.656271 1 1
5.1828299 6.6075325 -1.6795485 1 2
11.860561 16.745073 0 7 20
11.103271 12.813446 -0.19738622 1 18
6.4194965 9.0632248 -1.7278966 0 3
8.7524891 11.158452 -1.8051306 2 4
10.738007 16.848804 0.11612204 9 21
13.723232 17.495598 -0.12923373 7 19
8.8500061 12.494687 -1.6492946 5 5
11.892023 16.789492 0.47875544 7 24
15.110819 17.438255 0.26862964 9 22
11.824752 16.694517 -1.4305658 5 8
9.4852571 12.09265 -1.2546403 132 7
10.752983 16.872303 0.58227611 15 25
13.736183 17.51211 0.38849056 6 23
10.48021 16.444302 -1.2497305 7 9
11.893585 16.791697 1.1983616 15 27
13.731822 17.50655 0.90646982 7 26
11.877739 16.769325 -0.95723826 7 12
9.7009935 12.36769 -0.82376802 6 11
11.914431 16.821127 2.5309827 18 29
13.456517 17.155567 1.7799294 11 28
10.531671 16.525045 -0.79835129 9 13
11.468999 13.235505 -0.61157876 2 14
11.958897 16.883905 5.5439038 16 31
11.892023 16.789492 -0.47875544 6 16
10.811021 16.846371 -0.34939718 9 17
13.497523 17.09697 -0.63394094 7 15
3.43715 4.820488 -1.6573493 1 1
5.2035608 6.5912189 -1.6795485 1 2
11.966517 16.78264 0 7 20
11.090891 12.718213 -0.19645494 1 18
6.4479356 9.0430145 -1.7278966 0 3
8.8317566 11.186962 -1.814222 2 4
10.829767 16.875582 0.1165405 9 21
13.840088 17.530888 -0.12981491 7 19
8.8961401 12.47654 -1.6505798 5 5
10.080356 11.559405 -1.4317105 1 6
11.977209 16.797636 0.48005819 7 24
15.239132 17.475109 0.26993346 9 22
11.921152 16.719019 -1.4358673 5 8
10.846962 16.902374 0.58448702 13 25
13.853084 17.54735 0.39023581 6 23
10.566311 16.465048 -1.2538236 7 9
10.128051 11.6141 -0.897434 18 10
11.992641 16.819279 1.2030127 15 27
13.843709 17.535475 0.91021484 7 26
11.976752 16.796995 -0.96096075 7 12
9.724946 12.318343 -0.82251197 6 11
12.013312 16.848269 2.5407324 18 29
13.562222 17.178923 1.7867639 9 28
10.615908 16.542334 -0.80079371 9 13
11.539421 13.232554 -0.61311436 5 14
12.065711 16.921757 5.5687509 16 31
15.924994 20.171785 4.685832 8 30
11.986495 16.810659 -0.48043036 6 16
10.902342 16.858904 -0.35044435 6 17
13.614359 17.121725 -0.63661724 7 15
3.4494627 4.8022027 -1.6551927 2 1
5.2167745 6.5607333 -1.6764107 1 2
12.067037 16.799242 0 7 20
11.087714 12.625321 -0.19561677 1 18
6.4564066 8.988349 -1.7217475 0 3
8.8979216 11.190227 -1.8197777 2 4
10.923367 16.891415 0.11691247 9 21
13.958462 17.554478 -0.13034961 7 19
8.9350004 12.438947 -1.6497231 5 5
10.146929 11.55407 -1.4354284 2 6
12.087101 16.827175 0.48210531 7 24
15.363385 17.493929 0.27105099 9 22
12.019019 16.732393 -1.4406106 5 8
9.5255508 11.979548 -1.2494329 20 7
10.951495 16.934912 0.58693063 13 25
13.973995 17.574011 0.39191124 9 23
10.66491 16.491749 -1.2586844 7 9
10.192248 11.605676 -0.89952701 15 10
12.102536 16.848661 1.2081289 15 27
13.959565 17.555864 0.91379714 7 26
12.079608 16.816742 -0.96449715 7 12
9.7330847 12.240546 -0.81958115 6 11
12.11838 16.870718 2.5504818 14 29
13.686622 17.212605 1.7952259 9 28
10.706146 16.555515 -0.80323613 9 13
11.59082 13.198196 -0.61339355 2 14
12.16754 16.939157 5.5884209 13 31
15.948782 20.057549 4.6721997 8 30
12.096434 16.840166 -0.48247755 6 16
11.00915 16.894468 -0.35198015 6 17
13.729016 17.142765 -0.6391772 7 15
3.4662013 4.7901354 -1.6551927 1 1
5.2420917 6.5455489 -1.6771951 1 2
12.165456 16.812117 0 7 20
11.102561 12.553591 -0.19510455 1 18
6.4807854 8.9561558 -1.7199028 0 3
8.9170771 11.134328 -1.8157371 2 4
11.021559 16.913511 0.11733092 9 21
14.037144 17.52751 -0.13051234 7 19
8.9830208 12.414133 -1.6505798 5 5
10.255791 11.596153 -1.4450945 2 6
12.192639 16.849682 0.48396638 7 24
15.694623 17.745806 0.27580056 10 22
12.124126 16.755001 -1.4461912 6 8
9.5423803 11.915113 -1.2461784 20 7
11.03891 16.940138 0.58844334 11 25
14.030244 17.518894 0.39177164 7 23
10.759451 16.511284 -1.2630336 7 9
10.259146 11.599947 -0.90185255 15 10
12.203403 16.864557 1.212315 10 27
14.038238 17.528875 0.91493696 7 26
12.182731 16.835989 -0.96803349 7 12
9.7607622 12.187797 -0.8183251 6 11
12.221406 16.889437 2.5597439 14 29
13.796453 17.226971 1.801735 9 28
10.8075 16.585018 -0.80649269 9 13
11.618274 13.136704 -0.61241639 2 14
12.274148 16.962324 5.6101618 16 31
15.989167 19.964909 4.6635904 8 30
12.187952 16.843204 -0.48378029 6 16
11.106142 16.907478 -0.35309708 6 17
10.550339 13.075174 -0.48895371 3 15
3.4791989 4.7711716 -1.6530362 1 1
5.261126 6.5201831 -1.6756263 1 2
12.337774 16.919308 0 5 20
11.127222 12.488917 -0.19473206 1 18
6.5159025 8.9355307 -1.7205176 0 3
8.9428844 11.083035 -1.8127067 2 4
11.114234 16.919798 0.11765639 9 21
14.068651 17.435465 -0.13021013 7 19
9.0331554 12.387546 -1.6514367 5 5
12.456955 17.082747 0.4919689 7 24
15.977754 17.933033 0.27961883 10 22
12.223083 16.762028 -1.4506557 6 8
9.568471 11.858333 -1.2439002 24 7
11.14045 16.959709 0.59053785 11 25
14.049165 17.411316 0.39051506 7 23
10.859358 16.531786 -1.2676386 7 9
10.33879 11.604001 -0.90510833 15 10
12.580418 17.252054 1.2434775 8 27
14.062246 17.427528 0.91233164 7 26
12.29616 16.86224 -0.97212821 7 12
9.7853088 12.127063 -0.81665033 6 11
12.337039 16.918301 2.5709558 14 29
13.92961 17.263151 1.8108478 9 28
10.903337 16.598738 -0.80909801 9 13
12.379499 16.976528 5.6298323 13 31
12.266108 16.82103 -0.48443165 6 16
11.197452 16.923925 -0.35421404 6 17
10.606241 13.055634 -0.48953551 1 15
3.4836016 4.7440848 -1.6476448 1 1
5.2827168 6.5027013 -1.6756263 1 2
12.661336 17.24263 0 8 20
11.147207 12.42813 -0.19435954 1 18
6.5431571 8.9106894 -1.7199028 0 3
8.954565 11.022522 -1.807656 2 4
11.214417 16.949568 0.11812135 9 21
14.083509 17.335939 -0.12981491 7 19
9.0694742 12.351112 -1.6505798 2 5
10.402984 11.598388 -1.4543889 1 6
12.66501 17.247633 0.49792427 8 24
16.111908 17.963324 0.28092265 10 22
9.5035725 12.942282 -1.1228002 3 8
9.59517 11.811067 -1.2422729 26 7
11.236337 16.982697 0.59263241 11 25
14.074039 17.32428 0.38960752 6 23
10.951558 16.55228 -1.2719877 7 9
10.417206 11.614244 -0.90859669 13 10
12.684825 17.274618 1.2481285 8 27
14.082155 17.334272 0.90988922 7 26
12.39694 16.882566 -0.97566462 7 12
9.8128729 12.079046 -0.81560361 6 11
12.435369 16.9349 2.5797305 14 29
14.039565 17.281847 1.8176824 9 28
10.9936 16.615822 -0.81170326 9 13
12.486034 17.003899 5.6526079 14 31
13.552623 16.682449 3.9188509 24 30
12.366788 16.841505 -0.48619965 6 16
11.300825 16.951292 -0.35561025 6 17
10.682132 13.055671 -0.49093187 1 15
3.4955575 4.7257028 -1.645488 1 1
5.3028979 6.4811869 -1.6748418 1 2
12.764259 17.256216 0 8 20
11.169072 12.365401 -0.19398703 1 18
6.5624666 8.8719091 -1.7168281 0 3
8.9251423 10.908283 -1.7940191 2 4
11.317887 16.976887 0.11858629 9 21
14.136337 17.277391 -0.12974517 7 19
9.1314497 12.34496 -1.654007 2 5
10.512814 11.63885 -1.4640551 2 6
12.777452 17.274052 0.49997142 8 24
16.238853 17.978212 0.28204018 10 22
9.6287642 11.768249 -1.2412965 30 7
11.335466 17.003254 0.59472686 11 25
14.147086 17.290529 0.38995659 6 23
11.046909 16.570417 -1.2763368 7 9
10.500507 11.625226 -0.91231757 13 10
12.806786 17.313707 1.2541751 8 27
14.147635 17.291201 0.91021484 20 26
12.503314 16.903439 -0.9793871 7 12
9.839798 12.026174 -0.81434757 6 11
12.543983 16.958422 2.5899675 14 29
14.173016 17.32222 1.8271208 9 28
11.095868 16.643856 -0.81495982 9 13
10.632472 11.771326 -0.5539248 14 14
12.595859 17.028553 5.6753845 14 31
13.543489 16.552814 3.8994792 30 30
12.477813 16.868965 -0.4882468 6 16
11.397843 16.968176 -0.35679698 6 17
3.509732 4.7103825 -1.6444098 1 1
5.3180079 6.4535546 -1.6724885 1 2
12.867442 17.269287 0 8 20
11.196021 12.308584 -0.19370764 1 18
6.5815907 8.8330984 -1.7137536 0 3
8.9227924 10.828063 -1.7859379 2 4
11.408308 16.983757 0.11891177 9 21
14.252526 17.295847 -0.13025662 7 19
9.157856 12.290684 -1.6510082 2 5
10.641814 11.699306 -1.4763237 2 6
12.887852 17.29668 0.50192553 8 24
16.382254 18.01018 0.2834371 10 22
9.4554157 12.690036 -1.1066166 10 8
9.6621809 11.725332 -1.2403201 30 7
11.408132 16.983494 0.59542507 9 25
14.258227 17.302765 0.39135277 7 23
11.142527 16.588083 -1.2806858 8 9
10.589391 11.641672 -0.91650361 15 10
12.905324 17.320127 1.2578959 8 27
14.246037 17.287973 0.91265738 12 26
12.612383 16.926975 -0.98329574 7 12
9.8740997 11.982501 -0.81371951 6 11
12.655294 16.984568 2.6006918 15 29
14.29425 17.346479 1.8349319 9 28
11.19179 16.661423 -0.81772792 9 13
12.699089 17.043343 5.6950545 14 31
13.608698 16.514544 3.9016314 36 30
12.586801 16.892641 -0.49020088 6 16
11.45771 16.922979 -0.35672718 9 17
3.5315971 4.7036486 -1.6465664 1 1
5.3341079 6.4249678 -1.670135 1 2
12.99309 17.305182 0 9 20
11.216736 12.240925 -0.19328855 1 18
6.6020532 8.7931137 -1.7106791 0 3
8.9522772 10.783076 -1.7839174 2 4
11.450293 16.912022 0.11870254 9 21
14.384804 17.32659 -0.1308843 7 19
9.2076149 12.263399 -1.651865 2 5
10.768032 11.75125 -1.4878488 4 6
12.999178 17.31329 0.50378656 8 24
16.526514 18.035534 0.28478748 10 22
9.4587355 12.59786 -1.1015942 10 8
9.6974487 11.680639 -1.2393438 30 7
11.434432 16.888596 0.59356326 7 25
14.398184 17.342707 0.39344704 7 23
11.250244 16.61655 -1.2860584 8 9
10.677849 11.652833 -0.92045707 13 10
13.035847 17.362129 1.2644075 8 27
14.375676 17.315596 0.91689086 13 26
12.715117 16.934956 -0.98645985 7 12
9.8949842 11.918572 -0.81183547 8 11
12.753214 16.985697 2.6080043 20 29
14.418843 17.36759 1.8427427 9 28
11.288628 16.673244 -0.82033318 9 13
12.763786 16.999777 5.6960897 14 31
13.694267 16.494833 3.9088063 30 30
12.70145 16.916754 -0.49224809 6 16
11.478406 16.826712 -0.35554042 9 17
3.5503197 4.6943641 -1.6476448 1 1
5.3640523 6.4153347 -1.6724885 1 2
13.101679 17.323524 0 9 20
11.243125 12.184058 -0.19300915 1 18
6.6088681 8.7384892 -1.7045299 0 3
9.0000477 10.763937 -1.7859379 2 4
11.464183 16.805861 0.11823758 9 21
14.50165 17.343779 -0.13139576 7 19
9.2431726 12.221665 -1.6505798 5 5
12.045999 13.054125 -1.6581222 1 6
13.117431 17.344353 0.50601983 8 24
16.668036 18.062979 0.28613785 10 22
9.4689598 12.520208 -1.0976878 10 8
9.7356091 11.643659 -1.2390183 30 7
11.459524 16.799032 0.59181786 7 25
14.509947 17.353703 0.39484325 7 23
11.339677 16.623343 -1.2896399 8 9
10.759085 11.659509 -0.92394543 13 10
13.139736 17.373844 1.2685935 8 27
14.48731 17.32663 0.92014748 10 26
9.8433332 13.015219 -0.76013243 1 12
9.926281 11.871699 -0.81099802 10 11
12.79567 16.918907 2.6045918 15 29
14.538203 17.387497 1.8502283 9 28
11.385054 16.689863 -0.82310128 9 13
12.367519 13.402554 -0.63684601 2 14
12.785763 16.905809 5.6795254 14 31
13.764386 16.462023 3.9123936 30 30
12.803847 16.92972 -0.49392298 6 16
11.491107 16.725925 -0.35421404 9 17
3.5588648 4.6733718 -1.6444098 0 1
5.3802433 6.3915105 -1.6709194 1 2
13.209941 17.346813 0 9 20
11.280743 12.143779 -0.1929626 1 18
6.6449909 8.7259607 -1.7063746 0 3
9.0126915 10.706712 -1.7813922 2 4
11.494928 16.731487 0.11798186 9 21
14.6209 17.369038 -0.1319537 8 19
12.089219 13.014108 -1.6581222 1 6
13.220902 17.361208 0.50778782 8 24
16.809504 18.09552 0.28753477 10 22
9.4789953 12.447473 -1.0940605 8 8
9.7741642 11.611311 -1.2390183 30 7
11.501578 16.741167 0.59111971 7 25
14.63695 17.388102 0.3967281 7 23
11.437682 16.648163 -1.2945007 8 9
10.838452 11.667651 -0.92743373 15 10
13.245659 17.393717 1.2732447 8 27
14.619325 17.367165 0.92486954 10 26
9.9681644 11.841775 -0.81120741 8 11
12.813214 16.825846 2.5967922 14 29
14.665098 17.421541 1.8590157 9 28
11.483332 16.714609 -0.82619506 9 13
10.779465 11.604151 -0.55308723 2 14
12.830049 16.847952 5.6743493 17 31
13.831568 16.431341 3.9159811 18 30
12.910792 16.953983 -0.49587712 6 16
11.556249 16.695581 -0.35442346 9 17
3.5821888 4.6700907 -1.6476448 1 1
5.3999844 6.3697009 -1.670135 1 2
13.323968 17.370422 0 9 20
11.314864 12.095568 -0.19282292 3 18
6.6681919 8.693305 -1.7045299 0 3
9.0140867 10.632815 -1.7743212 2 4
11.576025 16.724154 0.11821433 9 21
14.743517 17.391125 -0.13251165 8 19
9.3067799 12.133225 -1.6471528 5 5
12.137293 12.974742 -1.6584941 3 6
13.337399 17.387934 0.50992805 8 24
16.949072 18.118523 0.28883857 11 22
9.4908152 12.373151 -1.0904332 5 8
9.8223686 11.586246 -1.2399946 30 7
11.603181 16.763386 0.59333056 7 25
14.759624 17.410124 0.39840353 7 23
11.53889 16.670504 -1.2993616 8 9
10.925488 11.679325 -0.93138719 13 10
13.364619 17.42342 1.278826 8 27
14.736714 17.383099 0.92845172 15 26
9.7906437 12.764037 -0.7493372 4 12
10.068849 11.876989 -0.81602234 4 11
12.854952 16.758968 2.5933797 19 29
14.779958 17.434109 1.8658502 9 28
11.584824 16.736864 -0.82928884 9 13
10.819904 11.566456 -0.55308723 2 14
12.891129 16.806131 5.6753845 21 31
13.947367 16.452002 3.932483 18 30
13.025869 16.981792 -0.49801731 6 16
11.657294 16.722782 -0.35581964 9 17
3.5953019 4.6551356 -1.6465664 1 1
5.4083471 6.3368402 -1.6662126 1 2
13.427956 17.386288 0 9 20
11.357656 12.060889 -0.19286948 3 18
6.6897368 8.6617575 -1.7026852 0 3
9.0312672 10.581736 -1.7707857 2 4
11.668024 16.738173 0.11858629 9 21
14.871222 17.42428 -0.13313933 8 19
9.3445358 12.099145 -1.6467243 5 5
12.188443 12.943116 -1.6596094 1 6
13.45121 17.416397 0.51206827 8 24
17.099552 18.158306 0.29037517 11 22
9.5000887 12.300552 -1.0868058 1 8
9.8762684 11.571803 -1.2419474 26 7
11.693007 16.774012 0.59507596 7 25
14.887383 17.443216 0.4002884 7 23
11.637483 16.694361 -1.3042222 8 9
11.007962 11.689543 -0.93510813 13 10
13.476027 17.44853 1.2839422 11 27
14.866932 17.419252 0.933011 10 26
9.7767458 12.658763 -0.74505639 3 12
10.113368 11.849608 -0.816441 6 11
12.917742 16.725672 2.5948424 19 29
14.915339 17.475969 1.875614 9 28
11.68369 16.760647 -0.83238262 9 13
12.956239 16.775517 5.6795254 21 31
14.07338 16.489466 3.9525723 18 30
13.135889 17.008125 -0.50006443 6 16
11.759274 16.744169 -0.35714605 9 17
3.6044354 4.6334362 -1.6433314 0 1
5.432992 6.3208957 -1.6669971 1 2
13.552424 17.421394 0 9 20
6.7029457 8.6165152 -1.6983808 0 3
9.0500469 10.529078 -1.7672501 2 4
11.776959 16.769352 0.11909774 9 21
14.997141 17.448095 -0.13372052 8 19
9.3915997 12.07273 -1.6475811 5 5
12.233554 12.900488 -1.6596094 3 6
13.565946 17.438776 0.51411539 8 24
17.223389 18.162354 0.29139963 11 22
9.9373932 11.561442 -1.2445511 18 7
11.795154 16.795258 0.59728688 8 25
15.010752 17.46393 0.40196383 7 23
11.739282 16.7157 -1.309083 8 9
11.089919 11.694507 -0.93859643 16 10
13.593249 17.473875 1.289291 8 27
14.987568 17.436958 0.93675601 15 26
9.7718086 12.561482 -0.7413339 3 12
10.123427 11.777881 -0.8139289 4 11
12.988237 16.696142 2.5972795 19 29
15.030827 17.487286 1.8824487 9 28
11.781179 16.77536 -0.83515066 9 13
13.028956 16.748486 5.6857367 17 31
14.182158 16.499922 3.9669218 18 30
13.249203 17.031609 -0.50211161 7 16
11.859841 16.756458 -0.35833281 9 17
11.463893 13.238951 -0.50966614 1 15
3.6332741 4.6353526 -1.6487229 0 1
5.456121 6.3009415 -1.6669971 1 2
13.660601 17.428276 0 9 20
11.482352 12.019795 -0.19352138 5 18
6.7247281 8.5794477 -1.6959212 0 3
9.0548067 10.456843 -1.7606841 2 4
11.875312 16.778316 0.11946971 9 21
15.131682 17.474657 -0.13434821 8 19
9.4235163 12.022578 -1.6454391 5 5
12.280751 12.855565 -1.6596094 3 6
13.688974 17.464474 0.51634866 9 24
13.894309 14.544647 0.23417205 3 22
9.5361729 12.166306 -1.0809463 7 8
11.900516 16.813925 0.59949774 6 25
15.140105 17.484385 0.40370908 7 23
11.835056 16.721439 -1.3129206 8 9
11.187872 11.711533 -0.94324756 13 10
13.708932 17.489937 1.2941747 12 27
15.119395 17.460466 0.94098961 19 26
9.775877 12.472122 -0.73816973 4 12
10.156065 11.72862 -0.81309152 2 11
13.061588 16.664051 2.5997169 15 29
15.178328 17.528524 1.8928633 9 28
11.893375 16.803837 -0.83873284 10 13
13.154606 16.782724 5.7136893 25 31
14.309508 16.525179 3.9855762 19 30
13.368274 17.055323 -0.50425184 7 16
11.967025 16.783337 -0.35979882 9 17
11.531064 13.222959 -0.51059705 1 15
3.6327257 4.6014776 -1.6411749 0 1
5.4729285 6.2759442 -1.6654282 1 2
13.793236 17.471527 0 9 20
11.568609 12.025761 -0.19426642 5 18
6.7644329 8.5683279 -1.6983808 0 3
9.1095123 10.446106 -1.7642198 2 4
11.980257 16.801895 0.11993466 9 21
15.25569 17.494081 -0.13490616 5 19
9.4703569 11.995851 -1.6462959 5 5
12.31451 12.801136 -1.6581222 1 6
13.799416 17.479355 0.5182097 9 24
17.289137 17.972342 0.29032862 11 22
9.5513887 12.098492 -1.077877 8 8
10.085378 11.565155 -1.2526876 2 7
12.007886 16.840645 0.60194135 6 25
15.269395 17.509798 0.40552413 7 23
11.951295 16.761276 -1.3193161 8 9
11.264677 11.709818 -0.94627076 11 10
13.826815 17.514061 1.2995235 9 27
15.243301 17.479876 0.94489753 19 26
9.7896461 12.400287 -0.73593628 4 12
10.202198 11.699116 -0.81351018 4 11
13.129522 16.630819 2.6016669 15 29
15.304934 17.55055 1.9009997 10 28
11.993731 16.820791 -0.84166378 10 13
13.27536 16.815548 5.7406063 29 31
16.291348 18.681696 4.5193777 8 30
13.482244 17.077602 -0.50629902 7 16
12.066932 16.805288 -0.3611252 9 17
11.55902 13.166622 -0.5098989 1 15
3.6455669 4.586391 -1.6400965 0 1
5.4937091 6.2577615 -1.6654282 1 2
13.895896 17.482058 0 9 20
11.647377 12.027559 -0.19491832 5 18
6.7706733 8.5180044 -1.6928467 0 3
9.1257753 10.394967 -1.7606841 2 4
12.089563 16.836805 0.12046935 9 21
15.37431 17.512533 -0.13544084 5 19
9.5026588 11.955043 -1.6450108 5 5
12.365202 12.768815 -1.6592376 1 6
13.921996 17.514893 0.52062911 9 24
17.337507 17.903421 0.29014239 11 22
9.5641422 12.032393 -1.0748078 8 8
10.194687 11.61254 -1.2614748 2 7
12.110303 16.865688 0.60426861 8 25
15.388058 17.528193 0.40712973 5 23
12.046389 16.776678 -1.3236654 8 9
11.347891 11.718297 -0.94999164 13 10
13.939479 17.536888 1.3046397 9 27
15.361825 17.498312 0.94864255 16 26
9.8058491 12.336477 -0.73407501 3 12
13.20436 16.612055 2.6055667 20 29
15.431431 17.577599 1.9094615 10 28
12.091402 16.839367 -0.84459472 10 13
13.347876 16.792608 5.7478533 32 31
16.270128 18.53294 4.4964185 8 30
13.598517 17.107933 -0.50853223 7 16
12.177083 16.834356 -0.362661 9 17
3.6519246 4.5616107 -1.6357833 0 1
5.5025277 6.2238555 -1.6615058 1 2
14.01433 17.505268 0 9 20
11.736758 12.035511 -0.1957099 5 18
6.800364 8.494319 -1.6928467 0 3
9.1383486 10.336297 -1.7561386 2 4
12.188109 16.849602 0.12086457 9 21
15.861893 17.941231 -0.13918373 9 19
9.5468149 11.924905 -1.6454391 5 5
12.412475 12.728428 -1.6596094 1 6
14.030531 17.525505 0.5223971 9 24
17.461325 17.905792 0.29116678 11 22
9.5786514 11.964671 -1.0717385 8 8
12.274549 16.969099 0.60950488 6 25
12.149323 16.79598 -1.3285261 8 9
11.450058 11.741513 -0.95510793 11 10
14.03305 17.52865 1.307663 18 27
15.817245 17.890732 0.97290415 5 26
9.8238773 12.270984 -0.7322138 4 12
10.297464 11.647361 -0.81476623 17 11
13.267225 16.572062 2.6065416 20 29
15.558705 17.598299 1.917598 10 28
12.206322 16.874779 -0.8485027 10 13
11.666212 11.963169 -0.58351964 2 14
13.435386 16.78211 5.7602768 25 31
16.303438 18.440659 4.4878087 8 30
13.720629 17.138407 -0.5108586 7 16
12.287593 16.862856 -0.36419684 6 17
3.6774969 4.5608287 -1.6400965 0 1
5.5242209 6.2046084 -1.6615058 1 2
14.070331 17.45001 0 9 20
11.834751 12.051541 -0.19664118 3 18
6.8026848 8.4366837 -1.6860826 0 3
9.1796522 10.310259 -1.7571486 2 4
12.555441 17.230438 0.12391001 10 21
15.993582 17.963423 -0.13978817 9 19
9.5858889 11.888411 -1.6450108 5 5
12.456833 12.685019 -1.6596094 1 6
14.071545 17.451517 0.5216527 9 24
17.627419 17.950319 0.29288968 11 22
9.6003218 11.906311 -1.0695063 21 8
10.325878 11.597659 -1.2676586 4 7
16.012691 17.984886 0.42032376 7 23
12.252549 16.814764 -1.3333869 9 9
11.535743 11.747056 -0.95882881 11 10
14.049038 17.423603 1.303477 24 27
16.007172 17.978685 0.98071992 9 26
9.8465891 12.211731 -0.73072475 4 12
10.375248 11.653109 -0.81769705 17 11
13.344931 16.550371 2.6104414 20 29
15.694274 17.627251 1.9267108 10 28
12.305167 16.886974 -0.85127074 10 13
11.615473 11.828246 -0.57891285 2 14
13.506013 16.750145 5.7654533 25 31
16.338928 18.351303 4.4799166 8 30
13.830575 17.152666 -0.51271963 7 16
12.66414 17.24645 -0.37348151 6 17
3.6893299 4.5413404 -1.6379399 0 1
5.5443048 6.1814003 -1.6607213 1 2
14.086268 17.339336 0 9 20
11.932284 12.062112 -0.1975259 3 18
6.8210988 8.3963566 -1.6830082 0 3
9.2226772 10.282454 -1.7581588 2 4
12.67059 17.255236 0.12442145 10 21
16.142103 17.996992 -0.14050883 9 19
9.6319027 11.856285 -1.6454391 2 5
12.508841 12.644942 -1.6603529 1 6
14.100108 17.356373 0.52034998 9 24
17.785912 17.979429 0.29442629 11 22
9.6313133 11.855559 -1.0681111 21 8
10.421554 11.619094 -1.2741678 2 7
12.689106 17.280453 0.62393379 9 25
16.150599 18.006464 0.42220864 8 23
9.5167236 12.960194 -1.030484 5 9
11.637692 11.764316 -0.96371245 11 10
14.082585 17.334805 1.3006864 15 27
16.14234 17.997255 0.98495346 6 26
9.873642 12.153852 -0.72942191 4 12
10.465896 11.668531 -0.82146525 17 11
13.420519 16.51984 2.6133664 20 29
15.827983 17.646776 1.9351727 10 28
12.414287 16.906193 -0.85452729 10 13
11.751519 11.879381 -0.58351964 2 14
13.577056 16.712528 5.7695947 25 31
15.318294 17.078518 4.1828818 7 30
10.635596 13.09177 -0.39249572 3 16
12.764068 17.262241 -0.37473807 6 17
3.7043712 4.5290799 -1.6379399 0 1
5.5621467 6.160069 -1.6599369 1 2
14.113309 17.255373 0 9 20
12.023026 12.073489 -0.19836406 6 18
6.8388982 8.3614502 -1.6805484 0 3
9.2540684 10.248868 -1.7576538 2 4
12.777687 17.280661 0.12490965 10 21
16.266037 18.01461 -0.14106677 9 19
9.6711712 11.824276 -1.6454391 2 5
12.556331 12.609034 -1.6610966 3 6
14.122147 17.266178 0.5190472 9 24
17.932934 18.008204 0.29586977 5 22
9.6579485 11.808109 -1.066716 19 8
10.524153 11.655483 -1.2819787 2 7
12.796268 17.305788 0.6263774 11 25
16.285275 18.035917 0.42416328 8 23
9.4813337 12.822642 -1.0220416 7 9
11.724545 11.773757 -0.96766597 11 10
14.127357 17.272549 1.2995235 18 27
16.287649 18.038548 0.99016398 6 26
9.8987179 12.102483 -0.72830516 4 12
10.539337 11.672301 -0.82418674 14 11
13.492827 16.496754 2.6167786 20 29
15.966575 17.682959 1.9449365 10 28
12.522564 16.935629 -0.85810959 10 13
11.827522 11.877166 -0.58533436 2 14
13.588379 16.613577 5.7509594 10 31
10.701742 13.084285 -0.3933332 1 16
12.876801 17.288149 -0.3762739 7 17
3.7177079 4.5131507 -1.6368617 0 1
5.5809746 6.1377149 -1.6591524 1 2
14.196339 17.233793 0 9 20
12.12457 12.090761 -0.19934192 6 18
6.8353715 8.2978706 -1.6725546 0 3
9.2470732 10.169533 -1.7495726 2 4
12.888102 17.30332 0.12539786 10 21
16.404163 18.04059 -0.14171772 9 19
9.7047977 11.78124 -1.6441541 5 5
12.591805 12.556693 -1.6599811 3 6
14.223007 17.266169 0.52053607 9 24
18.091976 18.041529 0.29745299 11 22
9.6889563 11.76201 -1.0655999 19 8
10.639871 11.70127 -1.2910916 2 7
12.911526 17.334768 0.62905371 11 25
16.423466 18.061821 0.42611796 8 23
11.810812 11.777879 -0.97138679 11 10
14.245955 17.294025 1.3048723 15 27
16.41773 18.055511 0.99423474 6 26
9.9231167 12.046271 -0.72700226 4 12
10.614949 11.673863 -0.82690823 14 11
13.57052 16.474075 2.6206787 20 29
16.097933 17.703814 1.9533985 10 28
12.629349 16.955923 -0.86136615 10 13
13.599607 16.509386 5.7312894 14 31
15.381242 16.915627 4.1685324 21 30
10.777857 13.083892 -0.39444983 1 16
12.988098 17.304806 -0.37767008 7 17
10.829822 11.822814 -0.46661219 6 15
3.721926 4.4846725 -1.6314702 0 1
5.5981364 6.1114326 -1.6575835 1 2
14.313058 17.246281 0 9 20
12.219971 12.096888 -0.20018008 6 18
6.8733144 8.2818851 -1.6743994 0 3
9.3244905 10.179459 -1.7571486 2 4
13.001863 17.323145 0.12588607 10 21
16.55934 18.077675 -0.14248489 9 19
9.7555351 11.754769 -1.6454391 2 5
12.651898 12.524464 -1.6618401 3 6
14.337277 17.275463 0.5223971 9 24
18.260313 18.076391 0.29912928 11 22
9.7116175 11.701851 -1.0633677 19 8
13.025381 17.354479 0.63149732 11 25
16.573307 18.092922 0.42828205 8 23
11.92485 11.80474 -0.97720075 11 10
14.385756 17.333876 1.311849 15 27
16.570192 18.089521 0.99944526 6 26
9.9518948 11.991369 -0.72588551 4 12
10.708934 11.690842 -0.83088571 12 11
13.63842 16.433386 2.6221409 20 29
16.246199 17.735821 1.9634876 10 28
12.741796 16.976643 -0.86478555 10 13
12.020168 11.899097 -0.59063911 13 14
13.669901 16.471319 5.7354302 18 31
15.408589 16.821411 4.1592054 28 30
13.093637 17.325459 -0.37906629 7 17
10.890649 11.810352 -0.46754307 3 15
3.7392457 4.4752622 -1.6325485 0 1
5.6157107 6.089952 -1.656799 1 2
14.441978 17.284672 0 6 20
12.328461 12.123608 -0.20129763 6 18
6.8703275 8.2226524 -1.6670206 0 3
9.3017054 10.087225 -1.7465421 2 4
13.117114 17.356525 0.126444 10 21
16.692406 18.102062 -0.14311257 9 19
9.7919092 11.719305 -1.6450108 5 5
12.699039 12.488028 -1.6625836 5 6
14.473968 17.322958 0.52528173 9 24
18.408562 18.10268 0.30057278 11 22
9.7401323 11.657336 -1.0622516 21 8
10.764544 11.673598 -1.2962989 18 7
13.133481 17.378181 0.63394094 11 25
16.711834 18.123133 0.43030655 8 23
9.5164108 12.592086 -1.0115526 2 9
12.015179 11.815532 -0.98138678 8 10
14.494361 17.347366 1.3165001 15 27
16.711363 18.12262 1.0043302 6 26
9.9711065 11.933775 -0.72439653 4 12
10.782843 11.693443 -0.8336072 14 11
13.70811 16.406353 2.6250658 15 29
16.380592 17.763916 1.9726005 10 28
12.846213 16.99807 -0.86804217 10 13
12.122266 11.920838 -0.59371024 13 14
13.736829 16.440723 5.7406063 14 31
15.480289 16.787582 4.1635103 21 30
13.197634 17.336931 -0.38032284 7 17
12.422753 13.377843 -0.53130949 1 15
3.7598038 4.4680772 -1.6347049 0 1
5.6396031 6.0731888 -1.6575835 1 2
14.564033 17.307611 0 9 20
12.433657 12.141979 -0.20232204 6 18
6.8913522 8.1895485 -1.6651758 0 3
9.3584585 10.077958 -1.7505827 2 4
13.226072 17.374289 0.12690896 10 21
16.842587 18.137482 -0.1438565 9 19
9.8404369 11.694183 -1.6462959 5 5
12.728302 12.429712 -1.6607246 3 6
14.588414 17.336586 0.52723581 9 24
18.577513 18.14171 0.30229566 11 22
9.7807627 11.623267 -1.0622516 21 8
10.854055 11.68854 -1.3021572 21 7
13.244916 17.399044 0.63638455 11 25
16.853912 18.149679 0.43233103 8 23
9.5192003 12.504797 -1.0072035 2 9
12.116343 11.83211 -0.98627043 11 10
14.611386 17.363886 1.3216163 15 27
16.858826 18.154972 1.0093778 6 26
10.0127 11.898897 -0.72439653 4 12
10.861647 11.696715 -0.83653802 15 11
13.78063 16.376633 2.6279907 15 29
16.518456 17.788433 1.9817132 10 28
12.961144 17.02627 -0.87178719 10 13
12.215282 11.928728 -0.59622306 10 14
13.801595 16.401545 5.7437124 14 31
15.608411 16.808422 4.1821647 21 30
13.301878 17.347879 -0.3815794 3 17
12.455724 13.319793 -0.53072774 1 15
3.7654171 4.4431705 -1.6303918 0 1
5.6554108 6.0477338 -1.6560146 1 2
14.689015 17.332954 0 10 20
12.564979 12.184819 -0.20376554 2 18
6.9275651 8.1744871 -1.6670206 0 3
9.4017124 10.053921 -1.752098 2 4
13.342623 17.401018 0.12744366 10 21
16.982294 18.160378 -0.14450742 9 19
9.8709154 11.647624 -1.6445824 5 5
12.777333 12.39075 -1.6614684 3 6
14.71348 17.361822 0.52956218 9 24
18.723999 18.157497 0.30364603 6 22
9.8290176 11.598186 -1.0630887 19 8
10.943806 11.702991 -1.3080153 17 7
13.366396 17.432022 0.63929361 11 25
17.001848 18.181288 0.43449512 8 23
12.223507 11.85368 -0.99161929 11 10
14.741619 17.395027 1.3278953 12 27
17.006723 18.186502 1.0144255 6 26
10.046427 11.854727 -0.72383815 4 12
10.932423 11.690819 -0.83884072 18 11
13.853117 16.3466 2.6309156 15 29
16.667587 17.823839 1.9921279 10 28
13.064277 17.038008 -0.87471813 7 13
12.311375 11.938889 -0.5988754 7 14
13.886245 16.385691 5.7551007 14 31
15.742248 16.834307 4.2022538 21 30
13.410657 17.370159 -0.38304543 3 17
12.48886 13.266773 -0.53026223 1 15
3.7801294 4.4306602 -1.6303918 0 1
5.6673679 6.02038 -1.6536611 1 2
14.811314 17.360226 0 10 20
19.533051 18.816792 -0.31575274 4 18
6.9520669 8.1484642 -1.6664054 0 3
9.4023619 9.9880209 -1.7460371 2 4
13.451583 17.423168 0.12793185 10 21
17.121931 18.188431 -0.14518161 9 19
9.9249706 11.632982 -1.6471528 5 5
12.801141 12.331734 -1.6592376 3 6
14.825474 17.376823 0.53151625 9 24
19.501368 18.786268 0.31524056 6 22
9.8829613 11.583742 -1.0647628 21 8
11.023543 11.710184 -1.3128973 17 7
13.472995 17.450903 0.64162087 11 25
17.138802 18.206352 0.4364498 8 23
9.4870033 12.288046 -0.99492359 6 9
12.311637 11.86018 -0.99557263 11 10
14.861422 17.418957 1.3334767 12 27
17.143641 18.211493 1.0189848 9 26
10.077901 11.812229 -0.72327977 4 12
11.020413 11.706859 -0.84260899 18 11
13.961356 16.363998 2.6411526 15 29
16.80858 17.855562 2.0018916 10 28
10.067673 13.040157 -0.67118174 2 13
12.408476 11.953468 -0.60166734 7 14
13.990657 16.39834 5.7758064 10 31
15.878901 16.867975 4.2237778 21 30
13.523339 17.384026 -0.38444161 3 17
3.7938316 4.4138551 -1.6293135 0 1
5.6866961 5.9967232 -1.6528766 1 2
14.934808 17.375595 0 6 20
19.668369 18.808657 -0.31682375 4 18
6.9715791 8.11094 -1.6639459 0 3
9.4225216 9.9362183 -1.7430067 2 4
13.576747 17.452679 0.12851305 10 21
17.227009 18.166189 -0.14550708 6 19
9.9597616 11.587481 -1.6458676 5 5
12.592951 12.042507 -1.6265212 1 6
14.964652 17.410316 0.53421474 9 24
19.682823 18.822477 0.31705657 6 22
9.9331522 11.556521 -1.0655999 19 8
11.118506 11.724665 -1.3190808 17 7
13.59578 17.477146 0.64441347 9 25
13.847989 14.602953 0.35128203 1 23
9.522171 12.240591 -0.99390024 2 9
12.409854 11.867414 -0.99999124 11 10
14.992839 17.44311 1.3395231 12 27
17.251522 18.192039 1.0214272 6 26
10.121124 11.775214 -0.72327977 4 12
11.096228 11.701172 -0.84512109 15 11
14.072995 16.372936 2.6509023 15 29
13.880991 14.637753 1.6468171 5 28
10.024597 12.886451 -0.66515702 2 13
12.518651 11.971456 -0.60487807 8 14
14.116143 16.423136 5.8027234 11 31
16.544447 17.446415 4.3837748 15 30
13.632706 17.405201 -0.38590762 3 17
3.8109694 4.4041624 -1.6303918 0 1
5.6984267 5.9693189 -1.6505232 1 2
15.065636 17.410664 0 10 20
6.9880948 8.0758209 -1.6614863 0 3
9.469121 9.9192648 -1.7455319 2 4
13.683882 17.470539 0.128978 11 21
17.240204 18.059771 -0.14511187 3 19
10.005943 11.563409 -1.6471528 5 5
12.577958 11.948563 -1.6194576 1 6
15.087727 17.436193 0.5365411 9 24
10.000145 11.556708 -1.0686692 17 8
11.204128 11.736751 -1.3246137 14 7
13.702975 17.494915 0.64674073 9 25
17.226826 18.045755 0.43547246 5 23
9.5774822 12.227799 -0.99543524 2 9
12.501256 11.875698 -1.0041772 8 10
15.131606 17.486902 1.3467324 16 27
13.903497 14.564443 0.82033318 2 26
10.16535 11.747628 -0.72365206 4 12
11.179103 11.710536 -0.84847057 15 11
14.194761 16.404234 2.6635766 15 29
17.131031 17.945408 2.0253246 7 28
9.9982748 12.765036 -0.6605978 2 13
12.624945 11.993198 -0.60808885 8 14
14.24132 16.45804 5.8317113 11 31
17.238045 18.057508 4.5516644 25 30
11.50027 13.290334 -0.408966 1 16
13.733016 17.407742 -0.38702455 3 17
3.8212595 4.3850236 -1.6282352 0 1
5.7246675 5.9550457 -1.6520922 1 2
15.186767 17.427326 0 10 20
19.790129 18.668844 -0.31673062 8 18
7.0058575 8.0394573 -1.6590266 0 3
9.4624434 9.8432407 -1.7379559 2 4
13.806723 17.501171 0.12955919 11 21
10.033185 11.513417 -1.6450108 5 5
12.654356 11.937375 -1.6239188 1 6
15.227321 17.473862 0.53933269 9 24
19.790129 18.668844 0.31673062 12 22
10.066643 11.551811 -1.0714594 14 8
11.292003 11.746428 -1.3301466 17 7
13.833305 17.534866 0.6499989 9 25
17.278629 17.973974 0.43519321 8 23
9.5904408 12.156683 -0.9923653 2 9
12.859252 12.130662 -1.0295259 2 10
15.255523 17.506226 1.3523136 16 27
10.201047 11.706045 -0.72327977 4 12
11.266977 11.720395 -0.85202944 15 11
14.314541 16.426416 2.675276 15 29
10.010595 12.689263 -0.658481 2 13
12.724893 12.003916 -0.61088085 8 14
14.362146 16.481045 5.8575931 11 31
17.38279 18.082327 4.5731883 25 30
11.520325 13.219959 -0.40803549 1 16
13.828526 17.403538 -0.38800189 3 17
3.8390827 4.3745542 -1.6293135 0 1
5.7372336 5.9265723 -1.6497388 0 2
15.324018 17.461397 0 7 20
19.808468 18.555902 -0.31598559 8 18
7.0182338 7.9971299 -1.6553372 0 3
9.5188217 9.8329592 -1.7419964 2 4
13.919981 17.518637 0.1300474 11 21
17.351957 17.924603 -0.14499564 6 19
10.057571 11.460391 -1.6424404 5 5
12.727919 11.923084 -1.6280084 1 6
15.346249 17.486729 0.54137981 9 24
19.814304 18.561371 0.31607869 12 22
11.388392 11.76423 -1.3366557 14 7
13.944174 17.549084 0.65232617 10 25
17.377424 17.950911 0.43610072 5 23
9.6005316 12.082504 -0.98903948 2 9
13.003516 12.181254 -1.0376654 5 10
15.371849 17.5159 1.3571974 9 27
17.365665 17.938763 1.0171937 9 26
10.24448 11.673369 -0.72346592 10 12
11.352271 11.726916 -0.85537893 13 11
14.439878 16.453938 2.6879506 16 29
17.422272 17.997238 2.0448523 11 28
10.015043 12.604177 -0.6558758 2 13
12.83965 12.02775 -0.6143707 5 14
14.488396 16.509222 5.8855453 11 31
17.536123 18.114847 4.5968652 25 30
13.956659 17.439474 -0.38988674 3 17
3.8517776 4.3582411 -1.6282352 0 1
5.760623 5.9093199 -1.6505232 1 2
15.445798 17.47674 0 7 20
19.835045 18.451233 -0.31538025 8 18
7.0487218 7.9755464 -1.6559521 0 3
9.5392361 9.7854691 -1.7394712 2 4
14.013535 17.510544 0.13034961 11 21
17.487011 17.938396 -0.14560008 6 19
10.100146 11.428197 -1.6428689 5 5
12.941506 12.038629 -1.6499432 1 6
15.632288 17.687752 0.54928929 6 24
19.840902 18.45668 0.31547335 12 22
10.268592 11.618792 -1.0842947 1 8
11.479477 11.775793 -1.3425138 12 7
14.012836 17.50967 0.65267521 7 25
17.526518 17.978926 0.43826485 5 23
13.037183 12.12763 -1.0369676 5 10
15.856002 17.94088 1.3944064 10 27
17.525816 17.978205 1.0228926 9 26
10.311624 11.667481 -0.72532713 15 12
11.443325 11.738708 -0.85914713 15 11
14.565579 16.480783 2.7006249 16 29
17.562904 18.016251 2.0539649 11 28
10.034004 12.53794 -0.65424746 2 13
19.874065 18.48753 -0.94787037 5 14
14.609899 16.530928 5.911427 11 31
17.689892 18.146517 4.620542 25 30
14.043084 17.41622 -0.39051506 7 17
3.8549197 4.3297086 -1.6228437 0 1
5.7794962 5.885366 -1.6497388 0 2
15.940655 17.903976 0 11 20
19.943682 18.416393 -0.31603214 8 18
7.0963058 7.9703188 -1.6602564 0 3
9.5889406 9.7645931 -1.7419964 2 4
14.052518 17.427919 0.13011713 11 21
17.661947 17.985481 -0.14650674 6 19
10.141967 11.391097 -1.6428689 5 5
15.957613 17.923025 0.55840844 10 24
19.946619 18.419106 0.31607869 12 22
10.334991 11.607896 -1.0868058 1 8
11.575637 11.787682 -1.3486975 12 7
14.039279 17.411501 0.65092981 7 25
17.684774 18.008728 0.44056857 5 23
12.964198 11.971399 -1.0276654 5 10
15.988041 17.957199 1.4002203 10 27
17.68681 18.010799 1.0284289 9 26
10.383548 11.662432 -0.72737455 13 12
11.531057 11.742286 -0.86249667 15 11
14.689251 16.498446 2.7123244 16 29
17.732178 18.057001 2.0660069 11 28
10.054809 12.469964 -0.65261924 2 13
14.739762 16.555178 5.9393797 11 31
17.847275 18.174206 4.6442189 17 30
3.8718262 4.3197708 -1.623922 1 1
5.7934642 5.8605909 -1.6481699 0 2
16.069347 17.928465 0 11 20
20.098959 18.43668 -0.3175222 8 18
7.085763 7.9055395 -1.6516477 0 3
9.5598955 9.6706619 -1.7308848 2 4
14.067372 17.328436 0.12972192 11 21
17.800224 18.006468 -0.14715767 3 19
10.177028 11.354444 -1.6424404 5 5
13.15144 12.063753 -1.6659297 3 6
16.099697 17.962326 0.56129307 10 24
20.116644 18.452902 0.31780159 6 22
10.554527 11.775617 -1.1057796 1 8
11.679124 11.814445 -1.3561832 6 7
14.054094 17.31208 0.64895165 7 25
17.839989 18.046694 0.44294208 6 23
9.6435032 11.879036 -0.98059708 20 9
13.047964 11.968836 -1.0311537 2 10
16.127455 17.993294 1.4071969 10 27
17.836348 18.043009 1.0336394 9 26
10.464832 11.675544 -0.73035252 13 12
11.617669 11.752278 -0.86605549 13 11
14.810124 16.523558 2.7245111 16 29
17.887249 18.094501 2.0770724 7 28
10.04824 12.377598 -0.6495254 1 13
20.132265 18.467232 -0.95401263 11 14
14.87194 16.592525 5.970438 12 31
19.907608 20.138269 5.1629534 10 30
14.10055 17.245918 -0.3888396 7 17
3.8739779 4.2919316 -1.6185305 1 1
5.8138881 5.8403301 -1.6481699 1 2
16.201521 17.949463 0 11 20
20.299215 18.490301 -0.31966415 8 18
7.1265602 7.8954263 -1.6547223 0 3
9.6187916 9.6625395 -1.7354305 2 4
14.110056 17.257545 0.12955919 11 21
17.975853 18.05761 -0.14808758 3 19
10.235258 11.339514 -1.6454391 8 5
13.211138 12.03386 -1.6681602 3 6
16.226612 17.977259 0.56352633 10 24
20.331743 18.51993 0.32017636 6 22
10.606266 11.750549 -1.1068957 1 8
11.776549 11.830111 -1.3626924 6 7
14.134691 17.287676 0.6498825 7 25
17.995991 18.077839 0.4452458 6 23
9.707655 11.873113 -0.98289955 24 9
20.224924 18.422628 -1.5932418 5 10
16.270439 18.025814 1.4141736 7 27
18.000732 18.082602 1.0395012 9 26
10.545686 11.683433 -0.7331444 10 12
11.714987 11.768268 -0.87024236 13 11
14.950184 16.563122 2.7396231 16 29
18.043125 18.125187 2.0878127 11 28
10.109097 12.364104 -0.65066528 2 13
20.34733 18.534128 -0.96113217 11 14
14.994495 16.612213 5.9963198 12 31
19.897276 19.98777 5.1421466 10 30
14.191168 17.233646 -0.38967735 7 17
3.8941169 4.2840838 -1.6206871 1 1
5.8286848 5.8144622 -1.646601 1 2
16.35017 17.98752 0 7 20
7.1567335 7.8734274 -1.6553372 0 3
9.6749334 9.6513262 -1.7394712 2 4
14.223602 17.273033 0.1300474 7 21
10.312226 11.344919 -1.6514367 5 5
13.261922 11.995688 -1.6692756 3 6
16.380713 18.02112 0.56669009 10 24
11.877042 11.848061 -1.3695269 12 7
14.250864 17.306141 0.65244251 7 25
18.146757 18.102476 0.4474099 6 23
20.44014 18.488539 -1.6051022 10 10
16.403093 18.045742 1.4202201 7 27
18.157114 18.112808 1.0448745 10 26
10.629403 11.693859 -0.73612237 10 12
11.812552 11.783729 -0.87442923 13 11
15.074667 16.584284 2.7518101 16 29
18.210712 18.166275 2.0998545 12 28
