# .PCD v0.7 - Point Cloud Data file format
VERSION 0.7
FIELDS x y z intensity ring
SIZE 4 4 4 4 2
TYPE F F F F U
COUNT 1 1 1 1 1
WIDTH 1286
HEIGHT 1
VIEWPOINT 0 0 0 1 0 0 0
POINTS 1286
DATA ascii
-12.796723 -15.640112 -1.886393 2 6
-18.639505 -27.959333 0.78192073 6 24
-20.42206 -24.959772 0.37544826 9 22
-13.311339 -19.967062 -1.6780617 4 8
-13.739036 -18.574022 -1.8860285 3 7
-18.537903 -30.986855 1.0508665 6 25
-18.613106 -25.163355 0.54633015 4 23
-16.992855 -20.76861 -1.562777 5 10
-18.599722 -27.899656 1.9527736 7 27
-18.619526 -25.172035 1.2756035 4 26
-13.191975 -19.788013 -1.107813 3 12
-14.43098 -19.509474 -1.2717639 4 11
-18.626699 -27.940125 4.1230841 13 29
-18.573185 -25.109386 2.5496373 5 28
-20.421127 -24.958632 -1.126137 7 14
-18.594345 -27.89159 8.9820566 9 31
-18.571442 -25.107029 5.6938853 12 30
-2.1015334 -2.8194237 -1.6397589 1 0
-18.604763 -30.841471 -0.6287055 10 17
-18.599783 -24.953526 -0.90576291 5 15
-3.33215 -4.9587626 -1.6724457 1 1
-5.0866494 -6.8242645 -1.7022982 1 2
-18.662153 -27.772215 0 8 20
-6.1107674 -9.0937815 -1.7045299 1 3
-8.1812172 -10.975945 -1.7425015 2 4
-18.592821 -30.821672 0.20920566 10 21
-18.647982 -25.018188 -0.18135497 4 19
-8.9790688 -13.362265 -1.7341156 9 5
-12.818495 -15.550078 -1.8811882 2 6
-18.637028 -27.734825 0.77754718 6 24
-14.666348 -21.825829 -1.8387806 4 8
-13.792727 -18.504364 -1.884076 3 7
-18.552223 -30.754372 1.0452812 6 25
-18.643064 -25.011593 0.54451507 4 23
-17.05616 -20.690777 -1.5616142 5 10
-18.603857 -27.685463 1.9425411 7 27
-18.628061 -24.991463 1.2699044 4 26
-13.230985 -19.689783 -1.1050211 3 12
-14.564457 -19.539719 -1.2772068 4 11
-18.629335 -27.723379 4.1011472 12 29
-18.636501 -25.002787 2.5457318 5 28
-18.595163 -27.672525 8.9333992 9 31
-18.70332 -25.09243 5.7060823 12 30
-2.113539 -2.8149698 -1.6414495 1 0
-18.66452 -30.697742 -0.62709987 10 17
-18.710781 -24.92042 -0.90692645 5 15
-3.3580773 -4.9598594 -1.6767588 1 1
-5.1175051 -6.8158774 -1.7046516 2 2
-18.655825 -27.554537 0 7 20
-20.687012 -24.917625 -0.37703142 46 18
-6.1491213 -9.0822134 -1.7063746 1 3
-8.2218637 -10.950495 -1.7430067 2 4
-18.592237 -30.578859 0.20799679 10 21
-18.7376 -24.956141 -0.18137822 4 19
-9.0256577 -13.33084 -1.7341156 9 5
-12.938843 -15.58491 -1.8908544 2 6
-18.650776 -27.547079 0.77410424 6 24
-20.681902 -24.91147 0.37693828 27 22
-14.722313 -21.744762 -1.8362694 4 8
-13.852448 -18.449728 -1.8834249 3 7
-18.553522 -30.515184 1.0393466 6 25
-18.756674 -24.981544 0.54528302 4 23
-17.107878 -20.606537 -1.5597538 5 10
-18.613075 -27.491396 1.9334713 7 27
-18.724783 -24.939072 1.2705557 4 26
-14.726112 -19.61334 -1.2853712 4 11
-18.623608 -27.506952 4.0787234 12 29
-18.769144 -24.998156 2.5519156 5 28
-18.592005 -27.460274 8.8857756 9 31
-18.790794 -25.026991 5.7060823 12 30
-2.1201863 -2.8054235 -1.6397589 1 0
-18.817907 -24.899792 -0.90832281 5 15
-3.3736424 -4.949285 -1.6767588 1 1
-18.640915 -27.347059 0 7 20
-6.1664925 -9.0465212 -1.7033002 1 3
-8.2705803 -10.943604 -1.7460371 2 4
-18.585865 -30.353149 0.20685765 10 21
-18.832792 -24.919487 -0.18154095 4 19
-9.0876522 -13.331993 -1.7379711 9 5
-12.980079 -15.535015 -1.8897389 2 6
-18.649385 -27.359488 0.77047527 6 24
-14.804037 -21.718187 -1.8379436 4 8
-13.888707 -18.377491 -1.8804959 3 7
-18.553257 -30.299896 1.033994 6 25
-18.837475 -24.925684 0.54535282 4 23
-13.977164 -16.728363 -1.2695237 3 10
-18.607134 -27.297503 1.9239367 7 27
-18.836777 -24.924761 1.2728354 4 26
-14.804517 -19.589287 -1.2868366 4 11
-18.622721 -27.320366 4.0597119 12 29
-18.799513 -24.875452 2.5454063 5 28
-13.958997 -16.706619 -0.76025063 3 14
-18.591133 -27.274029 8.8443642 9 31
-18.76256 -24.826555 5.6737957 12 30
-2.1321621 -2.8008902 -1.6414495 1 0
-18.875647 -24.795776 -0.90692645 5 15
-3.3887177 -4.9343028 -1.6756804 1 1
-5.131712 -6.7412143 -1.6944535 13 2
-18.647947 -27.153227 0 7 20
-13.99392 -16.630091 -0.2530306 2 18
-6.1935587 -9.018424 -1.7020704 1 3
-8.2822914 -10.879937 -1.7404813 2 4
-18.58457 -30.114487 0.20567201 10 21
-18.854248 -24.767666 -0.18091327 4 19
-9.1521454 -13.326415 -1.7413981 6 5
-13.106026 -15.574936 -1.9001486 2 6
-18.654222 -27.162361 0.76675314 6 24
-14.00422 -16.642332 0.25321686 4 22
-14.8775 -21.663088 -1.8376646 4 8
-13.940698 -18.313038 -1.8788686 3 7
-18.564419 -30.081835 1.0287577 6 25
-18.834738 -24.742035 0.54276985 4 23
-13.973766 -16.60614 -1.2639425 3 10
-18.602839 -27.087543 1.913704 7 27
-18.834095 -24.741192 1.2668107 4 26
-18.071415 -23.739305 -1.5635892 5 11
-18.625824 -27.121012 4.0397253 12 29
-18.806541 -24.704996 2.5346663 5 28
-13.9709 -16.602736 -0.75773793 3 14
-18.592171 -27.07201 8.7998476 9 31
-2.1397197 -2.790554 -1.6397589 1 0
-18.828272 -24.555233 -0.90052658 5 15
-3.4059198 -4.9224448 -1.6756804 1 1
-5.1408906 -6.7045851 -1.6897466 14 2
-18.644743 -26.946531 0 7 20
-14.026022 -16.550631 -0.25256497 5 18
-6.2227502 -8.9935017 -1.7014555 1 3
-8.3250465 -10.857261 -1.7414914 2 4
-18.586052 -29.882999 0.20453288 9 21
-9.209919 -13.310742 -1.74354 3 5
-13.150011 -15.516943 -1.8986616 2 6
-18.646524 -26.949106 0.76256579 6 24
-14.03378 -16.559784 0.25270465 4 22
-14.934859 -21.584778 -1.8354324 4 8
-13.992405 -18.248449 -1.8772413 3 7
-18.565832 -29.850489 1.0230559 6 25
-14.008409 -16.529848 -1.2618494 3 10
-18.60866 -26.894381 1.9046345 6 27
-13.518257 -19.537418 -1.1066962 3 12
-18.125 -23.638046 -1.561077 5 11
-18.627754 -26.921978 4.0197387 12 29
-14.015843 -16.53862 -0.7570399 3 14
-18.589819 -26.867151 8.7542953 9 31
-18.880346 -24.623144 5.6572938 12 30
-2.1538794 -2.7888062 -1.64314 1 0
-3.4120681 -4.8947263 -1.6702889 1 1
-5.1618657 -6.683495 -1.6889622 15 2
-18.644907 -26.746744 0 7 20
-6.2428045 -8.955512 -1.6983808 1 3
-8.3556185 -10.818712 -1.7399762 2 4
-18.592531 -29.662039 0.20346349 9 21
-18.926449 -24.505644 -0.1799601 28 19
-9.2540531 -13.275249 -1.7431117 3 5
-13.222195 -15.492152 -1.9012641 2 6
-18.646721 -26.749348 0.75875062 6 24
-14.985014 -21.496504 -1.8323631 4 8
-14.043835 -18.183718 -1.875614 3 7
-18.561617 -29.612719 1.0171214 5 25
-18.928776 -24.508656 0.54053593 12 23
-13.135901 -20.956673 -1.5851238 6 9
-14.086764 -16.505148 -1.2637099 3 10
-18.611086 -26.698225 1.8953322 6 27
-18.928183 -24.507887 1.2616001 19 26
-13.595515 -19.503222 -1.1074407 3 12
-18.173218 -23.530373 -1.5581462 5 11
-18.628531 -26.723251 3.999752 12 29
-14.081274 -16.498716 -0.75745869 7 14
-18.603952 -26.687992 8.7170258 9 31
-19.062397 -24.681665 5.6859927 12 30
-2.1591492 -2.775548 -1.6397589 1 0
-3.4291334 -4.8827863 -1.6702889 1 1
-5.185164 -6.6654363 -1.6889622 15 2
-18.659998 -26.570204 0 7 20
-14.149047 -16.461407 -0.25270465 8 18
-6.269485 -8.9271975 -1.6971511 1 3
-8.4128227 -10.814535 -1.7440168 2 4
-18.582739 -29.417727 0.20223136 9 21
-9.2591944 -13.184283 -1.7354007 3 5
-13.260615 -15.427779 -1.8990333 2 6
-18.652649 -26.55974 0.75521457 6 24
-14.149047 -16.461407 0.25270465 4 22
-15.009508 -21.372227 -1.8262244 4 8
-14.104774 -18.131435 -1.8752885 3 7
-18.566648 -29.392254 1.0117688 5 25
-13.187655 -20.876945 -1.5825655 6 9
-14.157306 -16.471014 -1.2648726 3 10
-18.607779 -26.49585 1.8855649 6 27
-13.723219 -19.540663 -1.11228 3 12
-18.211096 -23.41004 -1.554378 5 11
-18.628151 -26.524857 3.9797657 12 29
-19.137648 -24.601107 2.54443 5 28
-14.167443 -16.482809 -0.75899428 7 14
-18.599295 -26.483768 8.6714735 9 31
-19.191929 -24.670883 5.6989074 12 30
-2.1688244 -2.7679942 -1.6397589 1 0
-19.210144 -24.517229 -0.90646106 5 15
-3.4550555 -4.8833647 -1.6746023 1 1
-5.2035604 -6.6411209 -1.6873932 15 2
-18.655596 -26.367762 0 7 20
-14.243072 -16.454256 -0.25335655 5 18
-6.2937589 -8.8955793 -1.6953063 1 3
-8.4309435 -10.760117 -1.7399762 2 4
-18.590803 -29.204214 0.20120847 9 21
-19.252491 -24.571276 -0.18142471 4 19
-9.3350201 -13.194089 -1.7409698 3 5
-13.301355 -15.366342 -1.8971745 2 6
-18.650549 -26.360628 0.75139946 6 24
-14.250923 -16.463326 0.25349623 4 22
-15.026402 -21.23827 -1.8192489 4 8
-14.140932 -18.047573 -1.8717085 3 7
-18.557484 -29.151875 1.005718 5 25
-19.257282 -24.577391 0.54500371 4 23
-13.146837 -20.652311 -1.5690066 6 9
-14.259145 -16.472824 -1.2688261 3 10
-18.614813 -26.31012 1.8769603 6 27
-19.249182 -24.567053 1.2715328 4 26
-13.786726 -19.486116 -1.1119077 3 12
-18.270527 -23.318029 -1.5524939 5 11
-18.638071 -26.342993 3.9622164 11 29
-19.250452 -24.568674 2.5480101 5 28
-14.269372 -16.484638 -0.76136744 3 14
-18.609056 -26.301983 8.6331692 8 31
-19.297344 -24.628521 5.7046471 12 30
-3.4684584 -4.8643956 -1.6724457 1 1
-5.2254362 -6.6189256 -1.6866088 15 2
-18.666191 -26.178703 0 7 20
-19.237534 -22.060173 -0.34075782 4 18
-6.3309102 -8.8788881 -1.6965361 1 3
-8.4850769 -10.747829 -1.7430067 2 4
-18.596184 -28.977663 0.20011583 9 21
-19.352335 -24.513105 -0.18151771 4 19
-9.3763914 -13.150072 -1.7396847 3 5
-13.318323 -15.272462 -1.8915979 2 6
-18.670427 -26.184645 0.74832875 6 24
-19.227016 -22.048113 0.34057155 7 22
-15.030013 -21.079086 -1.81032 4 8
-14.179811 -17.961203 -1.8681284 3 7
-18.569189 -28.935598 1.000598 5 25
-19.339802 -24.497229 0.54479432 4 23
-13.155609 -20.499842 -1.5610758 6 9
-17.497728 -20.065092 -1.5504515 5 10
-18.625343 -26.121416 1.8683558 6 27
-19.339096 -24.496338 1.2715328 4 26
-13.883572 -19.471241 -1.1139551 3 12
-18.293991 -23.172529 -1.5472604 5 11
-18.633083 -26.132271 3.9407675 11 29
-19.350254 -24.510469 2.5493119 5 28
-19.182451 -21.997009 -1.0192049 6 14
-18.60215 -26.088886 8.5855455 8 31
-19.650826 -24.891197 5.7821345 12 30
-2.1813288 -2.7442718 -1.6346875 5 0
-19.410694 -24.42008 -0.90785742 5 15
-3.4845707 -4.8528671 -1.6724457 1 1
-5.2449169 -6.5984912 -1.6858244 14 2
-18.659582 -25.986692 0 7 20
-19.249889 -21.927126 -0.33968684 4 18
-6.3487935 -8.8417921 -1.6934617 1 3
-8.52808 -10.728951 -1.7445219 2 4
-18.605314 -28.781464 0.19918594 9 21
-9.4106693 -13.105983 -1.7379711 3 5
-13.321598 -15.174339 -1.8849058 2 6
-18.666195 -25.995903 0.74469966 6 24
-19.268362 -21.948166 0.34001279 7 22
-15.020704 -20.918928 -1.8008332 4 8
-13.547176 -17.043344 -1.7773257 3 7
-18.563025 -28.716043 0.99512893 5 25
-19.831549 -24.949545 0.55631292 4 23
-13.152005 -20.345474 -1.5526334 6 9
-17.532555 -19.970945 -1.5476608 5 10
-18.621033 -25.933006 1.8592861 6 27
-19.763416 -24.863832 1.2940031 5 26
-13.980693 -19.470531 -1.1165608 3 12
-18.348366 -23.083591 -1.5453763 5 11
-18.638596 -25.957464 3.9237058 11 29
-19.686943 -24.76762 2.582834 6 28
-19.223642 -21.897228 -1.0175297 6 14
-18.609692 -25.917212 8.5493107 8 31
-19.794479 -24.90291 5.8000717 12 30
-19.93811 -24.904638 -0.92845351 5 15
-3.4992316 -4.8375525 -1.6713673 1 1
-5.2703686 -6.5832033 -1.6866088 13 2
-18.656404 -25.791759 0 6 20
-19.260082 -21.784882 -0.33852273 4 18
-6.3865685 -8.8291836 -1.6953063 1 3
-8.5505991 -10.680531 -1.7414914 2 4
-18.594324 -28.545412 0.19800028 9 21
-20.013708 -24.999069 -0.18612075 5 19
-9.495986 -13.127833 -1.7452537 3 5
-13.316451 -15.062101 -1.8767267 2 6
-18.646669 -25.778299 0.74032617 6 24
-19.265379 -21.790873 0.33861583 7 22
-14.777915 -20.429897 -1.7631646 4 8
-13.477024 -16.834114 -1.760402 3 7
-18.564945 -28.500311 0.98989266 5 25
-20.006001 -24.989441 0.55875629 4 23
-13.175012 -20.225855 -1.5470052 6 9
-17.57571 -19.879707 -1.5453353 5 10
-18.624847 -25.748131 1.8506814 6 27
-20.004951 -24.988131 1.3040986 5 26
-14.097754 -19.489599 -1.1204695 3 12
-18.376406 -22.953918 -1.5409801 5 11
-18.638342 -25.766787 3.9046941 11 29
-19.857992 -24.804564 2.5938995 6 28
-19.228472 -21.749126 -1.0137606 6 14
-18.607201 -25.723738 8.5068645 8 31
-19.942768 -24.910458 5.8180084 13 30
-2.2122903 -2.7427006 -1.64314 13 0
-20.07444 -24.887409 -0.93054801 5 15
-3.5146694 -4.8215818 -1.6702889 1 1
-5.289537 -6.5577359 -1.6850398 14 2
-18.677769 -25.623003 0 6 20
-19.252012 -21.615578 -0.33698609 4 18
-6.4258704 -8.8152981 -1.6971511 1 3
-8.5971613 -10.658384 -1.7430067 2 4
-18.608812 -28.339983 0.19704714 9 21
-20.12278 -24.94734 -0.18628347 5 19
-9.5042114 -13.038305 -1.7379711 3 5
-13.329185 -14.965607 -1.8707783 2 6
-18.656225 -25.593449 0.73697633 6 24
-19.257332 -21.621552 0.33707923 7 22
-14.763377 -20.253065 -1.7525616 4 8
-13.453532 -16.679098 -1.7493364 3 7
-18.581497 -28.298386 0.98523819 5 25
-20.165253 -24.999996 0.56064111 4 23
-13.189898 -20.087337 -1.5400977 6 9
-17.605961 -19.767441 -1.5416144 5 10
-18.6203 -25.544165 1.8409141 6 27
-20.144081 -24.973747 1.3071924 5 26
-14.21381 -19.499144 -1.1240059 3 12
-18.427809 -22.845991 -1.5382587 5 11
-18.648464 -25.582802 3.887145 11 29
-20.001333 -24.796778 2.6007342 6 28
-19.244247 -21.606859 -1.0104103 6 14
-18.603495 -25.521112 8.462348 8 31
-20.080875 -24.89539 5.8316402 13 30
-2.2145174 -2.726907 -1.6380684 14 0
-20.212313 -24.888987 -0.93310797 5 15
-3.5329187 -4.8130054 -1.6713673 1 1
-5.3063097 -6.53407 -1.683471 15 2
-18.646656 -25.402922 0 6 20
-19.264845 -21.486101 -0.33596167 4 18
-8.6324596 -10.629816 -1.7430067 2 4
-18.605598 -28.131321 0.19602424 8 21
-20.286091 -24.979834 -0.18702739 5 19
-9.5756369 -13.045188 -1.7431117 3 5
-13.336201 -14.873878 -1.8648299 2 6
-18.667641 -25.431507 0.7340917 5 24
-19.267515 -21.489079 0.33600825 7 22
-14.77143 -20.123579 -1.745586 4 8
-13.481123 -16.600351 -1.7457563 3 7
-18.573776 -28.083208 0.97988558 5 25
-20.29343 -24.988873 0.5618977 4 23
-13.207992 -19.97024 -1.5344694 6 9
-17.652756 -19.688137 -1.5399865 5 10
-18.619843 -25.366392 1.8325422 6 27
-20.272137 -24.962654 1.3101233 5 26
-14.31386 -19.500217 -1.1267977 3 12
-18.458143 -22.728941 -1.5344903 5 11
-18.643925 -25.3992 3.8686206 11 29
-20.176447 -24.844824 2.6127763 6 28
-19.238401 -21.45661 -1.0063618 6 14
-18.608004 -25.350264 8.4261131 8 31
-20.227823 -24.908087 5.8502946 13 30
-2.2240222 -2.7191606 -1.6380684 13 0
-20.395256 -24.935892 -0.93752974 5 15
-3.5474064 -4.7975473 -1.6702889 1 1
-5.3315673 -6.5185452 -1.6842554 15 2
-18.690023 -25.276573 0 6 20
-19.248585 -21.317791 -0.33437848 4 18
-6.4904222 -8.7777119 -1.6983808 4 3
-8.6469002 -10.571977 -1.738461 2 4
-18.61717 -27.936398 0.19511759 8 21
-20.469389 -25.026529 -0.18791081 5 19
-9.6045599 -12.989303 -1.740113 3 5
-13.337324 -14.771074 -1.8577662 2 6
-18.673079 -25.253656 0.73083484 5 24
-19.275391 -21.347479 0.33484414 7 22
-14.877166 -20.120026 -1.7497715 4 8
-13.523839 -16.534678 -1.7438035 3 7
-18.578564 -27.878466 0.97499835 5 25
-20.47168 -25.029331 0.56441081 4 23
-13.23113 -19.854258 -1.529097 6 9
-17.707989 -19.611582 -1.5388237 5 10
-18.639416 -25.208132 1.8257979 6 27
-20.402161 -24.944334 1.3128914 5 26
-14.464982 -19.562584 -1.1333121 3 12
-18.501959 -22.621088 -1.5315596 5 11
-18.635687 -25.203087 3.8486342 11 29
-20.260519 -24.771158 2.6124506 6 28
-19.227448 -21.294382 -1.0018948 6 14
-18.602192 -25.157789 8.383667 8 31
-20.38938 -24.928709 5.871819 13 30
-18.627907 -25.192564 -0.72906685 4 16
-2.2288909 -2.7057838 -1.6346875 14 0
-20.517769 -24.907745 -0.9391588 5 15
-3.5526283 -4.7696886 -1.6648974 2 1
-5.3493032 -6.4938388 -1.6826866 15 2
-18.682573 -25.082857 0 6 20
-19.26638 -21.188322 -0.33340064 4 18
-6.5092211 -8.7391529 -1.6953063 7 3
-8.6887989 -10.547853 -1.7394712 2 4
-18.616467 -27.725119 0.19409467 8 21
-9.6379681 -12.939747 -1.7379711 3 5
-13.33522 -14.665491 -1.8503306 2 6
-18.665575 -25.060036 0.72711277 5 24
-19.25831 -21.179445 0.33326095 6 22
-15.078408 -20.243975 -1.7651178 4 8
-13.556129 -16.456594 -1.7405488 3 7
-18.588842 -27.683979 0.97046018 5 25
-13.218023 -19.685329 -1.5196313 6 9
-17.741419 -19.511236 -1.5358005 5 10
-18.63666 -25.021212 1.8169608 6 27
-14.592855 -19.592081 -1.1379652 3 12
-18.542717 -22.510113 -1.5284194 5 11
-18.654781 -25.045542 3.8344972 11 29
-20.41531 -24.783363 2.6212382 6 28
-13.220796 -19.689457 -0.96622813 4 13
-19.226366 -21.144316 -0.99798602 6 14
-18.664516 -25.058613 8.3722792 8 31
-20.511307 -24.8999 5.8818636 13 30
-18.636909 -25.021549 -0.72599614 4 16
-2.2406366 -2.7007778 -1.636378 14 0
-5.3744411 -6.4781461 -1.683471 13 2
-18.709995 -24.937504 0 6 20
-19.253782 -21.02655 -0.33191058 4 18
-6.5325685 -8.7068939 -1.6934617 7 3
-8.7382307 -10.532729 -1.7419964 2 4
-18.612268 -27.510887 0.19304855 8 21
-20.671703 -24.916882 -0.18816654 73 19
-9.7021675 -12.931476 -1.7413981 3 5
-13.348674 -14.577736 -1.8451258 2 6
-18.716932 -24.946751 0.72571695 5 24
-19.269989 -21.044249 0.33218998 6 22
-15.103477 -20.130577 -1.7598163 9 8
-13.621125 -16.418383 -1.7415253 3 7
-18.593504 -27.48315 0.96568942 5 25
-13.273235 -19.619236 -1.5180963 6 9
-17.801325 -19.440359 -1.5351028 5 10
-15.551157 -18.74477 0.99228078 6 26
-18.582918 -22.399139 -1.5252793 5 11
-18.730175 -24.964399 3.8320601 11 29
-20.588238 -24.816275 2.6323037 6 28
-13.29168 -19.6465 -0.96639097 4 13
-19.232559 -21.003374 -0.99449611 5 14
-18.779692 -25.030397 8.3847017 8 31
-20.54282 -24.76153 5.8660793 13 30
-18.716932 -24.946751 -0.72571695 4 16
-2.2523749 -2.6957219 -1.6380684 14 0
-3.5881617 -4.7478442 -1.6659758 15 1
-5.3945069 -6.456337 -1.6826866 7 2
-18.818638 -24.900763 0 6 20
-19.264698 -20.891584 -0.3308396 4 18
-6.5676875 -8.6903439 -1.6946913 3 3
-8.7698555 -10.496074 -1.7409863 2 4
-18.620323 -27.316851 0.19214188 8 21
-9.7376595 -12.88484 -1.7396847 3 5
-13.364379 -14.492989 -1.8402927 4 6
-18.840067 -24.929119 0.72711277 5 24
-19.259274 -20.885702 0.33074647 6 22
-15.103886 -19.985415 -1.7517246 9 8
-13.665571 -16.35544 -1.739898 3 7
-18.59474 -27.279318 0.96080214 5 25
-15.542444 -18.601748 0.42311615 2 23
-13.330396 -19.55629 -1.5168172 6 9
-17.839296 -19.34581 -1.5325446 5 10
-18.709761 -24.756697 1.8071935 11 27
-15.60368 -18.675037 0.99146664 6 26
-13.96629 -16.715349 -1.141552 3 11
-18.853109 -24.946375 3.8393722 11 29
-13.959538 -16.70727 1.7773257 2 28
-13.351173 -19.586773 -0.96573961 4 13
-19.232588 -20.856764 -0.99072689 5 14
-18.848316 -24.940031 8.37642 8 31
-13.975628 -16.726526 3.9740963 6 30
-18.842478 -24.932308 -0.72720581 9 16
-2.261302 -2.6882379 -1.6380684 14 0
-13.975749 -16.614384 -0.63184643 2 15
-3.6062193 -4.7389851 -1.6670542 27 1
-5.4158878 -6.4384122 -1.6826866 2 2
-18.884151 -24.815937 0 6 20
-19.246798 -20.73378 -0.32934955 4 18
-6.5940766 -8.6653709 -1.6940765 2 3
-8.8122768 -10.476043 -1.7425015 2 4
-18.631569 -27.139534 0.19132821 8 21
-13.999454 -16.642563 -0.12639751 2 19
-9.7827415 -12.855642 -1.740113 3 5
-13.382561 -14.416481 -1.8362031 4 6
-18.895994 -24.831499 0.72608918 5 24
-19.263124 -20.751369 0.32962894 6 22
-15.119332 -19.868534 -1.7458651 8 8
-13.714602 -16.303932 -1.7392471 3 7
-18.585529 -27.07247 0.95568222 5 25
-13.98211 -16.621944 0.37913609 2 23
-13.401951 -19.521849 -1.5175846 6 9
-17.892487 -19.274839 -1.5316145 5 10
-18.832865 -24.748539 1.811147 17 27
-14.003523 -16.6474 0.88627899 2 26
-14.001074 -16.644489 -1.1398772 3 11
-18.87322 -24.801573 3.8266978 11 29
-13.986636 -16.627325 1.7737457 2 28
-13.418315 -19.545687 -0.96590245 4 13
-19.230936 -20.716694 -0.98709732 5 14
-18.853704 -24.775927 8.3422556 8 31
-14.005689 -16.649975 3.9669218 6 30
-18.871777 -24.799675 -0.72515863 4 16
-2.2711391 -2.6799324 -1.6380684 13 0
-13.656013 -19.736513 -0.41892758 4 17
-14.015867 -16.538649 -0.63091552 4 15
-3.6259072 -4.7287927 -1.6681324 26 1
-5.4343758 -6.4125347 -1.6811175 1 2
-18.88492 -24.629112 0 6 20
-19.259823 -20.595911 -0.32827857 4 18
-6.6161714 -8.6286011 -1.6916169 0 3
-8.819828 -10.407351 -1.7364407 2 4
-18.633049 -26.92963 0.19032857 8 21
-14.037081 -16.563681 -0.12618828 5 19
-9.8394699 -12.832324 -1.7418264 3 5
-13.427148 -14.358613 -1.8350879 4 6
-18.884676 -24.628796 0.7221809 5 24
-19.265287 -20.601755 0.3283717 6 22
-15.126493 -19.727493 -1.7383314 8 8
-13.771687 -16.250517 -1.7389216 3 7
-18.598177 -26.879232 0.95126045 5 25
-13.507481 -19.521845 -1.5214221 6 9
-17.927551 -19.171219 -1.5285913 5 10
-14.043771 -16.571575 0.88497639 4 26
-14.036158 -16.562592 -1.1377839 6 11
-14.03717 -16.563787 1.7724438 5 28
-13.51715 -19.53582 -0.96785641 4 13
-19.22209 -20.555561 -0.98276985 5 14
-14.058985 -16.589529 3.9647696 6 30
-2.2729547 -2.6641123 -1.632997 14 0
-13.762544 -19.750183 -0.42018414 4 17
-14.062848 -16.482954 -0.63056642 4 15
-3.6415684 -4.716743 -1.6681324 27 1
-5.4632483 -6.40343 -1.683471 1 2
-19.262218 -20.462032 -0.32716101 4 18
-6.6495786 -8.6128702 -1.6928467 0 3
-8.8465652 -10.368989 -1.7349255 2 4
-18.614765 -26.713451 0.18923593 8 21
-14.089334 -16.513996 -0.12616503 5 19
-9.8965521 -12.818514 -1.7443968 3 5
-13.46923 -14.308207 -1.8343441 4 6
-19.270443 -20.47077 0.3273007 6 22
-15.133306 -19.601419 -1.7316347 8 8
-13.8255 -16.20476 -1.7389216 3 7
-18.595772 -26.686193 0.94660598 5 25
-14.077043 -16.499592 0.37857762 4 23
-13.622349 -19.548994 -1.5270504 6 9
-17.969131 -19.088402 -1.5267309 5 10
-18.905123 -24.486868 1.801612 46 27
-14.08827 -16.512751 0.88432503 4 26
-18.89711 -24.47649 -1.4404175 5 12
-14.070261 -16.491642 -1.136109 6 11
-18.917313 -24.502657 3.8008614 32 29
-14.092021 -16.517147 1.7724438 2 28
-13.593283 -19.507282 -0.96867055 4 13
-19.221649 -20.418936 -0.97927988 5 14
-18.96954 -24.570305 8.3174095 8 31
-14.139461 -16.572752 3.9719441 6 30
-18.914925 -24.499565 -0.72022682 42 16
-2.2846034 -2.6589112 -1.6346875 14 0
-13.808427 -19.669285 -0.41948605 4 17
-14.13333 -16.448925 -0.63114822 2 15
-3.6532826 -4.6979203 -1.6659758 26 1
-5.4906802 -6.3902688 -1.6850398 1 2
-19.005478 -24.439999 0 12 20
-19.264738 -20.322098 -0.32599691 4 18
-6.6601944 -8.5646439 -1.6879274 0 3
-8.9292545 -10.392217 -1.7440168 2 4
-18.629766 -26.536997 0.18844549 8 21
-14.172964 -16.495052 -0.12639751 5 19
-9.9583302 -12.805864 -1.7473955 3 5
-13.502655 -14.243758 -1.8321137 2 6
-19.270243 -20.327902 0.32609004 6 22
-15.145299 -19.476021 -1.7252171 4 8
-13.863796 -16.135229 -1.7366436 3 7
-18.599222 -26.49349 0.94206792 5 25
-14.178864 -16.501917 0.37976435 2 23
-13.672163 -19.475183 -1.5250038 6 9
-18.046646 -19.037148 -1.527661 5 10
-19.093445 -24.55312 1.8113796 11 27
-14.164059 -16.484688 0.88546485 2 26
-18.901497 -24.306284 -1.4342754 5 12
-14.145969 -16.463634 -1.1375746 3 11
-19.10997 -24.574368 3.8223104 11 29
-14.18337 -16.507162 1.7766747 2 28
-19.246058 -20.302389 -0.97690672 5 14
-19.154812 -24.632034 8.3608904 8 31
-14.233131 -16.565077 3.9819887 6 30
-2.2986155 -2.6564028 -1.6380684 13 0
-13.948591 -19.722187 -0.42165014 4 17
-14.23514 -16.45089 -0.63312644 2 15
-3.6696596 -4.6851392 -1.6659758 23 1
-5.5129533 -6.3710637 -1.6850398 0 2
-19.201668 -24.515213 0 6 20
-19.25823 -20.173719 -0.32469311 4 18
-6.6778655 -8.5257845 -1.684853 0 3
-8.9421082 -10.33398 -1.7394712 2 4
-18.643755 -26.360771 0.18765509 8 21
-14.259247 -16.478748 -0.12665324 2 19
-9.9784479 -12.739715 -1.7431117 3 5
-13.549542 -14.193655 -1.8317418 2 6
-19.211267 -24.527468 0.72497255 5 24
-19.269276 -20.185289 0.32487938 6 22
-15.156603 -19.350784 -1.7187995 4 8
-13.912208 -16.077692 -1.735667 3 7
-18.601547 -26.301094 0.93752974 5 25
-14.372463 -16.609587 0.38339445 2 23
-13.776938 -19.479485 -1.529097 6 9
-18.068872 -18.927822 -1.5239402 5 10
-19.156876 -24.458025 1.8092865 17 27
-14.26859 -16.489546 0.88839579 2 26
-18.951735 -24.196117 -1.4316696 5 12
-14.239946 -16.456444 -1.1405053 3 11
-19.239702 -24.56377 3.831085 11 29
-21.508749 -24.856663 2.6834006 6 28
-19.242281 -20.157013 -0.97313756 5 14
-19.28833 -24.625856 8.3815966 8 31
-21.616549 -24.981239 6.0232062 13 30
-19.228529 -24.549505 -0.72562391 4 16
-2.3078735 -2.6483636 -1.6380684 14 0
-14.084648 -19.767838 -0.42367461 4 17
-19.209862 -22.043972 -0.85095632 4 15
-3.6836045 -4.6692777 -1.6648974 29 1
-5.537735 -6.3547401 -1.6858244 0 2
-19.329237 -24.501429 0 6 20
-19.256458 -20.031406 -0.32348245 4 18
-6.710031 -8.5055265 -1.6854678 0 3
-8.9468412 -10.266806 -1.7334102 2 4
-18.635845 -26.155457 0.18665543 7 21
-19.207159 -22.040871 -0.16991712 4 19
-10.022854 -12.704808 -1.7431117 3 5
-13.590724 -14.137663 -1.8306265 2 6
-19.270317 -20.045822 0.32371524 6 22
-15.142494 -19.194382 -1.7095916 4 8
-13.947289 -16.00499 -1.7330635 2 7
-18.593472 -26.095984 0.93252611 5 25
-19.207186 -22.040901 0.51030838 3 23
-13.881909 -19.483294 -1.5331904 6 9
-18.115458 -18.844486 -1.5223123 5 10
-19.2446 -24.394146 1.8095189 11 27
-19.191563 -22.022974 1.1901182 4 26
-18.994001 -24.076488 -1.4285055 5 12
-18.905607 -21.694828 -1.5081131 5 11
-19.347452 -24.524519 3.8354723 11 29
-21.642527 -24.835537 2.6892588 6 28
-13.903497 -19.513594 -0.97616071 109 13
-19.24049 -20.014795 -0.96950799 5 14
-19.40049 -24.591747 8.3929844 8 31
-21.724295 -24.929371 6.0289464 13 30
-19.343821 -24.519915 -0.72674054 9 16
-2.3147128 -2.6375666 -1.636378 14 0
-14.27017 -19.881006 -0.42716512 4 17
-19.207575 -21.886627 -0.84746546 4 15
-3.6974847 -4.6533751 -1.6638192 27 1
-5.5650578 -6.3412662 -1.6873932 0 2
-19.402203 -24.418148 0 6 20
-19.262278 -19.897966 -0.32241145 4 18
-6.7175503 -8.4542017 -1.6799335 0 3
-9.0035639 -10.259372 -1.7374507 2 4
-18.624407 -25.947268 0.18563254 7 21
-19.218021 -21.898529 -0.16933593 4 19
-10.067142 -12.669744 -1.7431117 3 5
-13.617829 -14.067242 -1.8276523 2 6
-19.426805 -24.44911 0.7266475 5 24
-19.262278 -19.897966 0.32241145 6 22
-15.14238 -19.057056 -1.702058 4 8
-13.987295 -15.938228 -1.7311107 2 7
-18.600517 -25.913986 0.9283371 5 25
-19.21278 -21.892559 0.50842351 3 23
-14.045269 -19.567677 -1.5436794 6 9
-18.178347 -18.778265 -1.5220796 5 10
-19.590477 -24.655094 1.8339374 12 27
-19.210323 -21.889759 1.186536 4 26
-19.058043 -23.985014 -1.4270165 5 12
-18.981222 -21.628702 -1.5081131 5 11
-19.420593 -24.441292 3.833035 11 29
-21.747494 -24.780811 2.6915369 6 28
-14.008816 -19.51689 -0.9787659 113 13
-19.218483 -19.852726 -0.96490127 5 14
-19.781858 -24.895954 8.5203238 8 31
-21.878672 -24.930285 6.0476007 13 30
-19.449194 -24.477287 -0.72748494 4 16
-2.3215048 -2.6267543 -1.6346875 16 0
-14.2973 -19.772738 -0.42590854 4 17
-19.217663 -21.744549 -0.84455639 4 15
-3.7137055 -4.6404405 -1.6638192 27 1
-5.5871592 -6.3218021 -1.6873932 0 2
-19.929703 -24.903051 0 7 20
-19.247858 -19.744688 -0.32101452 4 18
-6.7470202 -8.4307022 -1.6799335 0 3
-9.0393219 -10.227881 -1.7374507 2 4
-18.625805 -25.75893 0.18474913 7 21
-19.204285 -21.729412 -0.16854551 4 19
-10.111305 -12.634527 -1.7431117 3 5
-13.641829 -13.993956 -1.8243062 2 6
-19.954294 -24.933779 0.74311781 6 24
-19.270193 -19.767601 0.32138705 6 22
-15.148972 -18.929316 -1.6953614 4 8
-14.011163 -15.853458 -1.7272052 2 7
-18.604179 -25.729021 0.92403173 5 25
-19.201683 -21.726469 0.50611979 3 23
-14.260846 -19.722322 -1.5597966 6 9
-18.204762 -18.674667 -1.5188239 4 10
-19.688896 -24.602154 1.8351002 6 27
-19.217804 -21.744709 1.1823024 4 26
-19.091719 -23.855953 -1.4232941 5 12
-19.040733 -21.544355 -1.506857 5 11
-24.236496 -30.284582 4.7626543 17 29
-21.96587 -24.854113 2.7078099 7 28
-14.123696 -19.532648 -0.98202252 113 13
-19.223484 -19.719687 -0.96169055 5 14
-19.887955 -24.850885 8.5286055 8 31
-22.012468 -24.906837 6.0605154 13 30
-19.961788 -24.943146 -0.74339694 5 16
-2.335938 -2.6236427 -1.6380684 16 0
-14.41207 -19.778383 -0.42716512 4 17
-19.220125 -21.587364 -0.84118193 4 15
-3.7234354 -4.6178021 -1.6605843 29 1
-5.6076837 -6.2983518 -1.6866088 0 2
-20.118763 -24.951277 0 7 20
-19.264048 -19.616932 -0.32008326 4 18
-6.7803559 -8.4089928 -1.6805484 0 3
-9.0714703 -10.188754 -1.7364407 2 4
-18.639999 -25.580576 0.18395871 7 21
-19.222618 -21.590164 -0.16801082 4 19
-10.165034 -12.606668 -1.7443968 3 5
-13.693027 -13.943861 -1.8243062 2 6
-20.113319 -24.944525 0.7456302 6 24
-19.275257 -19.628345 0.3202695 6 22
-15.183185 -18.830175 -1.691455 4 8
-14.047965 -15.778177 -1.7246015 2 7
-18.611233 -25.541098 0.91972631 4 25
-19.209377 -21.575293 0.50423497 3 23
-14.408261 -19.773155 -1.5679832 6 9
-18.267488 -18.602119 -1.5183588 4 10
-19.9569 -24.750534 1.8516116 6 27
-19.212326 -21.578604 1.1770918 4 26
-19.174011 -23.779594 -1.4229218 5 12
-19.10363 -21.45652 -1.5056009 5 11
-24.414619 -30.278994 4.7758164 17 29
-22.109837 -24.832985 2.714319 7 28
-14.232851 -19.532433 -0.98462784 117 13
-19.242414 -19.594902 -0.9590382 5 14
-20.051662 -24.868059 8.5596638 8 31
-22.229212 -24.967064 6.094954 14 30
-20.113319 -24.944525 -0.7456302 5 16
-2.3446257 -2.6158822 -1.6380684 15 0
-18.329433 -24.979902 -0.54081517 6 17
-19.216887 -21.440142 -0.83792377 4 15
-3.7411561 -4.6084194 -1.6616627 33 1
-5.6311579 -6.2826419 -1.6873932 0 2
-20.25938 -24.955847 0 7 20
-19.26432 -19.487518 -0.31901225 4 18
-6.7957492 -8.3711185 -1.6774739 0 3
-9.1263952 -10.182254 -1.7404813 2 4
-18.646637 -25.412199 0.18319154 7 21
-19.21669 -21.43992 -0.16733663 4 19
-10.209292 -12.575979 -1.7448254 3 5
-13.722393 -13.881381 -1.8220756 2 6
-20.246338 -24.939779 0.74749118 6 24
-19.278381 -19.501741 0.3192451 6 22
-15.187703 -18.708469 -1.6850375 4 8
-14.084247 -15.713692 -1.7226487 2 7
-18.610676 -25.36319 0.9155373 4 25
-19.214087 -21.437017 0.50248969 3 23
-14.620168 -19.924805 -1.5838447 6 9
-18.315041 -18.527239 -1.5171959 4 10
-20.129473 -24.795824 1.8599837 6 27
-19.201086 -21.422512 1.1720442 4 26
-19.227579 -23.684856 -1.4210606 5 12
-19.158684 -21.375206 -1.5043448 5 11
-24.562441 -30.25643 4.7850785 17 29
-22.287863 -24.866407 2.7260356 7 28
-14.309367 -19.501236 -0.98544198 39 13
-19.231409 -19.454224 -0.95526904 5 14
-20.192465 -24.873419 8.5845108 8 31
-22.285622 -24.863907 6.0877795 14 30
-20.299267 -25.00498 -0.74944538 5 16
-2.3537426 -2.607682 -1.6380684 16 0
-19.224632 -21.298731 -0.8350147 4 15
-3.7572198 -4.5953326 -1.6616627 30 1
-5.6530538 -6.2629476 -1.6873932 0 2
-20.379286 -24.925236 0 7 20
-19.261684 -19.349289 -0.31784815 4 18
-6.8199248 -8.3412266 -1.676244 0 3
-9.1459303 -10.132662 -1.7374507 2 4
-18.644884 -25.224724 0.18230812 7 21
-19.219048 -21.292543 -0.16670895 4 19
-10.26068 -12.549502 -1.7461104 3 5
-13.748288 -13.810817 -1.8191015 2 6
-20.401613 -24.952545 0.75000364 6 24
-19.275793 -19.363461 0.31808096 6 22
-15.209978 -18.602825 -1.6802939 4 8
-14.125654 -15.649636 -1.7210214 2 7
-18.606411 -25.172674 0.91099918 4 25
-19.216446 -21.289661 0.50060487 3 23
-14.739459 -19.941061 -1.5892171 6 9
-18.357063 -18.440554 -1.5153356 4 10
-20.268984 -24.790331 1.8648673 6 27
-19.20612 -21.278221 1.1678106 4 26
-19.267143 -23.565012 -1.4178964 5 12
-19.243885 -21.320061 -1.5051823 5 11
-24.73073 -30.247345 4.7972651 17 29
-22.3398 -24.749985 2.7218046 7 28
-19.234333 -19.321812 -0.95205826 5 14
-20.350088 -24.889526 8.6145334 8 31
-20.411737 -24.964928 -0.75037587 5 16
-2.3628302 -2.5994506 -1.6380684 17 0
-18.675343 -25.082302 -0.54584146 7 17
-19.239693 -21.166409 -0.83245474 4 15
-3.7756851 -4.5851636 -1.6627408 29 1
-5.6775179 -6.2460804 -1.6881778 0 2
-20.537355 -24.940409 0 7 20
-19.266806 -19.219795 -0.31682375 4 18
-6.8590474 -8.3295755 -1.6787037 0 3
-9.1759043 -10.094805 -1.7364407 2 4
-18.658762 -25.060034 0.18158744 7 21
-19.231371 -21.157253 -0.16617425 4 19
-10.299365 -12.507471 -1.7452537 3 5
-13.79077 -13.75712 -1.8183579 2 6
-20.554676 -24.961443 0.75242305 6 24
-19.272469 -19.225445 0.31691685 6 22
-15.246914 -18.515738 -1.6772246 4 8
-14.180192 -15.600237 -1.7210214 2 7
-18.636854 -25.030609 0.90820646 9 25
-19.212626 -21.136631 0.49858034 3 23
-14.785132 -19.857475 -1.5866587 6 9
-18.404354 -18.359447 -1.5139402 4 10
-20.418848 -24.796495 1.8706813 6 27
-19.221132 -21.14599 1.1642283 4 26
-19.341658 -23.488363 -1.417338 5 12
-19.294003 -21.226158 -1.5032982 5 11
-20.629078 -25.051796 3.9846406 12 29
-19.245052 -19.198095 -0.94926631 5 14
-20.488417 -24.880978 8.6362734 9 31
-22.429537 -24.675694 6.0798864 13 30
-2.3669941 -2.5858383 -1.6346875 15 0
-18.700392 -24.933771 -0.54402643 7 17
-19.224371 -21.001791 -0.82861477 4 15
-3.7842903 -4.5630603 -1.659506 27 1
-5.707232 -6.2349033 -1.6905313 0 2
-19.276949 -19.096123 -0.31589246 4 18
-6.8779888 -8.2934122 -1.676244 0 3
-9.2244816 -10.077346 -1.738966 2 4
-18.726925 -24.969149 0.18140146 7 21
-19.224085 -21.001478 -0.16547683 4 19
-10.335344 -12.462257 -1.7439685 3 5
-13.827389 -13.697683 -1.8168707 2 6
-19.282631 -19.101753 0.31598559 6 22
-15.270699 -18.41326 -1.6727602 4 8
-14.218411 -15.532996 -1.7190686 2 7
-18.724113 -24.965401 0.90820646 4 25
-19.21608 -20.992731 0.49676529 3 23
-15.503428 -20.671167 -1.6559888 7 9
-18.451307 -18.278229 -1.5125449 4 10
-20.574108 -24.808058 1.8769603 6 27
-19.211172 -20.987371 1.1591806 4 26
-19.410776 -23.405323 -1.4164073 5 12
-19.262793 -21.043764 -1.4951338 5 11
-20.653036 -24.903231 3.9724534 12 29
-18.798046 -25.063978 -1.2764176 8 13
-19.229591 -19.049212 -0.94521797 5 14
-20.602276 -24.842022 8.6476622 9 31
-22.635099 -24.727863 6.1121731 14 30
-20.662106 -24.914165 -0.75316751 16 16
-2.378464 -2.5802252 -1.636378 15 0
-18.823484 -24.916203 -0.54507357 7 17
-19.218983 -20.849298 -0.82524031 4 15
-3.7977278 -4.5468659 -1.6584277 29 1
-5.718329 -6.2034059 -1.6873932 0 2
-20.736622 -24.82712 0 21 20
-19.272209 -18.95859 -0.31472835 4 18
-6.9043655 -8.2663183 -1.6756293 0 3
-9.2461586 -10.030496 -1.7364407 2 4
-18.835678 -24.932344 0.18161069 7 21
-19.224085 -20.854834 -0.16484913 4 19
-10.404283 -12.456627 -1.7482524 3 5
-13.889319 -13.663296 -1.8187296 2 6
-15.55018 -18.617603 0.56445688 7 24
-19.277912 -18.964199 0.31482145 6 22
-13.98429 -16.742826 -1.5254346 3 8
-14.267146 -15.477406 -1.7184178 2 7
-18.837666 -24.934975 0.90948647 4 25
-19.221481 -20.852009 0.49502006 3 23
-15.556246 -20.591436 -1.6539421 7 9
-18.489384 -18.188503 -1.5104519 4 10
-19.2166 -20.846714 1.1551099 4 26
-13.982762 -16.740995 -1.0160536 2 12
-19.268454 -20.902966 -1.4899001 5 11
-20.655859 -24.730427 3.9563665 11 29
-22.697731 -24.623144 2.7338467 7 28
-18.813156 -24.902533 -1.2715328 8 13
-19.236128 -18.923096 -0.94228643 5 14
-20.614565 -24.680984 8.6166039 8 31
-22.766626 -24.697884 6.1243701 14 30
-13.976192 -16.73313 -0.50732255 2 16
-2.3865576 -2.5727408 -1.636378 16 0
-18.87261 -24.818748 -0.54423583 7 17
-19.205526 -20.703812 -0.82186574 4 15
-3.8169496 -4.5408106 -1.6605843 16 1
-5.7324533 -6.1796603 -1.6858244 0 2
-14.00932 -16.666103 0 3 20
-19.268749 -18.836443 -0.31370392 4 18
-6.9252124 -8.2385368 -1.6743994 0 3
-9.2722254 -9.9955816 -1.7354305 2 4
-18.867903 -24.812557 0.18116899 7 21
-19.218775 -20.718094 -0.1642447 4 19
-10.435684 -12.414748 -1.7469672 3 5
-13.906542 -13.594541 -1.8153837 2 6
-14.018395 -16.676899 0.50695038 2 24
-19.268749 -18.836443 0.31370392 6 22
-13.967492 -16.616341 -1.5179008 3 8
-14.299428 -15.414972 -1.716465 2 7
-18.828773 -24.761101 0.9052974 4 25
-19.216173 -20.715288 0.49320501 3 23
-15.606355 -20.523403 -1.6524071 7 9
-18.500742 -18.085667 -1.5067309 4 10
-14.024165 -16.683762 1.2692912 2 27
-19.211323 -20.71006 1.1508764 4 26
-13.986433 -16.638874 -1.0125172 2 12
-19.247091 -20.748619 -1.4832011 5 11
-14.019855 -16.678635 2.675276 5 29
-22.807507 -24.586794 2.737752 7 28
-18.833229 -24.76696 -1.2676249 8 13
-19.229729 -18.7983 -0.93907565 5 14
-20.682051 -24.604275 8.612463 8 31
-22.870863 -24.655092 6.1315451 14 30
-13.984945 -16.637104 -0.5057407 4 16
-2.393049 -2.5617452 -1.6346875 16 0
-18.854559 -24.61619 -0.54123402 7 17
-19.220364 -20.575289 -0.81942219 4 15
-3.8402433 -4.5362787 -1.6638192 7 1
-5.7566667 -6.1624789 -1.6866088 0 2
-14.005383 -16.543827 0 3 20
-19.276987 -18.713346 -0.31277266 3 18
-6.9411597 -8.1992292 -1.6713248 0 3
-9.3178949 -9.9747534 -1.7374507 2 4
-19.230907 -20.586576 -0.16373324 4 19
-10.512362 -12.417704 -1.7525362 3 5
-13.916762 -13.509851 -1.8105507 2 6
-19.271246 -18.707775 0.3126795 6 22
-13.991892 -16.527891 -1.5142735 3 8
-14.344985 -15.356225 -1.7154887 2 7
-19.220114 -20.575022 0.49145979 3 23
-15.653629 -20.437111 -1.6498488 7 9
-18.558031 -18.015413 -1.5062659 4 10
-19.209835 -20.56402 1.14648 4 26
-19.22669 -20.582062 -1.4760834 5 11
-14.031816 -16.575052 2.6665015 5 29
-23.086418 -24.713881 2.7608597 7 28
-19.229261 -18.667017 -0.93586493 5 14
-14.069886 -16.620022 5.8348165 3 31
-24.283798 -25.995668 6.4859776 15 30
-2.4019759 -2.5533769 -1.6346875 16 0
-19.215355 -20.426535 -0.81616402 4 15
-5.778141 -6.1423478 -1.6866088 0 2
-19.267317 -18.573776 -0.31156197 3 18
-6.9876866 -8.1960068 -1.6756293 0 3
-9.3173094 -9.9045963 -1.7308848 2 4
-19.220425 -20.431925 -0.16303582 4 19
-10.534999 -12.356725 -1.7491091 3 5
-13.958097 -13.455665 -1.8098069 2 6
-14.082589 -16.517769 0.50508934 5 24
-19.281713 -18.587654 0.31179479 6 22
-14.046908 -16.475918 -1.5139945 6 8
-14.395765 -15.303157 -1.7151632 2 7
-18.908369 -24.508757 0.90087569 23 25
-19.20138 -20.411678 0.48915607 3 23
-15.698047 -20.347584 -1.6470346 7 9
-18.597799 -17.928358 -1.5044054 4 10
-14.075525 -16.509483 1.2634772 19 27
-19.207556 -20.418243 1.1420836 3 26
-14.073735 -16.507383 -1.0104699 5 12
-19.227249 -20.439178 -1.4706404 5 11
-14.09216 -16.528996 2.6669888 5 29
-23.37195 -24.845127 2.7846181 7 28
-18.89337 -24.489315 -1.2601347 16 13
-19.239616 -18.547073 -0.93321258 5 14
-14.120293 -16.561993 5.8317113 3 31
-24.253057 -25.781773 6.453692 15 30
-14.077399 -16.511681 -0.5049032 7 16
-2.411319 -2.5445554 -1.6346875 16 0
-19.221342 -20.283409 -0.81325495 4 15
-3.8726056 -4.5086827 -1.6638192 1 1
-5.7979198 -6.1182809 -1.6858244 0 2
-14.141653 -16.464424 0 6 20
-19.283255 -18.453249 -0.31072381 3 18
-7.0048041 -8.1553459 -1.6725546 0 3
-9.3699284 -9.88766 -1.7339153 2 4
-19.220903 -20.282946 -0.16240813 3 19
-10.549126 -12.281823 -1.7439685 3 5
-13.975674 -13.374122 -1.8057176 4 6
-14.150854 -16.475138 0.50536847 5 24
-19.309261 -18.478136 0.31114289 6 22
-14.130605 -16.451561 -1.5165058 3 8
-14.440793 -15.238712 -1.7138613 2 7
-19.212795 -20.274391 0.48755041 3 23
-15.738227 -20.245785 -1.6434531 7 9
-14.136746 -13.528261 -1.1395248 3 10
-19.213541 -20.275177 1.1380129 3 26
-14.15237 -16.476902 -1.0117728 5 12
-19.244341 -20.307678 -1.4662442 5 11
-14.160413 -16.486265 2.6684515 5 29
-23.536901 -24.837421 2.7934053 7 28
-19.056597 -24.514563 -1.2650197 8 13
-19.269926 -18.440495 -0.9313978 5 14
-14.190973 -16.521847 5.8358517 3 31
-24.187696 -25.524176 6.4113607 15 30
-14.15346 -16.47817 -0.50546151 4 16
-2.419744 -2.536545 -1.6346875 15 0
-19.187721 -24.515032 -0.54339814 7 17
-19.225025 -20.153017 -0.8105787 4 15
-3.8774583 -4.4841609 -1.659506 1 1
-5.7965169 -6.0763149 -1.6795485 0 2
-14.230187 -16.456774 0 3 20
-7.0369821 -8.1380529 -1.6737845 0 3
-9.3971882 -9.850791 -1.7329051 2 4
-19.19525 -24.524651 0.18100625 14 21
-19.2356 -20.164104 -0.16196643 3 19
-10.615811 -12.276858 -1.7482524 3 5
-13.979536 -13.289289 -1.8005127 4 6
-14.252494 -16.482569 0.50704342 2 24
-14.216403 -16.440832 -1.5198539 3 8
-14.49675 -15.196509 -1.7145122 2 7
-19.231808 -24.57136 0.90809011 4 25
-19.216431 -20.144009 0.48594481 7 23
-15.802818 -20.19034 -1.6431973 7 9
-14.242683 -16.471224 1.2681284 5 27
-19.208946 -20.136162 1.1337793 3 26
-14.222615 -16.448015 -1.0128895 2 12
-19.245405 -20.174383 -1.46122 5 11
-14.25396 -16.484264 2.6757636 5 29
-23.696188 -24.840004 2.8025179 7 28
-19.231392 -24.570827 -1.2712071 8 13
-14.286122 -16.52146 5.8524165 3 31
-24.046757 -25.207495 6.3518105 14 30
-14.236799 -16.46442 -0.5064851 2 16
-2.4315357 -2.5302737 -1.636378 15 0
-19.326969 -24.507351 -0.54479432 7 17
-19.21841 -19.998816 -0.80720413 4 15
-3.8888061 -4.4641113 -1.6573493 1 1
-5.8051591 -6.0408902 -1.6756263 1 2
-14.308796 -16.425621 0 3 20
-7.04599 -8.0883656 -1.6688652 0 3
-9.4634705 -9.8477554 -1.738461 2 4
-19.324633 -24.504389 0.18137822 14 21
-19.24008 -20.021366 -0.16138524 3 19
-10.673793 -12.25286 -1.7503942 3 5
-14.00787 -13.218829 -1.7979102 4 6
-19.25885 -22.107981 0.68226141 5 24
-14.262716 -13.459322 0.22830494 3 22
-15.513672 -17.808744 -1.6515542 4 8
-14.552346 -15.143276 -1.7145122 2 7
-19.231934 -20.01289 0.48447883 3 23
-15.854463 -20.104078 -1.6408949 7 9
-14.219226 -13.418282 -1.1385947 3 10
-14.31869 -16.436979 1.2695237 5 27
-19.221689 -20.002228 1.130197 3 26
-19.237949 -22.083988 -1.3642926 5 12
-19.24725 -20.028828 -1.4557772 5 11
-26.406698 -30.313271 4.9361963 18 29
-23.880989 -24.850729 2.8135836 7 28
-19.351013 -24.53784 -1.2731611 8 13
-14.298605 -13.493189 -0.68654293 6 14
-21.67848 -24.885567 8.8433294 9 31
-24.046272 -25.022724 6.3274159 14 30
-19.216824 -22.059736 -0.68077254 4 16
-2.4449544 -2.5274079 -1.6397589 11 0
-19.398182 -24.430597 -0.54451507 7 17
-19.223467 -19.871756 -0.80464417 4 15
-3.9061282 -4.4540873 -1.6584277 1 1
-19.242346 -21.941698 0 5 20
-19.279655 -18.07317 -0.30765057 3 18
-7.0779858 -8.070899 -1.670095 0 3
-9.4740047 -9.7935057 -1.7344204 2 4
-19.398323 -24.430773 0.18130848 7 21
-19.242403 -19.891333 -0.16085052 3 19
-10.719611 -12.223379 -1.7512511 3 5
-14.037101 -13.158686 -1.7960514 4 6
-19.255596 -21.956806 0.67956287 5 24
-19.279655 -18.07317 0.30765057 6 22
-15.562119 -17.745203 -1.6504382 4 8
-14.596941 -15.089207 -1.7138613 2 7
-19.467516 -24.517918 0.91111553 4 25
-19.228676 -19.877142 0.48273358 3 23
-15.898701 -20.023254 -1.6385922 7 9
-18.747255 -17.574087 -1.4964986 4 10
-19.215061 -21.910587 1.6971945 4 27
-19.226778 -19.875181 1.1266148 3 26
-19.24258 -21.941965 -1.3594533 5 12
-19.252462 -19.901731 -1.4511715 5 11
-26.567282 -30.294189 4.9474082 18 29
-24.060284 -24.871691 2.8249748 15 28
-19.819977 -24.961817 -1.2985624 8 13
-19.2488 -18.044247 -0.92134672 5 14
-21.850046 -24.915213 8.8795643 9 31
-24.049774 -24.860826 6.3066087 14 30
-19.239775 -21.938766 -0.67900455 4 16
-2.4487028 -2.513664 -1.636378 6 0
-19.925467 -24.915579 -0.55687135 7 17
-19.231335 -19.74152 -0.80208421 4 15
-3.9165521 -4.4346499 -1.656271 1 1
-5.8297215 -5.9843774 -1.6709194 7 2
-19.247328 -21.793444 0 5 20
-19.281145 -17.948532 -0.30667272 3 18
-7.0904169 -8.028367 -1.6664054 0 3
-9.5025949 -9.7546883 -1.7334102 2 4
-19.963139 -24.962688 0.18577202 7 21
-19.236361 -19.746679 -0.16022284 3 19
-10.730622 -12.150114 -1.7461104 3 5
-14.068371 -13.096038 -1.7941924 2 6
-19.263296 -21.811523 0.67714351 4 24
-19.278217 -17.945807 0.30662617 6 22
-15.576421 -17.636934 -1.6454157 3 8
-14.657869 -15.046726 -1.7148377 2 7
-19.984993 -24.990017 0.93124616 5 25
-19.225386 -19.735413 0.48091853 6 23
-15.941076 -19.933344 -1.6357782 7 9
-18.799715 -17.500376 -1.4958009 4 10
-19.217413 -21.759573 1.6906829 4 27
-19.231897 -19.742098 1.1228697 3 26
-19.244995 -21.790804 -1.3542418 4 12
-19.260494 -19.771454 -1.446566 5 11
-26.767481 -30.308395 4.9649572 18 29
-24.06628 -24.704731 2.8155363 15 28
-19.979382 -24.982998 -1.3032845 8 13
-19.253149 -17.92247 -0.91855478 5 14
-21.975246 -24.882223 8.895093 9 31
-19.234177 -21.778555 -0.67611992 4 16
-20.096952 -24.942039 -0.55910534 7 17
-19.247555 -19.613827 -0.79975694 4 15
-3.93278 -4.4202657 -1.656271 1 1
-19.257948 -21.645056 0 5 20
-19.276299 -17.812592 -0.30555516 3 18
-7.1092868 -7.9905138 -1.6639459 1 3
-9.5216103 -9.7028017 -1.7303798 2 4
-20.119751 -24.970331 0.18637645 7 21
-19.246975 -19.613235 -0.15971141 3 19
-10.798875 -12.137444 -1.7499659 3 5
-14.101652 -13.030872 -1.7923335 4 6
-19.268684 -21.657124 0.67453808 4 24
-19.290987 -17.826166 0.30578798 6 22
-15.622396 -17.558859 -1.6434625 3 8
-14.690583 -14.970138 -1.712234 2 7
-20.141678 -24.997547 0.93427157 5 25
-19.233162 -19.599161 0.4793129 6 23
-15.996497 -19.853022 -1.6339873 7 9
-18.843203 -17.412384 -1.4941729 4 10
-19.228027 -21.611425 1.6846365 4 27
-19.234144 -19.600161 1.118799 3 26
-19.245056 -21.630566 -1.3486581 4 12
-19.26009 -19.6266 -1.441123 5 11
-22.447481 -25.229946 4.1464829 13 29
-20.12849 -24.98118 -1.3070295 9 13
-19.24531 -17.783957 -0.91506481 5 14
-22.171598 -24.919867 8.9375401 9 31
-24.205013 -24.665623 6.3008695 14 30
-19.236788 -21.621273 -0.67342138 4 16
-2.4657555 -2.4969389 -1.636378 1 0
-20.233143 -24.95023 -0.56071091 7 17
-19.23041 -19.47361 -0.79649884 4 15
-3.9466465 -4.4078894 -1.656271 1 1
-5.8978801 -5.9724684 -1.6787641 21 2
-19.26181 -21.512932 0 5 20
-19.270294 -17.695141 -0.30457732 3 18
-7.1448989 -7.9799204 -1.6664054 1 3
-9.5464668 -9.6671972 -1.7293698 2 4
-20.281233 -25.009531 0.18714362 7 21
-19.238228 -19.481525 -0.1591302 3 19
-10.839602 -12.106423 -1.7503942 3 5
-14.095582 -12.943411 -1.7863852 4 6
-19.256598 -21.507109 0.67174643 4 24
-19.285025 -17.708668 0.30481014 6 22
-15.653521 -17.482943 -1.6409513 3 8
-14.751543 -14.9381 -1.7138613 2 7
-20.272991 -24.999369 0.93671519 5 25
-19.224382 -19.467505 0.47756767 3 23
-16.03867 -19.77787 -1.6319407 7 9
-18.886045 -17.342302 -1.4932427 4 10
-19.218575 -21.464642 1.6778922 4 27
-19.219797 -19.462862 1.1144027 3 26
-19.240948 -21.48963 -1.3436327 4 12
-19.259901 -19.503473 -1.4365175 5 11
-22.394209 -25.011412 4.1221089 13 29
-14.121256 -14.299842 1.6406333 7 28
-20.252176 -24.973701 -1.3099604 9 13
-19.251026 -17.677448 -0.91269159 5 14
-22.278122 -24.881756 8.9489269 9 31
-24.439983 -24.749067 6.3417659 14 30
-19.237926 -21.486254 -0.67109507 4 16
-2.4795694 -2.4934568 -1.6397589 1 0
-20.365658 -24.935202 -0.56196749 7 17
-19.23625 -19.343987 -0.79393888 3 15
-3.9620101 -4.3940854 -1.656271 1 1
-5.9103961 -5.9434986 -1.6764107 21 2
-19.245722 -21.344555 0 5 20
-19.28466 -17.584642 -0.30383229 3 18
-7.1647725 -7.9461231 -1.6645608 1 3
-9.5969429 -9.6506929 -1.7324001 2 4
-20.408897 -24.988144 0.18751559 7 21
-19.24407 -19.351851 -0.15861876 3 19
-10.876473 -12.062602 -1.7495375 3 5
-14.140681 -12.894124 -1.7863852 4 6
-19.251225 -21.350657 0.66895485 4 24
-19.290571 -17.590033 0.30392542 6 22
-15.682394 -17.39263 -1.637603 3 8
-14.814846 -14.89782 -1.7151632 2 7
-20.420841 -25.002766 0.9395079 5 25
-19.230183 -19.337885 0.47603184 3 23
-16.082365 -19.690844 -1.6293825 7 9
-18.919914 -17.25205 -1.4911497 4 10
-19.229212 -21.326244 1.6723109 4 27
-19.222805 -19.330467 1.1106576 3 26
-19.224876 -21.321436 -1.3373045 4 12
-19.263086 -19.370974 -1.4317025 5 11
-22.406946 -24.850523 4.1084595 12 29
-14.12611 -14.205227 1.6354259 7 28
-20.397385 -24.974049 -1.3137056 9 13
-19.241726 -17.545492 -0.90934134 5 14
-22.341562 -24.778011 8.9396095 9 31
-24.553976 -24.691496 6.3489399 14 30
-19.240515 -21.338779 -0.66858268 4 16
-2.4831276 -2.4796631 -1.636378 1 0
-20.559282 -24.993683 -0.56489944 7 17
-19.230095 -19.203264 -0.79091346 3 15
-3.974735 -4.3773766 -1.6551927 1 1
-5.9283319 -5.9200602 -1.6756263 23 2
-19.258265 -21.209131 0 5 20
-19.271801 -17.450102 -0.30266818 3 18
-7.1898088 -7.918138 -1.6639459 1 3
-9.5744171 -9.561058 -1.7222986 2 4
-19.246401 -19.219547 -0.15808406 3 19
-10.950597 -12.059895 -1.7546781 3 5
-14.164937 -12.825972 -1.7837827 2 6
-19.263805 -21.215235 0.66681468 4 24
-19.289591 -17.466209 0.30294758 5 22
-15.710821 -17.30233 -1.6342547 3 8
-14.861115 -14.84038 -1.7145122 2 7
-19.238136 -19.211294 0.47456583 6 23
-16.115498 -19.591425 -1.6258008 7 9
-18.962259 -17.169819 -1.4897543 4 10
-19.223003 -21.1703 1.6653342 4 27
-19.233603 -19.206766 1.1074009 3 26
-19.242779 -21.192076 -1.333396 4 12
-19.248615 -19.221758 -1.4256316 5 11
-14.130472 -14.110757 1.6302187 22 28
-20.558065 -24.992203 -1.3184274 18 13
-19.243587 -17.424555 -0.90654933 5 14
-27.750301 -27.711582 7.1503606 17 30
-19.239613 -21.188589 -0.66597724 4 16
-2.4977808 -2.4752138 -1.6397589 1 0
-19.238367 -19.064552 -0.78823709 7 15
-3.9967144 -4.3677659 -1.6573493 1 1
-5.9454465 -5.8917308 -1.6740572 24 2
-19.258551 -21.046499 0 5 20
-19.273209 -17.317163 -0.30164376 3 18
-7.2201591 -7.8904729 -1.6639459 1 3
-9.5941467 -9.5074654 -1.7192682 2 4
-20.655348 -24.914854 0.18809679 32 21
-19.249029 -19.075117 -0.15750287 3 19
-10.980713 -12.000154 -1.7521079 3 5
-14.205193 -12.763503 -1.7826673 4 6
-19.264137 -21.052603 0.6640231 4 24
-19.305937 -17.346571 0.30215597 5 22
-15.752895 -17.215382 -1.6317434 3 8
-14.923654 -14.788821 -1.7151632 2 7
-13.940713 -16.81554 0.63568634 6 25
-19.23222 -19.05846 0.47261119 3 23
-16.17532 -19.510963 -1.6242659 7 9
-19.016167 -17.086208 -1.4888241 4 10
-19.231365 -21.01679 1.6590552 4 27
-19.239079 -19.065256 1.1034931 3 26
-19.253876 -21.041389 -1.3285567 4 12
-19.271208 -19.097095 -1.4218634 5 11
-22.435736 -24.518652 4.0806732 38 29
-14.150569 -14.022721 1.6263132 10 28
-20.630922 -24.885391 -1.316962 9 13
-19.265747 -17.310459 -0.90445536 5 14
-22.491293 -24.579367 8.927187 9 31
-27.74749 -27.496796 7.1223783 17 30
-19.24794 -21.034903 -0.66346473 4 16
-2.5029609 -2.4648113 -1.6380684 1 0
-19.249733 -18.956331 -0.786259 7 15
-4.0104156 -4.3551893 -1.6573493 1 1
