# .PCD v0.7 - Point Cloud Data file format
VERSION 0.7
FIELDS x y z intensity ring
SIZE 4 4 4 4 2
TYPE F F F F U
COUNT 1 1 1 1 1
WIDTH 1365
HEIGHT 1
VIEWPOINT 0 0 0 1 0 0 0
POINTS 1365
DATA ascii
4.427793 13.924437 -1.5738984 5 5
7.4049168 17.24371 -1.75181 1 6
5.4921336 17.271555 -1.2673357 2 8
6.4128127 17.206757 -1.4990592 2 7
7.3835626 17.193981 -1.0897579 3 10
4.5520988 17.180426 -0.72410113 2 13
1.9033083 5.9103904 -1.738222 2 1
3.3336058 8.8454752 -1.8905708 2 2
3.9786615 12.355037 -2.0193639 2 3
5.2391372 13.901662 -1.890993 5 4
4.4836721 13.923258 -1.5756119 5 5
7.4633098 17.205492 -1.7506945 1 6
5.5382733 17.198137 -1.2634293 2 8
6.4941101 17.231638 -1.5032902 2 7
4.6280622 17.212086 -1.1422818 3 9
7.5005574 17.291361 -1.0976648 3 10
4.6191845 17.179068 -0.72475249 2 13
1.9230608 5.9080439 -1.7393003 2 1
3.3558018 8.8202934 -1.8874329 2 2
4.0137901 12.331201 -2.017519 3 3
5.2884326 13.899965 -1.8930132 8 4
4.5323186 13.924229 -1.5773255 5 5
7.5508547 17.258583 -1.7585018 1 6
5.5947495 17.188238 -1.2639873 2 8
7.569253 17.300634 -1.0997578 3 10
4.6794357 17.187607 -0.72572947 2 13
1.9410838 5.8899808 -1.7360654 2 1
3.3866971 8.8042746 -1.8866485 2 2
4.0527711 12.297637 -2.0144446 2 3
5.3507366 13.910118 -1.897054 5 4
4.5907888 13.930186 -1.5798959 5 5
7.6494703 17.310936 -1.7666811 1 6
6.6112518 17.187033 -1.5032902 2 7
4.7589302 17.230204 -1.1456076 3 9
7.6697311 17.356787 -1.1051066 3 10
4.7434602 17.174192 -0.72589231 2 13
1.9630393 5.890821 -1.738222 2 1
3.4144523 8.78934 -1.885864 2 2
4.0922771 12.280381 -2.0138295 2 3
5.4011426 13.903395 -1.898569 5 4
4.641984 13.92998 -1.5816094 5 5
7.6987205 17.267288 -1.7648221 1 6
5.7196484 17.163908 -1.2651035 2 8
4.8074336 17.183575 -1.1435609 3 9
7.7158599 17.305731 -1.1034788 3 10
4.8100729 17.193008 -0.72735775 2 13
1.9821591 5.8762851 -1.7360654 2 1
3.4480839 8.7804155 -1.8866485 3 2
4.1334786 12.254062 -2.0119848 2 3
5.4636784 13.91305 -1.9026097 8 4
4.6993752 13.93171 -1.5837513 5 5
7.7701454 17.257109 -1.7666811 1 6
7.7677732 17.251841 -1.1018509 3 10
4.8785238 17.194487 -0.72817189 2 13
2.002655 5.8693318 -1.7360654 2 1
3.4772599 8.7646818 -1.885864 2 2
4.1774964 12.243302 -2.0125997 2 3
5.5180545 13.90865 -1.9046299 5 4
4.7531047 13.930282 -1.5854648 5 5
7.8319721 17.233511 -1.7670528 1 6
5.8693838 17.201845 -1.270963 2 8
4.945715 17.202444 -1.1471425 3 9
7.8576722 17.290062 -1.1060368 3 10
4.9418149 17.188879 -0.7286604 2 13
2.0233653 5.8662992 -1.7371436 2 1
3.5019324 8.742178 -1.8835106 2 2
4.214211 12.218171 -2.0107551 2 3
5.5730038 13.912374 -1.9076604 5 4
4.8018708 13.92196 -1.5863216 5 5
7.9123201 17.258127 -1.7722576 1 6
6.9009638 17.227476 -1.5150065 2 7
7.9066491 17.245758 -1.1048741 3 10
6.9114609 17.253681 -0.97407693 2 11
5.0043783 17.191582 -0.72947448 2 13
2.0438313 5.8592005 -1.7371436 2 1
3.5324292 8.7299004 -1.8835106 2 2
4.2529321 12.19219 -2.0089104 2 3
5.6304669 13.914905 -1.9106909 5 4
4.8622298 13.938909 -1.5901771 5 5
7.989243 17.266546 -1.7759755 1 6
6.0021157 17.206703 -1.2743113 2 8
5.0751224 17.210497 -1.1499567 3 9
7.9986653 17.286911 -1.1092926 3 10
5.0722752 17.20084 -0.7306143 2 13
2.0629861 5.8483987 -1.7360654 2 1
3.5613906 8.7138872 -1.8827261 3 2
4.291512 12.16609 -2.0070655 2 3
5.6819973 13.902514 -1.911701 5 4
4.9174619 13.940607 -1.5923191 5 5
8.0494547 17.23856 -1.7759755 1 6
7.0376487 17.219475 -1.5185866 2 7
8.0589485 17.25889 -1.1092926 3 10
5.133419 17.186865 -0.7307772 2 13
2.0820959 5.837534 -1.7349871 2 1
3.5902925 8.6977777 -1.8819417 2 2
4.3366127 12.158482 -2.0082955 2 3
5.7395797 13.904601 -1.9147314 5 4
4.9674335 13.927102 -1.5927474 5 5
8.1231642 17.239174 -1.7789496 1 6
6.1488976 17.239552 -1.2798918 2 8
5.2124791 17.23196 -1.1537942 3 9
8.1276579 17.248711 -1.1104554 3 10
6.1706591 17.300564 -0.8556143 2 12
5.2119002 17.230047 -0.73338246 2 13
2.101444 5.8305969 -1.7349871 2 1
3.6176088 8.6822014 -1.8811572 2 2
4.3715501 12.129159 -2.0058358 2 3
5.8024487 13.925781 -1.9202873 8 4
5.0230331 13.936742 -1.5957462 5 5
8.18542 17.222933 -1.7800649 1 6
6.2560959 17.357958 -1.2902157 2 8
7.1807704 17.23373 -1.5241194 2 7
5.2614188 17.18786 -1.1520033 3 9
8.2190981 17.293795 -1.1151065 3 10
5.2678432 17.208847 -0.73321962 2 13
2.1214793 5.8192363 -1.7339088 2 1
3.6417956 8.6508102 -1.8772348 2 2
4.4119129 12.101915 -2.0039909 2 3
5.8549867 13.908078 -1.9207923 5 4
5.0822501 13.940657 -1.5983164 5 5
8.2708817 17.239498 -1.7848979 2 6
6.3265042 17.353657 -1.2916108 2 8
5.3539367 17.263779 -1.1583991 3 9
8.3083334 17.317562 -1.1185949 3 10
5.3403482 17.219963 -0.73452222 2 13
2.1431129 5.8154097 -1.7349871 2 1
3.6750417 8.6452646 -1.8788038 2 2
4.4527659 12.082732 -2.003376 2 3
5.9174738 13.920421 -1.925338 5 4
5.1377606 13.941488 -1.6004584 5 5
8.3882771 17.328817 -1.7971666 2 6
6.3484116 17.226631 -1.2837982 2 8
7.3319826 17.247948 -1.5299777 2 7
5.4093881 17.22975 -1.1573757 3 9
8.3669977 17.284859 -1.1183622 3 10
5.4052186 17.216469 -0.73517358 2 13
2.1637282 5.8118815 -1.7360654 2 1
3.7021418 8.629425 -1.8780193 2 2
4.4941854 12.071605 -2.0039909 2 3
5.9698582 13.915308 -1.9273583 5 4
5.1908989 13.943011 -1.6026003 5 5
8.4299679 17.268696 -1.7938206 2 6
8.4435368 17.296492 -1.1209204 3 10
5.478004 17.247971 -0.73729038 2 13
2.1840014 5.8042932 -1.7360654 2 1
3.7275624 8.6056519 -1.8756659 2 2
4.5335097 12.048445 -2.0027611 2 3
6.0247006 13.908951 -1.9293785 5 4
5.2493391 13.950863 -1.605599 7 5
8.4708357 17.199865 -1.789731 2 6
6.485188 17.235306 -1.2877045 2 8
7.4634686 17.230568 -1.5329068 2 7
5.544857 17.249537 -1.1612132 3 9
8.547965 17.356474 -1.1267344 3 10
5.5222735 17.179281 -0.73517358 2 13
2.2015119 5.789433 -1.7339088 2 1
3.7544384 8.5854006 -1.874097 2 2
4.5713272 12.021463 -2.0009165 2 3
6.0859375 13.916918 -1.9334191 5 4
5.3022485 13.943605 -1.6068842 5 5
8.5680399 17.245089 -1.7975384 2 6
8.5889578 17.287189 -1.1241761 3 10
2.221333 5.7777305 -1.7328305 2 1
3.7842939 8.5679941 -1.8733125 2 2
4.615355 12.004629 -2.0009165 2 3
6.1465211 13.916298 -1.9364495 5 4
5.3618789 13.946352 -1.6094546 5 5
8.6169052 17.185091 -1.7945641 2 6
6.6169467 17.210808 -1.2893786 2 8
7.6171813 17.246008 -1.5390904 2 7
5.6681499 17.209415 -1.1612132 3 9
8.6594172 17.269875 -1.1251065 3 10
7.6239781 17.261396 -0.98894036 2 11
2.2428839 5.773531 -1.7339088 2 1
3.8141809 8.5547323 -1.8733125 2 2
4.6515093 11.973706 -1.9984568 2 3
6.2047591 13.916501 -1.9394799 5 4
5.4162922 13.942376 -1.6111681 5 5
8.7235813 17.247309 -1.8042303 2 6
8.7647104 17.328625 -1.1309204 3 10
2.2630224 5.765667 -1.7339088 2 1
3.8391883 8.5306368 -1.8709592 2 2
4.6889424 11.946361 -1.9966122 2 3
6.2598095 13.909232 -1.9415003 5 4
5.4736428 13.945599 -1.6137384 5 5
8.8724165 17.390589 -1.8224475 2 6
6.7529759 17.20505 -1.292448 2 8
7.7750268 17.276028 -1.546576 2 7
5.8136601 17.245077 -1.1663297 3 9
8.8668804 17.379738 -1.1362691 3 10
8.7874746 17.224096 -0.67523551 3 14
2.2807093 5.7545509 -1.7328305 2 1
3.8674538 8.5178595 -1.8709592 2 2
4.7270732 11.927073 -1.9959972 2 3
6.3190203 13.917303 -1.9455409 5 4
5.524251 13.938464 -1.6150236 5 5
8.8790245 17.261906 -1.8120376 2 6
8.895237 17.293423 -1.1325482 3 10
8.8902531 17.283735 -0.67872548 3 14
2.2979202 5.7394018 -1.7306738 2 1
3.8906293 8.4900427 -1.8678212 2 2
4.762804 11.895821 -1.9935375 2 3
6.3758321 13.913196 -1.9480662 5 4
5.5817447 13.941248 -1.617594 5 5
8.9612398 17.273232 -1.816499 2 6
6.8832784 17.192024 -1.2949592 2 8
7.9206758 17.284319 -1.5521088 2 7
5.955627 17.27681 -1.1711905 3 9
8.9739408 17.297712 -1.1348737 3 10
6.8955832 17.222757 -0.86417603 2 12
8.9505348 17.252596 -0.67872548 3 14
2.3193839 5.7349172 -1.7317522 2 1
3.9202399 8.4764109 -1.8678212 2 2
4.8028154 11.87546 -1.9929227 2 3
6.4376817 13.919668 -1.9521068 5 4
5.6423006 13.951175 -1.621021 5 5
9.0436335 17.284193 -1.8209603 2 6
6.0158949 17.255919 -1.1711905 3 9
9.103364 17.398348 -0.6857053 3 14
2.3379331 5.7232194 -1.7306738 2 1
3.9464889 8.4555664 -1.8662523 2 2
4.8397584 11.847645 -1.9910779 2 3
6.497982 13.922279 -1.9556423 5 4
5.6984887 13.949801 -1.623163 5 5
9.137373 17.315918 -1.8276523 2 6
7.0348225 17.221125 -1.3008187 2 8
8.0495806 17.246664 -1.5537361 2 7
9.1280289 17.29821 -1.1390598 3 10
9.1491194 17.338179 -0.68458855 3 14
2.3588364 5.72297 -1.7328305 2 1
3.9747012 8.4466753 -1.8670367 2 2
4.878459 11.836037 -1.9916928 2 3
6.5518222 13.923341 -1.9586728 5 4
5.7513752 13.953892 -1.6257333 5 5
9.1786366 17.262516 -1.8250499 2 6
8.0527964 17.113073 -1.5439724 2 7
6.16853 17.323257 -0.74917686 2 13
9.1941566 17.291706 -0.68389052 3 14
2.376833 5.7071738 -1.7306738 2 1
4.0039492 8.4285088 -1.8662523 2 2
4.9157267 11.803482 -1.9892331 2 3
6.6113205 13.917154 -1.9611981 5 4
5.8070641 13.943732 -1.6270185 5 5
9.2738447 17.28842 -1.83137 2 6
7.1917582 17.268616 -1.3080734 2 8
8.2146797 17.292305 -1.5628488 2 7
9.2870827 17.313097 -1.144176 3 10
9.2612476 17.264935 -0.68416971 3 14
2.3962426 5.6948733 -1.7295955 2 1
4.0348158 8.4137774 -1.8662523 2 2
4.9620242 11.792671 -1.990463 2 3
6.6742983 13.917873 -1.9647336 5 4
5.8689318 13.948013 -1.6300172 5 5
9.2689152 17.128216 -1.8179861 2 6
6.2958713 17.279007 -1.1786097 3 9
9.345397 17.269548 -0.6857053 3 14
2.4176116 5.6900196 -1.7306738 2 1
4.0624504 8.3961105 -1.8654678 2 2
4.9954271 11.757091 -1.9873885 2 3
6.7383914 13.926639 -1.9692793 5 4
5.9253564 13.945745 -1.6321591 5 5
9.4373817 17.295034 -1.8391773 2 6
7.3151445 17.216711 -1.3080734 2 8
8.3607836 17.279734 -1.5670798 2 7
9.4623775 17.340841 -1.150455 3 10
8.3614416 17.281096 -1.0061065 2 11
9.4266815 17.275425 -0.6872409 3 14
2.434423 5.6744657 -1.7285173 2 1
4.0865741 8.3713036 -1.8631144 3 2
5.031765 11.728683 -1.9855437 2 3
6.797411 13.924425 -1.9723097 6 4
5.9896841 13.961524 -1.636443 5 5
9.5073004 17.279428 -1.8410362 2 6
6.4177418 17.238375 -1.1788654 3 9
9.4907856 17.249414 -0.68752009 3 14
2.4557486 5.6694679 -1.7295955 2 1
4.1157727 8.356987 -1.8631144 3 2
5.0663948 11.696541 -1.9830841 2 3
6.8582511 13.925529 -1.9758452 6 4
6.0462904 13.958778 -1.638585 5 5
9.6042728 17.312307 -1.8480999 2 6
7.4875093 17.286051 -1.3172812 2 8
8.5199747 17.299623 -1.57424 2 7
9.6064644 17.316259 -1.1532457 3 10
9.5936079 17.293083 -0.69059122 3 14
2.4750884 5.6652546 -1.7306738 2 1
4.1420045 8.3440161 -1.8631144 2 2
5.1031132 11.680567 -1.9830841 2 3
6.9125481 13.925241 -1.9788758 6 4
6.0948863 13.950646 -1.63987 5 5
7.5737243 17.335573 -1.3228618 2 8
6.5531921 17.251406 -1.1827029 3 9
9.584836 17.150047 -1.144176 3 10
9.6634874 17.290777 -0.69170803 3 14
2.4942799 5.6526217 -1.7295955 2 1
4.1672873 8.3182602 -1.860761 2 2
5.1426959 11.654552 -1.9818542 2 3
6.9795337 13.931743 -1.9834214 6 4
6.1604238 13.960962 -1.6437256 5 5
9.7492628 17.295107 -1.8533049 2 6
7.6130438 17.252939 -1.3186764 2 8
8.6768103 17.319651 -1.5814 2 7
9.7593975 17.313086 -1.1574317 3 10
7.6443377 17.323858 -0.88204402 2 12
9.7424965 17.283104 -0.69282484 3 14
2.5114455 5.640799 -1.7285173 2 1
4.1913137 8.2973909 -1.859192 2 2
5.1732812 11.61938 -1.9787798 2 3
7.0346432 13.926227 -1.9859467 6 4
6.2163959 13.962254 -1.6462959 5 5
9.8400097 17.321548 -1.8596251 2 6
6.6893492 17.246172 -1.1855171 3 9
9.8522654 17.343122 -1.1616178 3 10
9.8135824 17.27503 -0.693802 3 14
2.5321021 5.631557 -1.7285173 2 1
4.2199144 8.2784796 -1.8584076 1 2
5.2142105 11.596738 -1.9781649 2 3
7.0982499 13.925098 -1.9894822 6 4
6.2773108 13.961141 -1.6488663 5 5
9.9172859 17.309559 -1.8622276 2 6
7.7578521 17.25396 -1.3228618 2 8
8.8011332 17.265755 -1.5820509 2 7
9.915761 17.306898 -1.1616178 3 10
9.9126015 17.301382 -0.69631481 3 14
2.5507619 5.6231298 -1.7285173 2 1
4.2491345 8.26793 -1.859192 1 2
5.2493696 11.572185 -1.976935 2 3
7.1534543 13.91913 -1.9920076 6 4
6.3334274 13.961981 -1.6514367 5 5
10.034368 17.380054 -1.8733807 2 6
7.8249121 17.249945 -1.324536 2 8
10.023009 17.36038 -1.1674317 3 10
6.8384914 17.272079 -0.75682986 2 13
9.9759111 17.278805 -0.69673353 3 14
2.5687728 5.6106892 -1.727439 2 1
4.2725563 8.2425995 -1.8568387 1 2
5.283154 11.539414 -1.9744754 3 3
7.2184353 13.925779 -1.9965532 6 4
6.3870955 13.950633 -1.6527219 5 5
10.08897 17.334593 -1.8722655 2 6
8.966156 17.297474 -1.5905128 2 7
10.083553 17.325285 -1.1674317 3 10
10.070355 17.302608 -0.69910675 3 14
2.5844722 5.5907464 -1.7242041 2 1
4.2972865 8.2164574 -1.8544853 1 2
5.3237572 11.516384 -1.9738604 2 3
7.2896595 13.937905 -2.0021091 6 4
6.4498696 13.952398 -1.6557205 5 5
10.156472 17.304365 -1.873009 2 6
7.974947 17.251455 -1.3290002 2 8
6.9968147 17.309021 -1.1965177 3 9
10.197521 17.374304 -1.1732455 3 10
10.143826 17.282818 -0.69980466 3 14
2.6088562 5.592164 -1.727439 2 1
4.3259397 8.2014074 -1.8544853 1 2
5.3572373 11.483404 -1.9714007 2 3
7.3475204 13.929923 -2.0046344 6 4
6.511981 13.958632 -1.6591476 5 5
10.245202 17.316795 -1.8782138 2 6
8.0823498 17.324766 -1.3368131 2 8
9.1194639 17.289293 -1.5957202 2 7
9.1242161 17.298302 -1.0249475 2 11
10.240728 17.309235 -0.70231748 3 14
2.6257474 5.5799956 -1.7263607 2 1
4.3494325 8.18009 -1.8529164 1 2
5.3919258 11.458423 -1.9701711 2 3
7.4141688 13.944019 -2.0101902 6 4
6.5683975 13.95855 -1.6617179 5 5
10.308693 17.292986 -1.8793292 2 6
8.110878 17.236488 -1.3320696 2 8
7.1601062 17.371714 -1.2041926 3 9
10.340086 17.34565 -1.1760362 3 10
10.32264 17.316383 -0.70399266 3 14
2.6419039 5.5638375 -1.7242041 2 1
4.3779583 8.1648588 -1.8529164 1 2
5.4268022 11.428821 -1.9683263 2 3
7.4740453 13.939038 -2.0132208 6 4
6.6324325 13.967873 -1.6655735 5 5
10.362837 17.24666 -1.8782138 2 6
9.2614288 17.272495 -1.5999511 2 7
7.1746774 17.236057 -1.1965177 3 9
10.427303 17.353951 -1.1790594 3 10
10.413901 17.331646 -0.70608664 3 14
2.6663039 5.5650024 -1.727439 2 1
4.3971062 8.1322737 -1.848994 1 2
5.4615426 11.399114 -1.9664816 2 3
7.5320954 13.930312 -2.0157461 6 4
6.691463 13.966153 -1.6681437 5 5
10.484874 17.312576 -1.8893672 2 6
8.2982559 17.319786 -1.3429517 2 8
7.3121467 17.394899 -1.2093092 3 9
10.494027 17.32769 -1.1797571 3 10
10.478484 17.302027 -0.70636582 3 14
2.6806798 5.545259 -1.7242041 2 1
4.4273381 8.1203213 -1.8497784 1 2
5.5012922 11.379983 -1.9664816 2 3
7.5939622 13.928328 -2.0192814 6 4
6.7505488 13.964197 -1.670714 5 5
10.555606 17.292875 -1.8912261 2 6
9.4371233 17.308928 -1.6093894 2 7
7.3213396 17.248018 -1.2008668 3 9
10.600207 17.365946 -1.1848733 3 10
8.364769 17.303377 -0.89525884 2 12
9.5186415 17.458443 -1.0421137 2 11
10.55963 17.299469 -0.70776176 3 14
2.7026794 5.5388565 -1.7252823 2 1
4.4495158 8.0902901 -1.8466406 1 2
5.5447063 11.363291 -1.9670964 2 3
7.6640935 13.935164 -2.0243323 6 4
6.8156471 13.967951 -1.6741412 5 5
10.643979 17.294767 -1.8956875 2 6
8.4482279 17.313753 -1.347137 2 8
10.680542 17.354177 -1.1867337 3 10
9.5209789 17.31143 -1.0354146 2 11
10.654407 17.31171 -0.70985574 3 14
2.715929 5.5194955 -1.7220476 2 1
4.4725151 8.0686293 -1.8450716 1 2
5.5701404 11.320019 -1.962792 2 3
7.7275729 13.940907 -2.028878 6 4
6.8671942 13.955979 -1.6754264 5 5
10.730651 17.306765 -1.9008923 2 6
8.5284948 17.332188 -1.3507643 2 8
9.5906 17.301895 -1.6149222 2 7
7.47646 17.277077 -1.206495 3 9
10.803261 17.423874 -1.193943 3 10
9.5725203 17.269281 -1.0347867 2 11
10.732819 17.310261 -0.71125174 3 14
2.734426 5.5060549 -1.7209692 2 1
4.5058846 8.0590315 -1.8466406 1 2
5.6098328 11.295989 -1.9621772 2 3
7.7844224 13.922883 -2.0303931 6 4
6.9377542 13.969899 -1.6801386 5 5
10.798228 17.274076 -1.9016358 2 6
10.784494 17.252106 -1.1848733 3 10
9.6669369 17.289867 -1.0381361 2 11
10.827971 17.321657 -0.71334571 3 14
2.7588041 5.5068088 -1.7242041 2 1
4.5301342 8.0364218 -1.8450716 2 2
5.6403742 11.25867 -1.9591026 2 3
7.8485603 13.923282 -2.0344338 6 4
6.991817 13.956265 -1.6814238 5 5
10.922142 17.337374 -1.9127891 2 6
8.6880407 17.342073 -1.3563448 2 8
9.7415628 17.281452 -1.6194786 2 7
7.6095619 17.245052 -1.2080301 3 9
10.927658 17.346128 -1.193943 3 10
9.7468424 17.290819 -1.0402296 2 11
7.6285338 17.288048 -0.76985615 2 13
10.905412 17.310816 -0.71446246 3 14
2.772799 5.4868307 -1.7209692 2 1
4.5562239 8.017148 -1.8442872 1 2
5.6796427 11.238911 -1.9591026 2 3
7.9029989 13.906146 -2.035949 6 4
7.0548444 13.960167 -1.6848508 5 5
8.7287302 17.272463 -1.3532757 2 8
9.8648653 17.358253 -1.6298933 2 7
9.8367481 17.308779 -1.0433698 2 11
10.995773 17.319889 -0.7164169 3 14
2.7936854 5.4805493 -1.7220476 2 1
4.5724835 7.9807734 -1.8395803 1 2
5.7152529 11.211973 -1.9578729 2 3
7.9653049 13.902574 -2.0394845 6 4
7.1179848 13.9638 -1.6882781 5 5
8.8342781 17.330761 -1.3602512 2 8
7.757607 17.253397 -1.2123792 3 9
11.12382 17.38714 -1.2020825 3 10
9.9070425 17.291666 -1.0444164 2 11
11.084176 17.325172 -0.71823168 3 14
2.8075142 5.4604878 -1.7188126 2 1
4.6003122 7.9647646 -1.8395803 1 2
5.7417016 11.16735 -1.9535683 2 3
8.0137825 13.874687 -2.0394845 3 4
7.1812286 13.967165 -1.6917051 5 5
11.157053 17.305725 -1.9220834 2 6
8.8782949 17.267881 -1.35774 2 8
10.00176 17.316578 -1.632497 2 7
11.240698 17.435467 -1.2081289 3 10
9.9773273 17.274277 -1.0454632 2 11
11.177073 17.336777 -0.72032565 3 14
2.8301032 5.4574943 -1.7209692 2 1
4.6280847 7.9486594 -1.8395803 1 2
5.7806458 11.147241 -1.9535683 3 3
8.0801315 13.877494 -2.0440302 3 4
7.2445836 13.97026 -1.6951323 5 5
11.247765 17.313435 -1.9272883 2 6
8.9385138 17.236788 -1.35774 2 8
7.904458 17.256887 -1.2164725 3 9
11.2471 17.31241 -1.202315 3 10
10.069719 17.294579 -1.0488126 2 11
11.270184 17.347942 -0.72241956 3 14
2.8472359 5.4485755 -1.7209692 2 1
4.6490674 7.9273124 -1.8380114 1 2
5.8156404 11.129024 -1.9535683 3 3
8.125701 13.855459 -2.0445352 3 4
7.2958083 13.961528 -1.6968458 5 5
11.352252 17.35467 -1.9358392 2 6
10.136558 17.284252 -1.6357514 2 7
11.410737 17.444077 -1.2139429 3 10
10.148256 17.304201 -1.0513248 2 11
11.329009 17.319136 -0.72269875 3 14
2.8626447 5.4317889 -1.7188126 2 1
4.6787052 7.9144135 -1.8387959 1 2
5.8489223 11.098167 -1.9517238 3 3
8.1861286 13.847507 -2.0475657 3 4
7.3611841 13.967642 -1.7007014 5 5
11.401799 17.298311 -1.9339802 2 6
9.0991459 17.265377 -1.3647157 2 8
8.0457191 17.261974 -1.2205658 3 9
11.416615 17.320787 -1.2081289 3 10
9.1208 17.306465 -0.91126555 2 12
10.243151 17.327129 -1.0548836 2 11
11.433393 17.346243 -0.72549069 3 14
2.8797789 5.4183631 -1.7177342 2 1
4.7022858 7.8912959 -1.8372269 1 2
5.883914 11.070704 -1.9504939 3 3
8.2425365 13.832485 -2.0495858 3 4
7.4248238 13.969958 -1.7041284 5 5
11.519396 17.344669 -1.9436464 2 6
10.31207 17.305542 -1.6445389 2 7
11.545487 17.383955 -1.2153382 3 10
10.317881 17.315292 -1.056349 2 11
11.520408 17.346193 -0.72716588 3 14
2.9004958 5.4116716 -1.7188126 2 1
4.7237463 7.8647456 -1.8348736 1 2
5.9206576 11.046613 -1.9498791 3 3
8.2969046 13.813833 -2.0511012 3 4
7.4885759 13.971995 -1.7075555 5 5
11.59095 17.320898 -1.9455054 2 6
9.2665834 17.289358 -1.3716913 2 8
8.2036896 17.284721 -1.226194 3 9
11.6483 17.406601 -1.2197567 3 10
10.396774 17.309988 -1.0582331 2 11
11.618688 17.362349 -0.7295391 3 14
2.9194226 5.3971062 -1.7177342 2 1
4.7579761 7.8532572 -1.8364425 1 2
5.9498692 10.999461 -1.9455745 3 3
8.3539991 13.788657 -2.0521111 3 4
7.5497417 13.957129 -1.709269 5 5
11.695247 17.332388 -1.9518256 2 6
10.471709 17.284035 -1.6497462 2 7
11.726223 17.378294 -1.2209196 3 10
10.473517 17.287018 -1.0592799 2 11
11.703161 17.344116 -0.73065585 3 14
2.9363959 5.383503 -1.716656 2 1
4.7833104 7.8332562 -1.8356581 1 2
5.9938979 10.989038 -1.9474193 3 3
8.40207 13.759418 -2.0521111 3 4
7.6193533 13.969101 -1.7139814 6 5
11.825078 17.393566 -1.9633507 2 6
9.4159918 17.263006 -1.3750397 2 8
10.575599 17.318836 -1.6565808 2 7
8.3614464 17.288809 -1.2307991 3 9
11.831702 17.403309 -1.2255707 3 10
10.567093 17.304907 -1.0626293 2 11
8.3646955 17.295527 -0.78271967 2 13
11.797331 17.352753 -0.73274982 3 14
2.9514434 5.370873 -1.7155776 2 1
4.8058481 7.814846 -1.8348736 1 2
6.0245938 10.963222 -1.9461895 3 3
8.4535809 13.746469 -2.0541317 3 4
7.678535 13.972972 -1.7174084 6 5
9.6639071 14.119059 -1.5971509 1 6
11.886333 17.366043 -1.2255707 3 10
10.648623 17.315851 -1.0653508 2 11
11.885673 17.36508 -0.73484385 3 14
2.9692397 5.3566508 -1.7144994 2 1
4.8323889 7.7938461 -1.834089 1 2
6.0628161 10.937611 -1.9455745 3 3
8.5143585 13.732255 -2.0566568 3 4
7.7412615 13.965607 -1.7199788 6 5
9.7246342 14.096662 -1.5986381 1 6
9.5874538 17.296227 -1.3828523 2 8
10.726862 17.300659 -1.6617882 2 7
8.5124292 17.299541 -1.2356598 3 9
11.995248 17.388105 -1.2302219 3 10
10.737271 17.317446 -1.067863 2 11
11.976473 17.360889 -0.73651898 3 14
2.9879215 5.3462529 -1.7144994 2 1
4.8574896 7.7736034 -1.8333046 1 2
6.0913205 10.899129 -1.9425 3 3
8.5685539 13.712544 -2.0581722 3 4
7.8054891 13.966269 -1.7234058 6 5
9.7851515 14.078979 -1.600497 1 6
12.101457 17.411705 -1.2348729 3 10
10.833644 17.337444 -1.0714217 2 11
12.05754 17.348516 -0.73777539 3 14
3.0075204 5.339674 -1.7155776 2 1
4.8811455 7.7541366 -1.8325201 1 2
6.1196637 10.8651 -1.9400405 2 3
8.6329937 13.714283 -2.0627177 3 4
7.8673639 13.968038 -1.7268329 6 5
9.8523283 14.075826 -1.603843 3 6
9.7402039 17.293154 -1.3878748 2 8
10.901711 17.318342 -1.6705755 2 7
8.6532059 17.287609 -1.2389857 3 9
12.124768 17.322416 -1.2313845 3 10
10.905962 17.325096 -1.0728873 2 11
12.165421 17.380497 -0.74084651 3 14
3.0185344 5.3157439 -1.7112645 2 1
4.9081845 7.7370496 -1.8325201 1 2
6.1556039 10.840232 -1.9394255 2 3
8.687192 13.694113 -2.0642331 3 4
7.9396424 13.981987 -1.7319736 6 5
9.9082918 14.05111 -1.6049584 3 6
12.251903 17.374622 -1.2381287 3 10
9.8473444 17.341516 -0.92894733 2 12
10.992052 17.327394 -1.0753993 2 11
12.269793 17.399994 -0.74349886 3 14
3.0341678 5.2979598 -1.7091078 2 1
4.9343948 7.7157044 -1.8317356 1 2
6.1913633 10.81074 -1.9381957 2 3
8.7437363 13.672212 -2.0657482 3 4
8.0026922 13.973499 -1.7345439 6 5
9.9850998 14.050413 -1.6090478 3 6
9.929143 17.337276 -1.3970827 2 8
11.072613 17.313778 -1.6777356 2 7
8.8256226 17.321276 -1.245893 3 9
9.946579 17.367722 -0.93229765 2 12
11.074853 17.31728 -1.0772835 2 11
12.349692 17.37772 -0.74447608 3 14
3.0546477 5.2950745 -1.7112645 2 1
4.9522405 7.6902699 -1.8293822 1 2
6.2252984 10.791234 -1.9381957 2 3
8.7995386 13.664689 -2.0687788 3 4
8.0644407 13.979292 -1.7383994 6 5
10.061637 14.064319 -1.6142526 3 6
10.011479 17.354383 -1.4009891 2 8
11.193868 17.382811 -1.6878248 2 7
12.467467 17.427229 -1.2478961 3 10
11.165971 17.339491 -1.0808423 2 11
12.450747 17.403856 -0.74726802 3 14
3.0750477 5.2877097 -1.7123427 2 1
4.9811893 7.676229 -1.8301668 1 2
6.2529926 10.752356 -1.9351211 2 3
8.8579817 13.650535 -2.0713041 3 4
8.1251822 13.971686 -1.7409698 6 5
10.133953 14.061423 -1.6179705 3 6
10.061964 17.302088 -1.3995939 2 8
8.9531584 17.287172 -1.2476838 3 9
12.553905 17.419241 -1.2504542 3 10
11.256868 17.347322 -1.083773 2 11
12.546478 17.408937 -0.74936199 3 14
3.0894821 5.2658954 -1.7091078 2 1
5.0041852 7.6471987 -1.8278134 1 2
6.2962351 10.731675 -1.9357361 2 3
8.9103336 13.61642 -2.0713041 3 4
8.2009106 13.978116 -1.7456821 6 5
10.220646 14.067515 -1.6231753 3 6
10.164675 17.325272 -1.4046164 2 8
11.3581 17.357 -1.6933575 2 7
11.360581 17.360792 -1.0873319 3 11
9.0749254 17.358736 -0.79802555 3 13
12.657879 17.422079 -0.75201434 3 14
3.107969 5.259481 -1.7101861 2 1
5.0281839 7.6314402 -1.8278134 1 2
10.629829 14.534472 -0.20963265 2 18
6.3258948 10.705037 -1.9345062 2 3
8.9661636 13.608241 -2.0743346 3 4
8.2569208 13.972829 -1.7482524 6 5
10.288299 14.067487 -1.6268932 3 6
11.447666 17.3745 -1.6985649 2 7
9.1294413 17.330198 -1.2553587 3 9
10.643213 14.552773 -1.0499908 3 10
10.607555 14.504016 -0.62749296 2 14
3.1213107 5.2381263 -1.7069513 2 1
5.060462 7.6194925 -1.8293822 1 2
10.649812 14.450335 -0.20898074 2 18
6.3610439 10.674987 -1.9332763 2 3
9.0203733 13.581897 -2.0753446 6 4
8.3284388 13.976633 -1.7525362 6 5
10.353971 14.048919 -1.6291238 4 6
10.64032 14.437456 0.20879447 9 22
10.308922 17.300243 -1.4082438 2 8
11.511273 17.332424 -1.6985649 2 7
9.2210045 17.349493 -1.2591962 3 9
10.641994 14.439727 -1.044642 2 10
11.527108 17.356266 -1.0919374 3 11
10.625072 14.416766 -0.62539893 2 14
3.1415584 5.2305021 -1.7080296 2 1
5.078301 7.5887446 -1.8262444 1 2
6.3941956 10.645943 -1.9320467 2 3
9.0765533 13.56352 -2.0773649 6 4
8.3956013 13.978161 -1.7563918 6 5
10.438555 14.060659 -1.6347004 3 6
10.68111 14.387381 0.20860821 3 22
11.61383 17.355091 -1.7047486 2 7
10.678048 14.383255 -1.0432466 2 10
11.667596 17.435436 -1.099474 3 11
10.675328 14.379592 -0.62539893 2 14
3.1597989 5.2195034 -1.7080296 3 1
5.1069541 7.5742221 -1.8270288 1 2
10.760016 14.388444 -0.20916699 2 18
6.4272275 10.616795 -1.9308168 2 3
9.1438112 13.561362 -2.0819106 6 4
8.4670029 13.986192 -1.761104 6 5
10.516198 14.062407 -1.6391618 3 6
10.745644 14.369225 0.20888761 3 22
10.472845 17.299536 -1.4141033 2 8
9.3893509 17.372486 -1.2655919 3 9
10.749719 14.374674 -1.0453397 2 10
11.714992 17.374729 -1.0982178 3 11
10.751797 14.377453 -0.62693459 2 14
3.1800041 5.21173 -1.7091078 4 1
5.128953 7.5498619 -1.82546 1 2
10.776482 14.306074 -0.20851509 2 18
6.4580698 10.584173 -1.928972 2 3
9.2089281 13.55562 -2.0859511 6 4
8.532341 13.98371 -1.764531 6 5
10.598765 14.070151 -1.6443666 3 6
11.786234 17.349436 -1.712234 2 7
10.826255 14.372149 -1.0478977 3 10
10.586992 17.351091 -0.94681537 2 12
11.806991 17.37999 -1.1011486 3 11
3.1891994 5.1880307 -1.7047946 3 1
5.1517444 7.5295758 -1.8246754 1 2
6.4952002 10.566068 -1.929587 2 3
9.2762337 13.557758 -2.091002 3 4
8.5911589 13.97567 -1.7671014 6 5
10.676651 14.07618 -1.6491997 3 6
10.659307 17.340031 -1.4233111 2 8
9.5265951 17.343164 -1.2681502 3 9
13.212237 17.419115 -1.2732447 3 10
10.67167 17.360142 -0.94923496 2 12
3.2081947 5.1763062 -1.7047946 3 1
5.1793098 7.510643 -1.8246754 1 2
6.5234756 10.525392 -1.9265124 2 3
9.350646 13.559598 -2.0965576 3 4
8.6674709 13.98465 -1.7722421 6 5
10.747522 14.062265 -1.6521739 3 6
10.764837 17.368675 -1.4288917 2 8
11.945546 17.322525 -1.7177669 2 7
13.278424 17.373745 -1.2734772 3 10
11.973393 17.362907 -1.1053355 3 11
3.2262423 5.1650767 -1.7047946 2 1
5.2054935 7.4925194 -1.8246754 1 2
6.5601735 10.502559 -1.9265124 2 3
9.4160309 13.55295 -2.1005983 3 4
8.7351913 13.98467 -1.7760977 6 5
10.828123 14.065692 -1.657007 3 6
12.060528 17.359303 -1.7255778 2 7
9.6874466 17.340765 -1.273011 3 9
13.395008 17.400066 -1.278826 3 10
12.093182 17.406303 -1.1107785 3 11
3.2371995 5.1445684 -1.7015598 2 1
5.2258153 7.4687862 -1.8231065 1 2
6.5802326 10.457327 -1.9222081 2 3
9.4813986 13.550907 -2.105144 3 4
8.8027029 13.989284 -1.7803814 6 5
10.903989 14.067477 -1.6614684 3 6
10.906188 17.33215 -1.4319609 2 8
13.504014 17.421827 -1.2837098 3 10
3.2521784 5.1305518 -1.7004814 2 1
5.2482929 7.4482107 -1.8223221 1 2
6.6169882 10.438787 -1.922823 2 3
9.5331354 13.529122 -2.1066589 3 4
8.8660746 13.986889 -1.7838085 6 5
10.982431 14.07206 -1.6663015 3 6
12.230507 17.357147 -1.7333889 2 7
9.8278503 17.321266 -1.2763368 3 9
13.588735 17.411579 -1.2862678 3 10
12.252074 17.387754 -1.114756 3 11
9.8280163 17.321558 -0.81137758 3 13
13.59609 17.421005 -0.7716977 3 14
3.2771826 5.128336 -1.7037163 4 1
5.2732844 7.4257274 -1.8215375 1 2
6.6488166 10.404475 -1.9209782 2 3
9.5964403 13.513503 -2.1096895 3 4
8.936552 13.984464 -1.7876642 6 5
11.065935 14.072413 -1.6711345 3 6
11.065591 17.316114 -1.4369833 2 8
13.687014 17.405607 -1.2895235 3 10
3.2867234 5.1039104 -1.6994032 3 1
5.2991748 7.4072733 -1.8215375 1 2
6.6786776 10.371232 -1.9191334 2 3
9.6551008 13.496058 -2.1122148 3 4
9.004694 13.983274 -1.7915195 6 5
11.13972 14.064918 -1.6748523 3 6
12.407752 17.343758 -1.7408744 3 7
9.9874525 17.312735 -1.2809417 4 9
13.829509 17.461021 -1.2971979 3 10
12.413372 17.351614 -1.1181054 3 11
10.47268 14.638883 3.2817328 3 30
3.3066173 5.0956364 -1.7004814 3 1
5.3204145 7.3823662 -1.8199687 1 2
6.7148423 10.347855 -1.9191334 2 3
9.6905546 13.446175 -2.1096895 3 4
9.0751038 13.985117 -1.7958035 6 5
11.218555 14.063305 -1.6793135 3 6
11.24921 17.335506 -1.4450752 2 8
12.498525 17.342386 -1.7451054 3 7
13.882909 17.403273 -1.2965003 3 10
12.534593 17.392433 -1.1235484 3 11
10.368041 14.386224 1.4476368 2 28
10.480004 14.541578 3.2681007 3 30
3.3192832 5.0781941 -1.6983248 2 1
5.3448682 7.3646808 -1.8199687 1 2
6.7383099 10.308987 -1.9160589 2 3
9.7257738 13.401119 -2.1076694 3 4
9.1410151 13.984902 -1.7996589 6 5
11.310025 14.081916 -1.6860056 3 6
11.343752 17.354883 -1.4498185 3 8
10.570904 14.565621 0.3141433 1 23
14.008065 17.441198 -1.3027793 3 10
10.540276 14.523419 0.73110282 1 26
11.361321 17.381763 -0.96728897 2 12
10.525752 14.503407 1.4629334 2 28
10.539729 14.522666 3.2716882 3 30
10.590479 14.485974 -0.52223331 1 15
3.3369858 5.0665793 -1.6983248 3 1
5.3728523 7.3491488 -1.8207531 1 2
6.7655511 10.272204 -1.9135994 2 3
9.7654572 13.357484 -2.106154 3 4
10.597144 14.49509 -0.10435873 1 19
9.2094545 13.982808 -1.8035144 6 5
11.381642 14.070227 -1.6893514 3 6
10.592773 14.489114 -1.4652116 2 7
10.60043 14.499585 0.31351504 1 23
10.272794 17.391136 -1.2945007 4 9
14.078892 17.404623 -1.3037095 3 10
10.576745 14.467189 0.73012584 1 26
10.594587 14.491594 -0.94079131 2 11
10.56454 14.450494 1.4613061 2 28
10.629829 14.539799 3.283885 4 30
10.605553 14.395556 -0.5203715 1 15
3.3555322 5.0543151 -1.6983248 2 1
5.3950977 7.3230915 -1.8191841 1 2
6.7965946 10.237461 -1.9117546 2 3
9.8072853 13.31202 -2.1046388 3 4
10.6241 14.420731 -0.10410301 1 19
9.2760363 13.972154 -1.8065131 6 5
11.473392 14.077815 -1.6953 3 6
11.50074 17.323143 -1.454004 3 8
10.619794 14.414886 -1.4616315 2 7
10.641637 14.444536 0.31316596 3 23
14.198086 17.421005 -1.3088257 3 10
10.613102 14.405804 0.72898608 1 26
10.60797 14.398838 1.4600042 2 28
3.3667309 5.0329652 -1.6950898 2 1
5.420629 7.304213 -1.8191841 1 2
6.8213034 10.197246 -1.90868 2 3
9.8253202 13.239467 -2.098578 3 4
10.691061 14.406038 -0.10426573 1 19
9.3535023 13.982659 -1.8120822 6 5
11.552787 14.074616 -1.6997612 3 6
10.67005 14.377726 -1.4616315 2 7
10.682465 14.394455 0.31288674 1 23
10.409307 17.337715 -1.2960358 4 9
14.299351 17.420721 -1.3125466 3 10
10.687143 14.400759 0.7306143 1 26
10.67897 14.389747 -0.93911648 2 11
10.788843 14.537799 1.4779044 2 28
14.337681 17.467417 -0.78914744 4 14
10.724842 14.351853 -0.52141875 1 15
3.3898609 5.0313559 -1.6983248 2 1
5.435431 7.2736282 -1.8160462 1 2
6.8418331 10.154901 -1.9049904 3 3
9.8501711 13.18138 -2.0945375 3 4
10.7723 14.415361 -0.10459121 1 19
9.4242678 13.987844 -1.8167945 6 5
11.632382 14.076137 -1.7045943 3 6
11.685285 17.343729 -1.4623747 3 8
10.731992 14.361421 -1.4635843 2 7
10.806752 14.461465 0.31512067 1 23
14.357047 17.373203 -1.3125466 3 10
10.736197 14.367049 -0.93995386 2 11
10.825374 14.38141 -0.52386236 1 15
3.4030774 5.0131178 -1.6961682 2 1
5.4631491 7.2577434 -1.8168308 1 2
9.8937416 13.143744 -2.0940323 3 4
9.5020781 13.997636 -1.8223635 6 5
11.712024 14.072177 -1.7090557 3 6
11.777135 17.349051 -1.4662811 3 8
10.830014 14.387574 -1.4700934 2 7
10.568649 17.334621 -1.3011523 4 9
14.501907 17.424265 -1.3202209 4 10
10.812714 14.364591 -0.94225669 2 11
10.594035 17.376261 -0.82912594 3 13
3.41838 4.9980292 -1.6950898 2 1
5.4813399 7.2292547 -1.8144774 1 2
9.9083929 13.068027 -2.0874665 3 4
9.5665941 13.987361 -1.8253622 6 5
11.802007 14.080049 -1.7150041 3 6
14.606245 17.425566 -1.3241744 4 10
3.4358044 4.9860673 -1.6950898 2 1
5.4993968 7.200726 -1.812124 1 2
6.9253697 10.050153 -1.8988414 15 3
9.6334105 13.980083 -1.8287892 6 5
11.889617 14.084418 -1.7205807 3 6
11.94777 17.338701 -1.4724197 3 8
13.255604 17.356443 -1.7828585 3 7
10.752454 17.36223 -1.3088272 4 9
14.66698 17.374477 -1.3241744 4 10
11.995712 17.408276 -0.98478472 2 12
13.293595 17.406189 -1.1478323 3 11
3.4531865 4.9740443 -1.6950898 2 1
5.5221043 7.1783772 -1.8113394 1 2
6.9649143 10.032413 -1.9000713 16 3
9.7116318 13.988843 -1.8343583 6 5
11.961921 14.070141 -1.7239267 3 6
10.844692 17.375389 -1.3126646 4 9
14.836166 17.450956 -1.3339417 4 10
12.070073 17.385994 -0.98590147 2 12
3.4652493 4.9562507 -1.6929333 2 1
5.5362735 7.1476207 -1.8082016 1 2
7.0072069 10.022215 -1.9025309 15 3
10.049719 12.974716 -2.0889816 10 4
9.7807608 13.989153 -1.8386424 6 5
12.052542 14.08183 -1.7302469 3 6
12.170689 17.407402 -1.4852549 3 8
14.956276 17.474466 -1.3395231 4 10
12.162009 17.394987 -0.98869336 2 12
13.504719 17.435303 -1.1557873 3 11
3.4891849 4.9535718 -1.6961682 2 1
5.5660176 7.1344357 -1.8097706 1 2
7.0512552 10.010618 -1.9049904 8 3
10.107156 12.955197 -2.091507 10 4
9.8547268 13.990687 -1.8433545 6 5
12.13803 14.081903 -1.7354518 3 6
12.238276 17.374596 -1.4860919 3 8
13.551342 17.369902 -1.7984805 3 7
11.005453 17.368603 -1.3177812 4 9
14.993725 17.394928 -1.3374301 4 10
12.259474 17.40469 -0.99167126 2 12
13.590073 17.419546 -1.1578808 3 11
15.015201 17.419844 -0.8031072 4 14
3.500627 4.9313273 -1.6929333 2 1
5.5872788 7.107821 -1.8082016 1 2
7.0833211 9.9782619 -1.9037608 6 3
10.157019 12.921186 -2.0920119 6 4
9.9289579 13.986906 -1.8476385 6 5
12.236563 14.091452 -1.7421438 3 6
15.169958 17.469509 -1.34743 4 10
12.355562 17.405258 -0.99427712 2 12
3.5200613 4.9222107 -1.6940117 2 1
5.6096234 7.0851984 -1.8074172 2 2
7.1158113 9.9502592 -1.9031458 2 3
10.187286 12.866985 -2.0889816 3 4
9.9985447 13.981275 -1.8514938 6 5
12.317142 14.084625 -1.7466052 3 6
12.397109 17.335262 -1.4902773 3 8
13.737158 17.350628 -1.8066169 3 7
11.172669 17.356535 -1.3228979 4 9
15.265023 17.455521 -1.3504533 4 10
12.420894 17.368521 -0.99464935 2 12
10.473377 14.645247 4.8243871 2 31
3.5327148 4.903645 -1.6918551 2 1
5.6269803 7.0563779 -1.8050637 1 2
7.1250806 9.890089 -1.8963817 2 3
10.204916 12.797227 -2.0834258 3 4
10.075174 13.985016 -1.8566345 6 5
12.408338 14.089375 -1.7525535 3 6
12.515844 17.372829 -1.4972529 3 8
13.857284 17.37739 -1.8144279 3 7
15.357522 17.438103 -1.3532439 4 10
12.53048 17.393147 -0.99855793 2 12
13.881836 17.40818 -1.1668826 3 11
10.483771 14.552177 4.8057523 2 31
3.5512202 4.8950195 -1.6929333 2 1
5.6356173 7.0193267 -1.8003569 1 2
7.1578422 9.8664055 -1.8963817 2 3
10.229911 12.741654 -2.0798903 3 4
10.151859 13.993374 -1.8622036 6 5
12.491984 14.089869 -1.7577584 3 6
13.947284 17.371752 -1.8186588 3 7
11.384434 17.423782 -1.3338985 4 9
15.526531 17.512571 -1.3630112 4 10
10.55443 14.548279 1.046735 2 27
12.609213 17.380602 -1.0002331 2 12
10.54713 14.538216 2.2053478 3 29
10.527439 14.511075 4.8036819 2 31
3.5674317 4.8832173 -1.6929333 2 1
5.6563959 6.997551 -1.7995725 1 2
10.575745 14.476425 0 2 20
7.1765289 9.8234673 -1.8926923 2 3
10.264623 12.698406 -2.0783751 3 4
10.22401 13.99496 -1.8669159 6 5
12.58107 14.095911 -1.7637068 3 6
10.589395 14.495111 0.41771296 1 24
10.60412 14.515267 -1.2570117 2 8
11.433367 17.372599 -1.3328751 4 9
15.624403 17.50568 -1.3664997 4 10
10.567277 14.464834 1.0432466 1 27
10.585503 14.489783 -0.83588511 1 12
10.560148 14.455077 2.1980357 3 29
10.577778 14.479208 4.8047171 2 31
10.584677 14.488652 -0.41752684 1 16
3.5821741 4.8676314 -1.6918551 2 1
5.6783137 6.9747205 -1.7987881 2 2
10.604877 14.410421 0 2 20
7.2084355 9.7951708 -1.8920774 2 3
10.286343 12.634801 -2.0738294 3 4
10.301091 13.997621 -1.8720566 7 5
12.667473 14.093372 -1.7689117 3 6
10.620971 14.432289 0.41696855 1 24
10.612156 14.420311 -1.2519891 2 8
14.158339 17.390806 -1.8307009 3 7
15.680079 17.445089 -1.3660345 4 10
10.605875 14.411776 1.042084 1 27
14.193534 17.434036 -1.1781871 3 11
10.631724 14.446901 2.2024229 3 29
10.6186 14.429068 -0.41687545 3 16
3.5976951 4.8513761 -1.6907767 2 1
5.6988626 6.9477973 -1.797219 2 2
10.655237 14.368244 0 2 20
7.251349 9.7782106 -1.8939222 2 3
10.335095 12.600084 -2.0743346 3 4
10.373642 13.988523 -1.8759121 7 5
12.764483 14.097039 -1.7752318 3 6
10.669027 14.386841 0.41678241 1 24
10.657804 14.371705 -1.2511522 2 8
14.330698 17.471344 -1.8446954 3 7
11.599539 17.353394 -1.337736 4 9
15.821637 17.473347 -1.3727787 4 10
10.668136 14.385638 1.043014 1 27
10.672257 14.391196 -0.83458227 3 12
14.313066 17.449846 -1.1827927 3 11
10.705884 14.43654 2.2068105 3 29
15.849524 17.504143 -0.82460529 4 14
10.676174 14.396477 -0.4170616 1 16
3.6114593 4.8363323 -1.6896983 2 1
5.7218723 6.9288597 -1.797219 2 2
10.741122 14.384111 0 2 20
7.2742772 9.7414417 -1.8914626 1 3
10.38693 12.577978 -2.0763547 3 4
10.455668 14.001842 -1.8823378 7 5
12.848725 14.095837 -1.7804366 3 6
10.740607 14.383422 0.41771296 1 24
10.710181 14.342677 -1.2517102 2 8
15.95751 17.506363 -1.3795228 4 10
10.724706 14.362127 -0.83495444 1 12
10.738215 14.380219 -0.41761991 1 16
3.6260059 4.8206177 -1.6886202 2 1
5.7309771 6.890748 -1.7925122 2 2
7.2939854 9.6970377 -1.887773 2 3
10.413016 12.520288 -2.0728192 3 4
10.528393 13.997042 -1.8866218 7 5
12.935561 14.091975 -1.7856417 4 6
10.781775 14.333902 -1.2542214 2 8
14.449298 17.373386 -1.8446954 3 7
11.791347 17.383045 -1.3461784 4 9
16.05093 17.485853 -1.3823135 4 10
13.123806 17.447533 -1.0169842 2 12
14.500485 17.434933 -1.188445 3 11
3.6451356 4.8110008 -1.6896983 2 1
5.7524753 6.8676958 -1.7917278 2 2
7.3158526 9.6557655 -1.8846985 2 3
10.428627 12.450403 -2.0672636 3 4
10.603603 13.995074 -1.8913342 7 5
13.030628 14.096455 -1.7919618 4 6
13.169179 17.381227 -1.5248765 3 8
14.607129 17.438984 -1.8570629 3 7
11.885736 17.391218 -1.3500159 4 9
16.149815 17.470772 -1.3855692 4 10
13.203928 17.427092 -1.0184733 2 12
14.60742 17.439331 -1.1922132 3 11
3.6642447 4.8013091 -1.6907767 2 1
5.7662988 6.8355808 -1.78859 2 2
7.3399234 9.6176004 -1.8822389 2 3
10.449 12.386625 -2.0627177 3 4
10.690997 14.008557 -1.8981882 7 5
13.123176 14.097523 -1.7979102 4 6
13.258824 17.373217 -1.5282248 3 8
16.284168 17.493206 -1.3918482 4 10
13.281651 17.403128 -1.0197761 2 12
3.6801455 4.7891326 -1.6907767 2 1
7.3717747 9.5932093 -1.8822389 2 3
10.500289 12.364008 -2.064738 3 4
10.764046 14.007718 -1.9029006 3 5
13.213423 14.100427 -1.8038586 4 6
14.756462 17.375618 -1.8609684 3 7
12.053884 17.382076 -1.3556441 4 9
16.366659 17.465338 -1.3939413 4 10
13.397718 17.43503 -1.0242431 2 12
14.780088 17.403439 -1.1966094 3 11
12.045825 17.370455 -0.86120325 3 13
3.6929569 4.7695217 -1.6886202 2 1
5.811326 6.7921796 -1.7878053 12 2
7.4020448 9.5598774 -1.8810091 2 3
10.524898 12.301322 -2.0606976 3 4
10.837225 13.996475 -1.906756 3 5
13.306021 14.095346 -1.8094352 4 6
13.453069 17.374886 -1.5365957 3 8
14.902985 17.418356 -1.8713831 3 7
16.499088 17.477829 -1.3997551 4 10
13.459082 17.382652 -1.024057 2 12
14.911292 17.428066 -1.2020524 3 11
16.577349 17.560732 -0.84331149 4 14
3.7080426 4.7529178 -1.6875418 2 1
7.4297385 9.5233364 -1.8791643 2 3
10.567317 12.259659 -2.0601923 3 4
10.927588 14.006832 -1.9136101 7 5
13.398759 14.089779 -1.815012 4 6
13.578018 17.404116 -1.5435712 3 8
15.055219 17.466291 -1.8824487 3 7
16.615316 17.472225 -1.4041737 4 10
13.608721 17.44347 -1.0305713 2 12
15.100248 17.518534 -1.2121009 3 11
3.722955 4.7412457 -1.6875418 2 1
5.8574209 6.7524681 -1.7878053 35 2
7.4547358 9.4937315 -1.8779346 2 3
10.584978 12.202423 -2.0561519 3 4
10.998553 14.006843 -1.9183224 3 5
13.495271 14.102287 -1.8220756 4 6
12.322974 17.378643 -1.3653657 4 9
16.755709 17.50938 -1.4113829 4 10
13.7054 17.454058 -1.0337355 3 12
3.734705 4.722178 -1.6853852 2 1
5.8835387 6.7349343 -1.78859 28 2
7.4829288 9.4614487 -1.8767047 2 3
10.637955 12.177352 -2.0581722 3 4
11.081922 14.012032 -1.9243199 3 5
13.585874 14.098107 -1.8276523 4 6
13.732754 17.363756 -1.5480357 3 8
15.20745 17.408091 -1.887005 3 7
16.87215 17.508287 -1.4160341 4 10
13.795992 17.443714 -1.035969 3 12
15.242384 17.44808 -1.2141943 3 11
3.7511668 4.7091117 -1.6853852 2 1
5.9096041 6.7172985 -1.7893744 18 2
7.5134501 9.4321785 -1.8760898 2 3
10.664673 12.122266 -2.0551417 3 4
11.148114 13.995036 -1.9273186 3 5
13.698798 14.116332 -1.8362031 4 6
13.88776 17.434311 -1.5586387 3 8
15.331327 17.426735 -1.894816 3 7
12.471987 17.331064 -1.3684357 4 9
17.066652 17.586836 -1.4271967 4 10
13.86427 17.404823 -1.0365273 3 12
15.363886 17.463743 -1.2190093 3 11
3.7668104 4.691669 -1.6843069 2 1
5.9405589 6.7004261 -1.7909431 7 2
7.5471392 9.400176 -1.8754749 2 3
10.713778 12.084195 -2.0556467 3 4
10.555697 14.550016 0.10447498 2 21
11.24659 14.007947 -1.9350296 3 5
13.78075 14.092101 -1.839921 4 6
10.551409 14.544105 0.52293146 1 25
17.108932 17.495476 -1.4251038 4 10
14.028561 17.472971 -1.0437862 3 12
15.520933 17.506243 -1.2261269 3 11
10.535391 14.522026 -0.73094004 2 13
10.588463 14.488514 -0.31323579 2 17
3.7807415 4.6754975 -1.6832286 2 1
7.5774193 9.3707027 -1.87486 2 3
10.740033 12.028964 -2.0526164 3 4
10.575737 14.4711 0.10417275 2 21
11.330424 14.011899 -1.941027 3 5
13.871769 14.086478 -1.8454976 4 6
14.02773 17.347553 -1.5600337 3 8
10.545489 14.429711 0.52013874 1 25
10.563684 14.454608 -1.1473984 3 9
17.25395 17.521009 -1.4320805 4 10
14.091976 17.427004 -1.0439723 3 12
10.564791 14.456122 -0.72947448 2 13
17.227779 17.494432 -0.85741085 4 14
10.600745 14.410078 -0.31225845 2 17
3.8002729 4.6695728 -1.6853852 2 1
5.9586496 6.6317062 -1.7830985 1 2
7.5793743 9.3131313 -1.868096 2 3
10.761856 11.977457 -2.0495858 3 4
10.604552 14.415253 0.10401001 2 21
11.404509 14.013252 -1.9461677 3 5
13.974824 14.102242 -1.8533049 4 6
14.177867 17.421007 -1.5706367 3 8
15.648866 17.416477 -1.9114143 3 7
10.600243 14.409394 0.52060419 1 25
10.597213 14.405275 -1.1461191 3 9
17.32296 17.480906 -1.4332432 4 10
14.209704 17.460127 -1.0486255 3 12
15.655377 17.423723 -1.2275923 3 11
10.595941 14.403546 -0.72849751 5 13
10.658258 14.377552 -0.31239808 2 17
3.8149214 4.6526332 -1.6843069 2 1
5.9802852 6.6069126 -1.7823141 1 2
7.6259918 9.3005695 -1.8711705 2 3
10.795036 11.926163 -2.0475657 3 4
10.657319 14.376285 0.10401001 2 21
11.478491 13.999032 -1.9500232 3 5
14.079881 14.104475 -1.8603686 4 6
15.803562 17.459494 -1.9224799 3 7
10.683943 14.412199 0.5221169 1 25
10.642811 14.356713 -1.1453518 3 9
17.491302 17.521854 -1.4418478 4 10
14.336946 17.48517 -1.0532786 3 12
15.796876 17.452106 -1.2336632 3 11
10.655807 14.374244 -0.72898608 2 13
10.713162 14.34667 -0.3125377 2 17
3.8311379 4.6392889 -1.6843069 2 1
5.9927411 6.5744038 -1.7791762 1 2
7.6508579 9.2647514 -1.8693259 2 3
10.796501 11.844423 -2.0399895 3 4
10.724187 14.361434 0.10417275 2 21
11.562738 14.001815 -1.9560206 3 5
14.177027 14.102995 -1.8666888 4 6
14.393637 17.429871 -1.5806818 3 8
15.942294 17.489674 -1.9319183 3 7
10.723907 14.361059 -1.1486775 3 9
17.569342 17.477594 -1.4432431 4 10
14.446231 17.493559 -1.0568149 3 12
15.930349 17.47657 -1.2393155 3 11
10.765696 14.417022 -0.73305678 2 13
3.8440378 4.6235976 -1.6832286 2 1
6.0092034 6.5487156 -1.7776072 1 2
7.6689029 9.2241335 -1.8662512 2 3
10.827667 11.799786 -2.0384743 3 4
11.637071 13.997035 -1.9607329 3 5
14.266206 14.097898 -1.8722655 4 6
14.464108 17.397387 -1.5820768 3 8
13.091292 17.41065 -1.3960654 5 9
17.755014 17.545546 -1.4537082 4 10
14.514375 17.457848 -1.0575594 3 12
3.8584859 4.606524 -1.6821502 2 1
6.0225177 6.5151248 -1.7744694 1 2
7.7026615 9.1959629 -1.8662512 2 3
10.865461 11.754192 -2.0374641 3 4
11.708726 13.978677 -1.96416 3 5
14.377489 14.104081 -1.8800727 4 6
16.096479 17.413078 -1.9358237 3 7
17.844862 17.505516 -1.4558011 4 10
14.642411 17.48111 -1.0622125 3 12
16.141449 17.461725 -1.2462239 3 11
3.8745413 4.5930276 -1.6821502 2 1
6.0425496 6.4911928 -1.773685 2 2
7.7219701 9.1539154 -1.8631767 2 3
10.901014 11.710385 -2.036454 3 4
11.788219 13.974201 -1.9693006 3 5
14.483689 14.109392 -1.8875083 4 6
13.226164 14.208172 -1.5846547 2 7
17.931602 17.468203 -1.4578942 4 10
14.752289 17.487921 -1.0657489 3 12
16.29484 17.504688 -1.2533417 4 11
18.019764 17.554087 -0.87849015 4 14
3.8897526 4.580153 -1.6821502 2 1
6.0586791 6.4653935 -1.7721159 1 2
7.747169 9.1222305 -1.8619468 2 3
10.918084 11.651007 -2.0324135 3 4
11.860244 13.965343 -1.9735847 3 5
14.576193 14.105595 -1.8934568 4 6
14.774652 17.397036 -1.5960281 3 8
13.303196 14.196229 -1.5882345 2 7
13.392081 17.427696 -1.4086009 5 9
18.115692 17.530821 -1.4681267 4 10
14.825726 17.457176 -1.0668657 3 12
16.415623 17.517591 -1.2581565 4 11
3.9090166 4.5687933 -1.6832286 2 1
6.0850267 6.4459972 -1.7729003 2 2
7.7805495 9.0937757 -1.8619468 2 3
10.933474 11.58206 -2.0273628 3 4
11.921688 13.933868 -1.975298 3 5
14.682364 14.104505 -1.9005206 4 6
14.905759 17.4216 -1.6032828 3 8
13.396187 14.190865 -1.5931165 2 7
18.217258 17.500275 -1.4711499 4 10
14.951947 17.475586 -1.0713326 3 12
3.9183249 4.5506511 -1.681072 2 1
6.0998473 6.4211602 -1.7713315 1 2
7.7936091 9.0513153 -1.8582574 2 3
10.958879 11.536143 -2.0253425 3 4
11.986168 13.920456 -1.9787253 3 5
14.772698 14.102304 -1.9064689 4 6
13.476403 14.18628 -1.5973475 2 7
18.373249 17.539459 -1.4792894 4 10
15.066746 17.498167 -1.0756135 3 12
16.630774 17.506809 -1.2654835 4 11
3.9349766 4.5362597 -1.681072 2 1
6.1097794 6.3845916 -1.7674091 1 2
7.8267288 9.0226908 -1.8582574 2 3
10.979136 11.472968 -2.021302 3 4
12.065771 13.909478 -1.9834374 3 5
14.887879 14.108335 -1.9146479 4 6
15.118127 17.428249 -1.6133276 3 8
13.553111 14.162718 -1.6002766 2 7
13.674919 17.415226 -1.41909 5 9
18.553345 17.581873 -1.4885917 4 10
15.180521 17.500177 -1.0791498 3 12
16.730726 17.483259 -1.2682049 4 11
3.9457178 4.516696 -1.6789154 2 1
6.1347489 6.3660517 -1.7681937 1 2
7.852973 8.9893637 -1.8570276 2 3
10.999841 11.414576 -2.0177662 3 4
12.11163 13.864285 -1.9830091 3 5
14.98344 14.099956 -1.9205964 4 6
15.212993 17.41444 -1.616955 3 8
13.643959 14.158386 -1.6051584 2 7
18.573887 17.478693 -1.4853357 4 10
15.246767 17.453102 -1.079522 3 12
16.844313 17.479404 -1.2721825 4 11
3.9657629 4.5093699 -1.681072 2 1
6.1503654 6.3400402 -1.7666247 1 2
7.8775225 8.9573345 -1.8557978 2 3
11.023822 11.363792 -2.0152409 3 4
12.194313 13.865849 -1.9890065 3 5
15.0854 14.101861 -1.9276602 4 6
15.339177 17.441795 -1.6242096 3 8
13.749134 14.173151 -1.611993 2 7
18.754274 17.531532 -1.4951032 4 10
15.35998 17.46545 -1.0834306 3 12
16.974503 17.49799 -1.2776254 4 11
18.780447 17.555998 -0.89775467 5 14
3.9771566 4.489038 -1.6789154 2 1
6.1680799 6.3118434 -1.7650557 1 2
7.9024391 8.9195251 -1.853953 2 3
11.054308 11.311957 -2.0132208 3 4
12.255606 13.832968 -1.9907202 3 5
15.204131 14.108779 -1.936211 4 6
13.837214 14.159726 -1.6162239 2 7
13.96396 17.404951 -1.4300907 5 9
18.909147 17.546875 -1.5023124 4 10
15.498087 17.492773 -1.0886422 3 12
3.9928012 4.4751282 -1.6789154 2 1
6.1873236 6.2874808 -1.7642713 1 2
7.9229989 8.8800907 -1.8514934 2 3
11.057544 11.236537 -2.0066547 3 4
12.311756 13.799006 -1.9920052 3 5
15.306004 14.104204 -1.9429029 4 6
15.556575 17.435797 -1.6339757 3 8
13.925703 14.151125 -1.6207803 2 7
19.07012 17.572769 -1.5102193 4 10
15.604271 17.489254 -1.0918063 3 12
4.0024705 4.4561329 -1.6767588 2 1
6.1915755 6.2502093 -1.7595644 2 2
7.9471188 8.8478889 -1.8502635 2 3
11.089158 11.194172 -2.0056446 3 4
12.370733 13.772901 -1.9941472 3 5
15.414381 14.109845 -1.9507102 4 6
15.670299 17.446457 -1.6398352 3 8
14.017444 14.150188 -1.6259878 2 7
19.17247 17.549883 -1.5137076 4 10
15.651499 17.425528 -1.0910618 3 12
17.345158 17.509415 -1.2916515 4 11
4.0239434 4.4471464 -1.6789154 2 1
6.2338338 6.2469106 -1.7650557 2 2
7.9609289 8.7981892 -1.8459592 2 3
11.141318 11.164689 -2.0076649 3 4
12.429131 13.736317 -1.9954323 3 5
15.521994 14.104146 -1.957774 2 6
15.862639 17.530931 -1.6532284 4 8
14.122712 14.152337 -1.6321715 2 7
14.254255 17.390532 -1.4410914 5 9
19.280991 17.519779 -1.5171959 4 10
17.459999 17.496624 -1.2954197 4 11
14.322331 17.473585 -0.92047316 4 13
4.0342555 4.4273777 -1.6767588 2 1
6.2389226 6.2085114 -1.760349 2 2
7.9889331 8.7674227 -1.8453443 2 3
11.143662 11.089343 -2.0010989 3 4
12.506474 13.72518 -2.0001447 3 5
15.639144 14.111238 -1.9663248 2 6
15.964057 17.519691 -1.6574137 4 8
14.225724 14.156382 -1.6383553 2 7
14.393655 17.436094 -1.4490221 5 9
19.454695 17.55402 -1.5260332 5 10
15.977632 17.53459 -1.1050211 3 12
17.5776 17.491919 -1.2996066 4 11
4.0496864 4.4132671 -1.6767588 2 1
6.2577672 6.1839361 -1.7595644 2 2
8.0088015 8.7278318 -1.8428847 2 3
11.162549 11.03085 -1.9975634 3 4
12.567755 13.696089 -2.0022867 3 5
15.756533 14.117685 -1.9748757 2 6
16.000837 17.437393 -1.6549026 4 8
14.331771 14.16268 -1.6448643 2 7
19.575336 17.539291 -1.5306842 5 10
16.04685 17.487537 -1.1055795 3 12
17.743683 17.534338 -1.3073523 4 11
