# .PCD v0.7 - Point Cloud Data file format
VERSION 0.7
FIELDS x y z intensity ring
SIZE 4 4 4 4 2
TYPE F F F F U
COUNT 1 1 1 1 1
WIDTH 1302
HEIGHT 1
VIEWPOINT 0 0 0 1 0 0 0
POINTS 1302
DATA ascii
-7.3585734 12.776308 -1.3763158 1 6
-11.640872 16.29583 0.46600726 2 24
-7.6116462 13.215705 0.17754981 7 22
-10.302867 14.422783 -1.2394331 18 8
-5.7525749 8.9468145 -0.86832178 12 7
-5.7621803 8.9617538 0.18597284 6 23
-7.0176263 8.8731155 -0.72502273 22 9
-7.6730266 13.322276 -0.89534098 10 10
-10.454466 14.635004 1.0474327 2 27
-5.7582817 8.9556904 0.4337768 11 26
-8.1405935 11.395859 -0.65236634 4 12
-5.7616405 8.9609146 -0.55832005 12 11
-10.195655 14.272698 2.1536753 9 29
-7.5676222 13.139268 -0.52949518 13 14
-10.218658 14.304901 4.7105069 20 31
-9.3492937 14.540689 3.1518695 31 30
-8.0519123 11.271716 -0.32233408 9 16
-5.7394843 8.9918604 -0.31045419 3 15
-3.4543338 4.8697138 -1.6713673 2 1
-4.6997452 7.3629355 -1.7470129 0 2
-8.1161757 11.4417 0 1 20
-7.5141945 13.147113 -0.17629258 11 18
-5.5797176 7.865953 -1.5003799 2 3
-5.781353 9.0574541 -1.3677375 13 4
-5.767642 9.0359745 -0.062303718 3 19
-7.5517774 10.646046 -1.4059701 3 5
-7.3122158 12.793723 -1.3755723 1 6
-11.61685 16.376741 0.46721694 2 24
-7.5896139 13.27907 0.17806202 7 22
-8.1679726 11.514721 -0.98719358 24 8
-5.7614861 9.02633 -0.87417996 10 7
-11.511943 14.655367 0.54236394 1 25
-5.7690134 9.0381231 0.18715961 9 23
-6.9733696 8.8775015 -0.72348773 22 9
-7.6288085 13.347646 -0.89534098 7 10
-10.392017 14.650046 1.0460373 2 27
-5.76511 9.0320072 0.43654492 12 26
-5.7619843 9.0271111 -0.56125087 9 11
-10.173539 14.342049 2.1590376 26 29
-5.7829366 9.0599356 0.87743455 1 28
-6.9547272 8.8537683 -0.45868969 34 13
-7.5458317 13.202466 -0.53103071 11 14
-10.15105 14.310345 4.7011895 20 31
-9.2798548 14.538442 3.144695 35 30
-8.0283747 11.317924 -0.3228924 7 16
-5.7401557 9.0625048 -0.31219962 10 15
-3.4439685 4.8911901 -1.6746023 2 1
-4.6614242 7.3594136 -1.7423062 0 2
-7.4722037 13.180218 -0.1763857 8 18
-5.5385747 7.8659897 -1.4966904 2 3
-5.7900453 9.1412697 -1.3773339 13 4
-6.9490857 8.9104366 0.065674625 2 21
-7.5122833 10.669088 -1.4055418 3 5
-7.2675147 12.819167 -1.3755723 1 6
-7.5432172 13.305479 0.17806202 4 22
-8.1323271 11.549685 -0.98775166 19 8
-5.7683449 9.1070099 -0.88003826 12 7
-11.519732 14.771128 0.54515666 1 25
-5.7716713 9.1122618 0.18827656 8 23
-6.9300661 8.8860483 -0.72220862 25 9
-7.5998969 13.405457 -0.897434 2 10
-5.767766 9.1060963 0.43915018 10 26
-5.7646394 9.10116 -0.56460035 8 11
-9.8537035 13.994418 2.1015153 21 29
-5.7704778 9.1103773 0.8803637 1 28
-6.9114909 8.8622313 -0.45787552 36 13
-7.5351906 13.291321 -0.53354353 6 14
-10.081018 14.317255 4.6918716 20 31
-9.2016792 14.527526 3.1353679 24 30
-5.9052811 8.3867931 -0.23867981 7 16
-6.8713789 8.8777113 -0.19595562 39 17
-5.7451863 9.1444254 -0.31429413 8 15
-3.4260166 4.9037809 -1.6746023 2 1
-4.6469369 7.3963776 -1.7470129 1 2
-7.4963565 13.336527 -0.17810859 3 18
-5.5142326 7.8927197 -1.4979203 2 3
-5.7839413 9.20611 -1.3838998 12 4
-5.7645445 9.1752367 -0.062977903 2 19
-7.2126713 12.831832 -1.3740852 1 6
-7.5237942 13.38534 0.17876048 4 22
-5.8732023 8.4065256 -0.71709657 17 8
-5.7709794 9.1854792 -0.885571 15 7
-11.526692 14.892301 0.54806566 3 25
-6.8827887 8.8924522 -0.72067362 34 9
-8.3372822 14.832591 -0.99092156 2 10
-5.7683682 9.1813231 0.44175544 10 26
-5.7609916 9.1695814 -0.56753117 6 11
-9.7682323 13.981623 2.094203 15 29
-5.7455287 9.1449699 0.88166547 1 28
-6.8740683 8.8811855 -0.4575499 41 13
-7.3845654 13.137643 -0.5262844 2 14
-10.010769 14.328773 4.6835895 22 31
-9.1232452 14.521172 3.1267581 23 30
-5.8653383 8.3952703 -0.23830761 15 16
-6.8281655 8.8857841 -0.19560657 41 17
-5.7449613 9.2153158 -0.31603956 8 15
-3.4066846 4.9125438 -1.6735239 2 1
-4.5941162 7.3692808 -1.7368147 1 2
-5.8421388 8.4245434 0 20 20
-8.9143915 15.989716 -0.21312496 2 18
-5.4798932 7.902174 -1.4960755 2 3
-5.7853594 9.280117 -1.3919809 16 4
-6.8632121 8.9313917 0.065465406 2 21
-5.7769217 9.2665825 -0.063466102 0 19
-5.8380008 8.4185762 -1.1035281 10 5
-7.1620207 12.846493 -1.3729699 1 6
-5.8451157 8.4288359 0.23867981 20 24
-8.9397125 16.035131 0.21373029 3 22
-5.8483725 8.4335327 -0.71765459 18 8
-5.7705197 9.2563133 -0.89045286 13 7
-11.528239 15.002191 0.55062562 3 25
-6.8541403 8.9195862 -0.72092944 32 9
-8.4157391 15.095284 -1.0065027 5 10
-5.8368077 8.4168558 0.59650636 21 27
-5.7743454 9.2624502 0.44468638 11 26
-5.8540263 8.4416857 -0.47852609 19 12
-5.7712154 9.2574301 -0.57171804 7 11
-9.6990108 13.986271 2.0898156 12 29
-5.7093554 9.1582022 0.88101453 1 28
-6.8381567 8.8987856 -0.45722422 40 13
-9.9254675 14.312828 4.6670256 20 31
-9.0496044 14.516193 3.1188657 23 30
-5.8587885 8.4485521 -0.23923814 32 16
-6.7922525 8.9032068 -0.19546695 45 17
-5.7422032 9.2829199 -0.31766862 7 15
-3.3851464 4.9180608 -1.6713673 2 1
-4.5559826 7.3652606 -1.7321081 1 2
-5.8081574 8.4382973 0 20 20
-8.4617538 15.303185 -0.20357928 2 18
-5.4500327 7.9180012 -1.4954606 2 3
-5.7905016 9.3610001 -1.4010723 16 4
-6.8344173 8.9584761 0.065488651 2 21
-5.8288689 8.4683876 -1.1073835 3 5
-7.1017137 12.843534 -1.3699957 2 6
-5.8088527 8.4393072 0.23840065 20 24
-8.9127121 16.118748 0.21442875 3 22
-5.8188953 8.4538975 -0.71765459 21 8
-5.7780199 9.3408222 -0.89663655 13 7
-11.521874 15.102741 0.55283654 3 25
-5.7753191 9.3364553 0.19162743 10 23
-6.8326454 8.9561539 -0.72195274 31 9
-5.7938046 8.4174452 0.59511101 17 27
-5.7735133 9.3335361 0.4471288 9 26
-5.8109279 8.4423227 -0.47740933 19 12
-5.7640796 9.318285 -0.57423013 7 11
-9.6343699 13.997153 2.0864034 17 29
-5.6878371 9.1950302 0.88264185 1 28
-6.809474 8.9257812 -0.45738703 38 13
-9.8557243 14.318746 4.6577077 20 31
-8.9843836 14.52427 3.1138434 20 30
-5.8111205 8.4426022 -0.23849373 21 16
-6.7771859 8.9448071 -0.19588582 39 17
-5.7490482 9.3632412 -0.31976315 8 15
-3.3731666 4.9356189 -1.6735239 2 1
-4.5274305 7.3736424 -1.7305391 2 2
-5.7485471 8.4112759 0 18 20
-8.4263535 15.35921 -0.20395179 2 18
-5.4215174 7.9327664 -1.4948457 2 3
-5.7822676 9.417345 -1.406628 12 4
-6.8070903 8.9842768 0.065511897 2 21
-5.7827797 9.4181786 -0.064233281 10 19
-5.7626085 8.4318504 -1.100101 3 5
-7.0514245 12.853046 -1.3685086 2 6
-5.7582726 8.4255066 0.23747014 19 24
-8.6187363 15.709877 0.20860821 3 22
-5.7503047 8.4138479 -0.71263212 17 8
-5.7824774 9.4176865 -0.90216935 13 7
-11.539343 15.230097 0.55609465 1 25
-5.7819963 9.4169025 0.19288401 11 23
-6.8077326 8.9851236 -0.72246444 25 9
-7.1987877 13.121654 -0.87162024 7 10
-5.7343168 8.3904543 0.59185529 19 27
-5.7822657 9.4173412 0.45022255 9 26
-5.749084 8.4120617 -0.47461748 17 12
-5.7686815 9.3952169 -0.57778901 5 11
-9.5610199 13.989688 2.0805535 17 29
-5.6468854 9.1968527 0.88101453 1 28
-6.789495 8.9610538 -0.45803839 31 13
-7.2450485 13.205976 -0.52600521 2 14
-9.7907505 14.32583 4.6494255 19 31
-8.9073477 14.507035 3.1037989 13 30
-5.7469916 8.4090004 -0.23700488 18 16
-6.7555346 8.9811964 -0.19616506 37 17
-5.7537699 9.4447145 -0.32185766 6 15
-3.353754 4.9441772 -1.6724457 2 1
-4.5057435 7.396101 -1.7321081 2 2
-5.7011847 8.40481 0 18 20
-8.3765078 15.395561 -0.20404492 2 18
-5.387135 7.9418311 -1.4930011 2 3
-5.8154182 9.5459099 -1.4227904 4 4
-6.7973251 9.0367546 0.065721124 3 21
-5.7852435 9.4963779 -0.064628489 10 19
-7.0084157 12.881083 -1.3688804 2 6
-5.7108669 8.4190836 0.23672572 21 24
-8.5638409 15.739869 0.20860821 3 22
-5.7052174 8.4107552 -0.71067899 17 8
-5.7744555 9.4786711 -0.90607482 12 7
-11.536576 15.337388 0.55853826 1 25
-5.786541 9.4985085 0.19414057 12 23
-6.7955203 9.0343552 -0.72451103 20 9
-7.1605706 13.160734 -0.87255049 7 10
-5.7049913 8.4104214 0.59185529 14 27
-5.7826252 9.4920807 0.45282784 9 26
-5.708468 8.4155474 -0.47368684 16 12
-5.7690992 9.4698782 -0.58113849 6 11
-9.4853811 13.983554 2.0747037 17 29
-6.7821956 9.0166407 -0.45966667 38 13
-8.4331093 15.499591 -0.61618549 2 14
-9.7189903 14.327947 4.6390729 19 31
-8.8382254 14.507795 3.0973415 13 30
-5.7131109 8.4223919 -0.23681878 15 16
-6.7376842 9.0195675 -0.1965141 40 17
-5.7575908 9.5219069 -0.32383585 7 15
-3.3373415 4.9552703 -1.6724457 2 1
-4.458869 7.3740797 -1.7234788 2 2
-5.7000985 8.4634809 0 11 20
-8.1943178 15.180393 -0.20083198 2 18
-5.3629799 7.9629288 -1.4936159 2 3
-5.8946028 9.748498 -1.4500643 4 4
-6.7912607 9.0912895 0.065953605 1 21
-5.793046 9.5805426 -0.06507019 11 19
-5.6961956 8.4576855 -1.0983875 11 5
-6.9580979 12.890232 -1.3673933 2 6
-5.7030234 8.467824 0.23756321 10 24
-9.2069712 17.056383 0.22565077 3 22
-5.7040453 8.4693413 -0.71402723 11 8
-5.7883763 9.5728207 -0.91323495 15 7
-11.552655 15.465248 0.56179637 1 25
-5.7860537 9.5689793 0.19518772 12 23
-6.7870269 9.0856218 -0.72681355 20 9
-7.1586223 13.261714 -0.87766671 5 10
-5.7306085 8.5087824 0.59743661 10 27
-5.788342 9.5727634 0.45575875 10 26
-5.7140126 8.4841413 -0.47647873 11 12
-5.7686696 9.5402288 -0.58427864 10 11
-9.4190006 13.985291 2.0703166 20 29
-5.5593996 9.1941376 0.87710911 3 28
-6.7498679 9.0358772 -0.4595038 31 13
-8.3816681 15.527469 -0.61618549 2 14
-9.6498451 14.328047 4.6287198 21 31
-8.7737799 14.510081 3.0916016 16 30
-5.7298298 8.5076256 -0.23867981 11 16
-6.7077665 9.0517979 -0.19665372 33 17
-5.7559361 9.6022434 -0.32581398 11 15
-3.3204303 4.9712505 -1.6735239 2 1
-4.4224572 7.3776894 -1.720341 5 2
-5.723103 8.5684614 0 12 20
-5.3279753 7.9768872 -1.492386 2 3
-5.8204093 9.7097998 -1.440973 13 4
-5.7767844 9.637023 -0.065302663 8 19
-5.7144852 8.5555582 -1.1082404 11 5
-6.9085546 12.916853 -1.3673933 2 6
-5.7215543 8.566143 0.23970342 10 24
-9.1357565 17.08103 0.22551109 3 22
-5.7291083 8.5774517 -0.72128195 11 8
-5.7802758 9.6428471 -0.91779131 10 7
-11.533661 15.564102 0.56377459 1 25
-5.767777 9.6219969 0.195816 11 23
-8.156661 15.250424 -1.0072005 2 10
-5.7400374 8.5938148 0.60185516 11 27
-5.7741489 9.6326265 0.4575499 6 26
-5.7435355 8.5990524 -0.4816902 10 12
-5.7628036 9.6136999 -0.58741885 7 11
-9.3497992 13.998243 2.0669043 14 29
-5.5138092 9.1983185 0.87548178 3 28
-6.7079868 9.0520954 -0.45901537 31 13
-8.3219891 15.559537 -0.61618549 2 14
-9.5690079 14.326437 4.6162968 21 31
-8.6249361 14.388404 3.0585978 13 30
-5.7415442 8.5960703 -0.24054086 12 16
-5.738008 9.6408949 -0.32651216 9 15
-3.3047945 4.981658 -1.6735239 2 1
-4.3932371 7.3814354 -1.7179875 7 2
-5.7248998 8.6297321 0 9 20
-8.0056248 15.081784 -0.19878314 4 18
-5.3007016 7.9902945 -1.4917712 2 3
-5.8040791 9.7519064 -1.4445086 6 4
-5.7567067 9.6723118 -0.065418907 8 19
-5.7425394 8.6563225 -1.1189501 14 5
-6.8623352 12.927941 -1.3662779 2 6
-5.732193 8.6407261 0.24128529 8 24
-9.0557899 17.060186 0.22485916 3 22
-5.7308064 8.6386356 -0.72490925 11 8
-5.7581062 9.6746635 -0.91909313 11 7
-5.7620635 9.6813126 0.19665372 7 23
-10.58331 14.375854 -1.1440725 28 9
-5.7549505 8.6750307 0.60627377 9 27
-5.7520318 9.6644573 0.4582012 7 26
-5.7341604 8.643692 -0.48317921 6 12
-5.7550426 9.6695166 -0.58972162 9 11
-9.2860193 13.997775 2.0625172 17 29
-5.480804 9.208745 0.8748309 2 28
-7.9900451 15.052433 -0.59510618 2 14
-9.4983177 14.317795 4.6038733 19 31
-8.6139011 14.472918 3.0707948 9 30
-5.7542996 8.6740494 -0.24221583 11 16
-5.7429471 9.7262802 -0.32872304 6 15
-3.2873867 4.9931631 -1.6735239 2 1
-4.3574743 7.3798375 -1.7140653 6 2
-5.7299371 8.7031164 0 9 20
-7.9510722 15.106096 -0.19873658 6 18
-5.2727799 8.0087481 -1.4917712 2 3
-5.8264952 9.8677769 -1.4586506 3 4
-30.851616 42.215176 0.30389336 24 21
-7.7118969 13.060902 -0.088155113 5 19
-5.7450943 8.7261391 -1.1253759 10 5
-6.8208795 12.958864 -1.3670214 2 6
-5.7393818 8.7174625 0.24286719 8 24
-8.0218649 15.240594 0.20050603 2 22
-5.7357278 8.7119122 -0.72937369 10 8
-11.791135 16.134157 0.58157796 1 25
-8.9614258 15.177109 0.30765101 12 23
-10.50716 14.377257 -1.1412585 31 9
-7.0732961 13.438426 -0.88441086 5 10
-5.7531829 8.7384243 0.60929698 11 27
-8.9533291 15.163397 0.71742517 9 26
-5.7413087 8.7203884 -0.48634332 7 12
-7.7197361 13.074178 -0.79571593 6 11
-9.2152729 13.996942 2.0576422 17 29
-5.4425468 9.2175207 0.87385452 2 28
-8.1830006 11.197041 -0.5650171 4 13
-9.4376631 14.334726 4.5986972 21 31
-8.2352037 13.947177 2.9531288 8 30
-5.7569737 8.7441816 -0.2436116 13 16
-10.755998 14.831564 -0.3197979 2 17
-7.6406541 13.049257 -0.4400816 8 15
-3.2711692 5.0084043 -1.6746023 2 1
-4.3264313 7.3889899 -1.7124963 7 2
-5.7395573 8.7876902 0 10 20
-7.9344969 15.209607 -0.19971442 4 18
-5.2369056 8.0180931 -1.4899265 2 3
-5.7902865 9.8890667 -1.4586506 3 4
-7.6073809 12.992431 -0.087504178 6 19
-5.7522168 8.8070726 -1.1330869 11 5
-6.7751756 12.987309 -1.3673933 2 6
-5.7423773 8.7920084 0.24435604 9 24
-5.738668 8.7863293 -0.73383808 11 8
-8.14431 13.909436 -1.3158264 2 7
-11.734263 16.180504 0.5816943 1 25
-8.91786 15.230561 0.30806988 9 23
-10.433299 14.38659 -1.138956 34 9
-7.9622464 15.2628 -1.0025494 8 10
-5.7516847 8.8062582 0.61255276 11 27
-8.9138441 15.223702 0.71872777 11 26
-5.7486348 8.801589 -0.48969355 9 12
-7.6737804 13.105833 -0.79592532 10 11
-9.1421947 13.997383 2.0527673 19 29
-5.3986521 9.2202053 0.87222719 2 28
-8.1278248 11.207546 -0.56404012 10 13
-7.9523888 15.243904 -0.60041094 15 14
-9.3660412 14.340107 4.5893793 21 31
-5.7533112 8.8087492 -0.24482128 12 16
-10.67846 14.833312 -0.31902999 2 17
-7.5950599 13.075849 -0.4400816 8 15
-3.2515726 5.0165591 -1.6735239 2 1
-4.2927341 7.39048 -1.7093585 7 2
-5.7414846 8.8580198 0 10 20
-5.2067375 8.0330076 -1.4893116 2 3
-5.7517476 9.9023552 -1.4576404 3 4
-7.561985 13.018906 -0.087504178 8 19
-5.7582145 8.883831 -1.1403695 11 5
-6.7261434 13.003802 -1.3666496 2 6
-5.7529812 8.8757572 0.24612404 10 24
-5.7405205 8.8565331 -0.73802352 11 8
-8.0856981 13.920543 -1.3141991 2 7
-11.838901 16.445265 0.58972335 1 25
-10.355032 14.384043 -1.135886 28 9
-7.9015856 15.276311 -1.0016191 8 10
-5.7556639 8.8798962 0.61627364 9 27
-8.8506165 15.237446 0.71791369 4 26
-5.7483053 8.8685436 -0.49229932 8 12
-7.6982093 13.253432 -0.80325234 8 11
-9.0716887 13.995893 2.0478926 16 29
-5.3604288 9.228651 0.87125081 1 28
-8.0886555 11.235848 -0.56404012 10 13
-7.9046435 15.282223 -0.60082978 7 14
-9.2886114 14.330564 4.5759206 23 31
-8.1094952 13.961514 2.9438016 27 30
-5.7638559 8.8925352 -0.24658929 9 16
-7.5254145 13.06071 -0.43868527 4 15
-3.2361243 5.0311193 -1.6746023 2 1
-4.2610345 7.395225 -1.707005 7 2
-5.7343292 8.9150152 0 3 20
-5.1765242 8.0478096 -1.4886966 5 3
-5.7151637 9.9189348 -1.4571354 3 4
-8.2745314 11.579082 0.082715161 1 21
-7.5324669 13.07295 -0.08769016 6 19
-5.7551351 8.947361 -1.1459385 11 5
-6.6716204 13.009485 -1.3647908 2 6
-5.7500844 8.9395084 0.24733372 7 24
-5.7441058 8.9302139 -0.74248785 7 8
-7.5812626 13.157638 -1.2396692 2 7
-7.6272874 13.237515 0.26667276 2 23
-8.2136335 11.493863 -0.90538305 18 9
-7.9119859 15.428164 -1.0097586 2 10
-5.7548728 8.9469538 0.61952943 9 27
-8.7814074 15.240545 0.71661103 3 26
-5.751895 8.9423237 -0.49527726 9 12
-7.6818104 13.332143 -0.80639249 18 11
-9.007741 14.004105 2.0444803 16 29
-5.3361425 9.2611256 0.87255269 1 28
-8.0633259 11.283527 -0.5650171 3 13
-7.9515753 15.505363 -0.60850763 2 14
-9.2134457 14.323909 4.5634975 21 31
-8.0410633 13.955642 2.9366271 27 30
-5.7544107 8.9462347 -0.24751982 3 16
-8.0246964 11.312737 -0.24209979 9 17
-7.4361305 13.010528 -0.43612528 9 15
-3.2143981 5.0358906 -1.6724457 2 1
-4.2254629 7.3930259 -1.7030826 7 2
-9.6980991 19.074718 -0.24911921 2 18
-5.1484013 8.0658283 -1.4886966 2 3
-5.6765685 9.9319334 -1.4561253 3 4
-7.5245013 13.165144 -0.088131867 8 19
-5.7559648 9.0176783 -1.1523643 12 5
-6.6189504 13.018492 -1.3633037 2 6
-5.7489672 9.0067148 0.24863645 8 24
-5.751544 9.0107517 -0.74751037 9 8
-7.5432024 13.197865 -1.2409711 2 7
-11.679849 16.465551 0.58751243 1 25
-8.171154 11.519204 -0.90512717 22 9
-8.650773 17.014784 -1.1116182 6 10
-5.7601328 9.0242081 0.62348294 11 27
-8.7063408 15.232935 0.71481997 1 26
-5.7593431 9.0229712 -0.49862754 8 12
-7.6312623 13.351937 -0.80597377 6 11
-8.9417152 14.008688 2.0405805 16 29
-5.301805 9.2762327 0.87222719 1 28
-8.0655136 11.370278 -0.56794804 1 13
-8.6456575 17.004725 -0.6661616 9 14
-9.1446829 14.32667 4.5541801 19 31
-7.9747262 13.952874 2.9301696 27 30
-5.783392 9.060648 -0.25012529 10 16
-8.003582 11.366838 -0.24265826 4 17
-7.3906732 13.036404 -0.43612528 11 15
-3.1947401 5.0438247 -1.6713673 2 1
-4.1976981 7.4043174 -1.7022982 9 2
-9.3344154 18.519125 -0.24143609 5 18
-5.1159873 8.0770721 -1.4874668 2 3
-5.6379533 9.9447823 -1.4551151 3 4
-5.8998713 8.3791094 0.059560493 6 21
-7.5436025 13.306156 -0.088899039 6 19
-5.7670155 9.1049089 -1.1609321 11 5
-6.5698853 13.034402 -1.3625602 2 6
-5.7453122 9.0706444 0.24984613 5 24
-5.7520847 9.081336 -0.75169581 7 8
-7.4616985 13.161686 -1.2351128 4 7
-7.5583606 13.332188 0.2675105 2 23
-5.9016805 8.3816786 -0.65697187 10 9
-8.5751543 17.012781 -1.1095252 6 10
-5.7670603 9.1049795 0.62766892 11 27
-8.6491766 15.256277 0.71449423 1 26
-5.7641611 9.1004019 -0.50179166 7 12
-7.5944624 13.395867 -0.80702055 4 11
-8.8693962 14.002917 2.0352182 19 29
-5.2811918 9.3154907 0.87417996 1 28
-8.5664587 16.995529 -0.664626 6 14
-9.0822163 14.338916 4.5479684 21 31
-7.9085107 13.949818 2.9237125 22 30
-5.7731295 9.1145611 -0.25105581 9 16
-7.3575215 13.073498 -0.43659073 6 15
-3.1829789 5.060359 -1.6735239 2 1
-4.168643 7.4072156 -1.6999447 7 2
-5.750278 9.1418991 0 4 20
-9.256505 18.509012 -0.24092387 5 18
-5.0842719 8.0830698 -1.485622 2 3
-5.6008415 9.9520731 -1.4535998 3 4
-5.770143 9.17348 -1.1673579 11 5
-6.536026 13.069229 -1.3640473 2 6
-7.6785698 15.353823 0.19985414 8 22
-5.7617655 9.160161 -0.75671822 8 8
-7.3929353 13.136425 -1.2305564 1 7
-9.0032454 15.997766 0.32042617 1 23
-5.8730302 8.3969097 -0.65671611 17 9
-8.5055847 17.007496 -1.1074321 6 10
-5.7660651 9.166997 0.63069212 9 27
-8.6012001 15.283377 0.71449423 1 26
-5.7695789 9.1725836 -0.50476962 7 12
-7.3466311 13.054147 -0.78503942 4 11
-8.8126745 14.010552 2.0322933 19 29
-5.2323446 9.2972946 0.87092537 1 28
-5.8733287 8.397337 -0.41749391 15 13
-8.4969263 16.990183 -0.66336966 6 14
-9.0186062 14.337948 4.538651 21 31
-7.8511333 13.950591 2.9186902 30 30
-5.7742724 9.1800451 -0.25235856 9 16
-5.8541169 8.4386702 -0.17927112 28 17
-7.3754368 13.223867 -0.44066343 2 15
-3.1594493 5.0660057 -1.6713673 2 1
-4.1287084 7.4026117 -1.6952379 7 2
-5.0490155 8.0958223 -1.4843922 2 3
-5.5587244 9.9665737 -1.4525898 3 4
-5.8366704 8.4135218 0.059514001 21 21
-8.9585533 16.062332 -0.10689272 1 19
-5.7706556 9.2529335 -1.1746405 11 5
-6.4822621 13.087089 -1.3633037 2 6
-7.6089096 15.361686 0.19957474 17 22
-5.7603374 9.2363882 -0.76118267 7 8
-7.4725533 13.397994 -1.2523621 2 7
-5.8342986 8.4101028 0.29788709 19 25
-8.9573402 16.06016 0.32098466 1 23
-5.8430209 8.4226761 -0.65697187 17 9
-8.4331322 17.025715 -1.1065019 6 10
-5.773088 9.256834 0.63534325 10 27
-8.5229883 15.281383 0.71286595 1 26
-5.7744923 9.2590847 -0.50830603 8 12
-7.282835 13.057837 -0.78357404 5 11
-8.7378054 14.010598 2.0274186 19 29
-5.190783 9.3068695 0.86994898 1 28
-8.4121113 16.983274 -0.66183406 6 14
-8.9471312 14.34624 4.5303688 19 31
-7.789844 13.966884 2.9158201 38 30
-5.7791891 9.2666159 -0.25412655 9 16
-5.8102179 8.4349842 -0.17878245 23 17
-11.383538 20.570303 -0.68420935 2 15
-3.1406038 5.0731807 -1.6702889 2 1
-4.0927415 7.3956738 -1.6905313 7 2
-9.1044216 18.535284 -0.24041165 5 18
-5.0263009 8.1192455 -1.485622 1 3
-5.525641 9.9849539 -1.4525898 3 4
-5.801929 8.4229498 0.05944426 18 21
-9.4707718 17.11389 -0.11368104 2 19
-5.7713385 9.3227434 -1.1810664 12 5
-6.442337 13.115664 -1.3640473 2 6
-7.540288 15.350935 0.19910909 8 22
-5.7653799 9.313118 -0.76592606 7 8
-7.4589653 13.478513 -1.2575693 2 7
-5.7950349 8.4129419 0.29730526 16 25
-11.620941 20.999294 0.41892758 2 23
-5.7992053 8.4189968 -0.65518111 17 9
-8.3625374 17.024914 -1.1046414 6 10
-5.77809 9.3336496 0.63929671 10 27
-8.4722633 15.309566 0.71286595 1 26
-5.7731981 9.3257475 -0.51091176 8 12
-7.2588325 13.116869 -0.78566748 8 11
-8.6683064 14.002366 2.0220563 19 29
-5.7949505 8.4128199 -0.41619131 18 13
-8.3486919 16.996727 -0.66127563 6 14
-8.8812027 14.346269 4.5210509 20 31
-7.7320504 13.971984 2.9115152 46 30
-5.7799988 9.3367329 -0.25552234 9 16
-5.7513967 8.4122915 -0.17787492 21 17
-3.124893 5.0873938 -1.6713673 2 1
-4.0669026 7.4099145 -1.6905313 7 2
-5.7573047 9.3730173 0 9 20
-9.0466747 18.581337 -0.24059792 2 18
-4.999999 8.1401072 -1.4862369 2 3
-5.4850278 9.9937449 -1.4510745 4 4
-5.7431459 8.4002237 0.059142038 17 21
-8.5853529 15.64255 -0.1037078 1 19
-5.7720671 9.3970509 -1.1879206 11 5
-6.384315 13.113006 -1.3614448 2 6
-5.7703981 9.3943338 0.25654593 9 24
-5.768342 9.3909864 -0.77066952 4 8
-7.6823382 13.997253 -1.3034589 2 7
-5.736299 8.3902092 0.29579255 17 25
-8.4033079 15.310863 0.30485862 1 23
-5.733737 8.3864622 -0.65108782 17 9
-8.2908258 17.028868 -1.1030135 6 10
-5.7768264 9.4047995 0.64278507 9 27
-8.3918533 15.289993 0.71058637 1 26
-5.7677989 9.3901024 -0.51333135 6 12
-7.1957073 13.11061 -0.78378338 9 11
-8.6048326 14.008855 2.0186441 15 29
-5.7407379 8.3967018 -0.41440016 17 13
-8.2753162 16.997011 -0.66015887 6 14
-8.8189392 14.357425 4.5148396 12 31
-7.6775551 13.988539 2.909363 41 30
-5.7787695 9.4079628 -0.25691813 7 16
-5.70403 8.4058447 -0.17731646 18 17
-3.1051099 5.0949826 -1.6702889 2 1
-4.0316339 7.4068403 -1.6866088 7 2
-5.7620192 9.4545403 0 9 20
-9.6249218 19.945635 -0.25782672 2 18
-4.9612679 8.1406374 -1.4831625 2 3
-5.452004 10.016316 -1.4515796 4 4
-5.7070484 8.4102926 0.059072297 17 21
-8.5784998 15.760254 -0.10428898 1 19
-4.5245323 9.3761454 -0.97182322 1 6
-5.7646227 9.4588118 0.25775561 9 24
-9.6527348 20.003271 0.25857177 4 22
-5.764596 9.4587688 -0.77457583 7 8
-7.6601114 14.073009 -1.3080153 2 7
-5.7092195 8.4134922 0.29590893 12 25
-8.3364239 15.315517 0.30436996 1 23
-5.7178741 8.4262466 -0.65262282 10 9
-8.2226534 17.039726 -1.1018509 6 10
-5.7855229 9.4931059 0.6474362 10 27
-8.3365154 15.315684 0.71042359 1 26
-5.7724137 9.4715958 -0.51668161 6 12
-7.1575341 13.149683 -0.7846207 4 11
-8.5414152 14.015079 2.0152316 18 29
-5.7270999 8.4398422 -0.41553995 13 13
-8.2037697 17.000595 -0.65918171 6 14
-8.7667551 14.384826 4.5138044 6 31
-7.6192684 13.997972 2.9057755 26 30
-5.7854338 9.492959 -0.25868613 8 16
-0.21532227 0.39872894 -0.21130913 10 0
-5.7185845 8.48773 -0.17864282 12 17
-3.0901921 5.1085467 -1.6713673 2 1
-3.9977336 7.4029126 -1.6826866 7 2
-5.761692 9.5249338 0 9 20
-8.8958178 18.591972 -0.23994602 2 18
-4.934247 8.1570435 -1.4831625 2 3
-5.4168754 10.030848 -1.4510745 4 4
-5.7148895 8.4822464 0.05944426 10 21
-9.1553011 16.953579 -0.11198396 2 19
-6.634254 10.967408 -1.3806952 5 5
-5.774621 9.5463066 0.25961664 9 24
-8.9009962 18.602795 0.24008571 3 22
-5.7662439 9.5324583 -0.77904028 9 8
-7.1739154 13.284494 -1.2325091 1 7
-5.7237372 8.4953785 0.29811978 9 25
-8.2722912 15.318441 0.30388129 1 23
-5.7434335 8.5246124 -0.65876269 9 9
-8.1505928 17.034475 -1.0997578 3 10
-5.7870822 9.5669069 0.65115708 9 27
-8.2647943 15.304559 0.70863241 1 26
-5.7761321 9.5488043 -0.51984572 8 12
-7.1917119 13.31745 -0.79320383 2 11
-8.4784565 14.016149 2.011332 21 29
-5.0958099 9.436306 0.87548178 2 28
-5.7526798 8.5383358 -0.41944787 9 13
-7.3450398 15.350897 -0.59426862 7 14
-8.7150087 14.407206 4.511734 6 31
-7.5597219 13.998922 2.9007533 21 30
-5.7911787 9.5736799 -0.26036108 9 16
-0.21735208 0.40586975 -0.21469009 10 0
-5.7311625 8.5708065 -0.17996921 11 17
-3.0763063 5.1259074 -1.6735239 2 1
-3.9663141 7.4064479 -1.6803331 7 2
-5.769578 9.6135817 0 11 20
-4.9098125 8.180994 -1.4843922 1 3
-5.3799572 10.046197 -1.4505695 4 4
-5.7297158 8.5686426 0.05990921 10 21
-9.0979567 16.988958 -0.11200721 2 19
-4.4486656 9.3815346 -0.96922082 1 6
-5.7680168 9.61098 0.26082635 8 24
-5.76579 9.6072702 -0.78350472 9 8
-7.0936246 13.246193 -1.226651 1 7
-5.734055 8.5751314 0.30021432 8 25
-8.2036667 15.319016 0.30332282 1 23
-5.7424889 8.5877447 -0.66208851 8 9
-5.7721472 9.6178627 0.65325004 5 27
-8.1924553 15.298081 0.70700407 1 26
-5.7736087 9.6202974 -0.52263761 8 12
-8.4090509 14.011614 2.0064571 18 29
-5.066606 9.4610643 0.87613273 2 28
-5.756165 8.6081972 -0.42189029 9 13
-7.2845626 15.361994 -0.59371024 5 14
-8.6706314 14.447474 4.5148396 6 31
-7.4959512 13.997473 2.8950136 21 30
-5.7783055 9.6281233 -0.26129159 8 16
-5.732872 8.6417484 -0.18101637 11 17
-7.9652886 15.005791 -0.4944227 3 15
-3.0515869 5.1272187 -1.6702889 1 1
-3.9391396 7.4209366 -1.6803331 7 2
-5.7424841 9.6484137 0 10 20
-4.8757501 8.1921434 -1.4831625 2 3
-5.339376 10.058839 -1.4495592 4 4
-5.7336488 8.6429186 0.060281176 9 21
-9.0862589 17.117584 -0.1126349 2 19
-5.8091226 9.7603788 -1.2234768 22 5
-4.407475 9.383358 -0.96773374 1 6
-5.7491112 9.6595478 0.26157075 7 24
-5.7509441 9.6626272 -0.78629494 9 8
-7.0655847 13.31084 -1.2302309 1 7
-5.7467909 8.6627293 0.30254155 7 25
-8.1287098 15.313659 0.30262473 1 23
-5.7484865 8.6652851 -0.66643757 2 9
-5.7450242 9.6526814 0.65418035 6 27
-11.872814 22.36717 1.0316855 3 26
-5.7546563 9.6688652 -0.52412659 8 12
-7.1112123 13.396797 -0.7948786 20 11
-8.3393612 14.011638 2.0020697 21 29
-5.7621336 8.6858568 -0.42465839 7 13
-8.032094 17.100042 -0.65974009 3 14
-8.6195936 14.482478 4.5158749 8 31
-7.4316788 14.000524 2.8899913 21 30
-5.7552462 9.6698561 -0.26184991 8 16
-5.7444606 8.725173 -0.18234275 12 17
-8.0115652 15.221023 -0.50058991 3 15
-3.0317137 5.134522 -1.6692107 1 1
-3.9095597 7.4276986 -1.6787641 7 2
-7.7201638 13.074899 0 4 20
-7.9648623 17.111868 -0.2197371 2 18
-4.8471265 8.2091112 -1.4831625 2 3
-5.3042345 10.077415 -1.4495592 4 4
-5.7430382 8.7230129 0.060699631 10 21
-4.371335 9.3914633 -0.96699011 1 6
-8.9542685 15.164982 0.40980348 7 24
-8.0003061 17.188017 0.22071496 3 22
-7.2660494 13.80463 -1.2735168 2 7
-5.7516985 8.736167 0.30440336 8 25
-8.0227022 17.236134 -1.1071995 3 10
-8.9476318 15.153743 1.0248747 7 27
-7.7158647 13.067617 -0.70690084 6 12
-7.0885954 13.467489 -0.79760003 8 11
-8.2803116 14.023566 1.9996324 31 29
-4.980206 9.4617996 0.87287813 5 28
-5.7625508 8.7526503 -0.42693803 9 13
-8.0617647 17.320057 -0.66713881 3 14
-8.5709562 14.515803 4.5169106 10 31
-7.368103 13.99852 2.8842511 18 30
-7.7079082 13.054142 -0.35276225 6 16
-0.22811444 0.43708557 -0.22990435 10 0
-5.7467799 8.7953939 -0.18338989 12 17
-3.0137711 5.1450739 -1.6692107 1 1
-3.8727171 7.4204369 -1.6740572 7 2
-7.6360598 13.036191 0 6 20
-7.9117789 17.154097 -0.21992335 2 18
-4.8164415 8.2225714 -1.4825474 1 3
-5.2690225 10.095869 -1.4495592 4 4
-5.7497458 8.7999344 0.061094839 10 21
-7.9616165 15.255095 -0.10001142 9 19
-6.4765372 11.056667 -1.3802669 1 5
-4.3335195 9.3958158 -0.96587479 2 6
-8.9133997 15.21685 0.41036183 12 24
-8.6438236 18.741297 0.24027197 3 22
-7.3063536 13.999559 -1.2891388 2 7
-5.7649055 8.8231363 0.3067306 9 25
-7.954987 15.242393 0.30011159 8 23
-5.7577214 8.8121405 -0.6746242 8 9
-4.5272932 9.8159504 -0.62952936 1 10
-8.9088039 15.209004 1.0265026 11 27
-7.9514537 15.235623 0.70016527 12 26
-7.6742387 13.101369 -0.70727307 9 12
-7.9563842 15.24507 -0.90122527 11 11
-8.2012062 14.001001 1.9923203 26 29
-4.9360771 9.4579201 0.87092537 7 28
-5.7669377 8.8262463 -0.42954326 9 13
-4.500391 9.7576218 -0.3752394 1 14
-8.516324 14.538967 4.5148396 16 31
-7.3100872 14.006714 2.8806641 18 30
-7.6582475 13.074069 -0.35257617 11 16
-0.21999724 0.42496195 -0.22314245 10 0
-5.7480536 8.8613768 -0.18436721 11 17
-7.8967433 15.253899 -0.49989173 6 15
-2.9986296 5.1583695 -1.6702889 1 1
-3.8462873 7.4297557 -1.6732728 8 2
-7.574698 13.030316 0 13 20
-4.7911358 8.2419147 -1.4831625 1 3
-5.2336922 10.109763 -1.4490542 4 4
-5.751009 8.8659334 0.06142031 4 21
-7.9256997 15.309833 -0.1001974 3 19
-6.4478326 11.091835 -1.3819804 1 5
-4.2973719 9.3992682 -0.96475947 2 6
-8.8649025 15.249782 0.41045487 12 24
-8.8677616 15.254699 -1.2338526 12 8
-7.3533664 14.204273 -1.3057371 2 7
-5.7639031 8.8858109 0.3082433 9 25
-7.9283028 15.314861 0.3010191 6 23
-5.761055 8.8814201 -0.67846167 7 9
-7.9137502 15.286751 0.70130509 9 26
-7.6729226 13.199286 -0.7111817 7 12
-7.9057884 15.27137 -0.90122527 11 11
-8.1407671 14.004092 1.9889079 34 29
-4.8991895 9.4636154 0.86994898 3 28
-5.7702641 8.8956175 -0.43198571 9 13
-8.4622421 14.557108 4.511734 22 31
-7.2545557 14.013404 2.8770766 18 30
-7.5706387 13.023334 -0.35052902 6 16
-0.21189082 0.41282651 -0.21638057 10 0
-5.7495556 8.9318314 -0.18541437 3 17
-2.9825282 5.172143 -1.6713673 1 1
-3.8113718 7.4256887 -1.6693505 7 2
-7.5331612 13.06361 0 9 20
-4.4280186 9.7751141 -0.12493211 33 18
-4.7603602 8.2551661 -1.4825474 2 3
-5.2019911 10.135031 -1.4500643 3 4
-5.7546649 8.9397688 0.061792273 3 21
-7.9653568 15.518891 -0.10138303 1 19
-5.6759834 9.8429909 -1.2239052 1 5
-4.2563171 9.3960733 -0.96290064 2 6
-8.7985077 15.257908 -1.2316203 6 8
-7.2964549 14.215671 -1.3044354 2 7
-5.7631469 8.9529448 0.30987236 8 25
-5.764586 8.9551811 -0.68255496 6 9
-4.4125896 9.7410536 -0.62278527 24 10
-11.799277 20.461683 1.3755693 3 27
-7.8694639 15.332063 0.70211923 4 26
-7.6727071 13.305604 -0.71546257 10 12
-8.0799313 14.01179 1.985983 39 29
-4.8679438 9.4842062 0.87027442 3 28
-5.7781143 8.9761972 -0.43491665 8 13
-4.4206729 9.7588978 -0.37412259 20 14
-8.386282 14.543048 4.4982753 20 31
-7.1948109 14.017637 2.8727717 18 30
-7.4951644 12.997719 -0.34913322 10 16
-0.21037638 0.41360033 -0.21638057 10 0
-8.6393595 16.984995 -0.55458194 1 15
-2.9597282 5.1763511 -1.6692107 1 1
-3.7805748 7.4326167 -1.6677816 5 2
-7.5070724 13.129328 0 9 20
-4.7281117 8.2691259 -1.4819326 1 3
-5.1612144 10.146955 -1.4490542 3 4
-5.7584572 9.0181103 0.062187482 6 21
-9.4552946 18.589125 -0.12121328 2 19
-5.6754041 9.9258718 -1.2316163 1 5
-4.2153316 9.3970747 -0.96141356 1 6
-7.6221523 13.330594 0.35732183 1 24
-7.6254501 13.336361 -1.0742497 10 8
-7.2424974 14.238762 -1.3041098 2 7
-5.7582688 9.0178156 0.31138507 4 25
-9.3724194 18.426193 0.36084595 2 23
-5.7703962 9.0368071 -0.68715984 6 9
-11.795563 20.629587 1.3839413 3 27
-7.7987237 15.332304 0.70081663 4 26
-7.6397572 13.361383 -0.71695155 7 12
-8.6547155 17.015184 -1.0004543 5 11
-8.0088167 14.006842 1.9811082 32 29
-4.834959 9.505538 0.87059993 3 28
-5.7795925 9.0512094 -0.43752187 8 13
-8.3195009 14.550206 4.4910283 22 31
-7.1291156 14.015853 2.8670321 21 30
-7.4435081 13.018159 -0.34894711 11 16
-2.9444461 5.1894884 -1.6702889 1 1
-3.7470715 7.4276028 -1.6638591 8 2
-7.5345516 13.279397 0 9 20
-4.7006621 8.2847605 -1.4819326 1 3
-5.1275353 10.164016 -1.4490542 4 4
-5.764924 9.0945902 0.062582694 7 21
-5.5443249 9.7716885 -1.2101967 1 5
-4.1792903 9.4000854 -0.96029818 1 6
-7.593689 13.383624 0.35806626 1 24
-7.5929942 13.3824 -1.0759238 5 8
-7.164711 14.202191 -1.2985771 2 7
-9.3112602 18.457172 0.36084595 4 23
-5.7767267 9.1132097 -0.69150895 5 9
-11.774377 20.751947 1.3895227 3 27
-7.7370324 15.336671 0.69983965 3 26
-8.5784483 17.00456 -0.99815142 7 11
-7.9486055 14.009152 1.9776958 27 29
-4.8034091 9.5215197 0.87059993 3 28
-5.7901993 9.1344643 -0.44061565 7 13
-10.981777 24.700281 -0.94396156 5 14
-8.2159061 14.480262 4.4610052 20 31
-7.0701876 14.014823 2.8620095 20 30
-7.410161 13.060163 -0.34941238 8 16
-0.20910478 0.41830164 -0.21807104 10 0
-5.7605815 9.1618233 -0.18890485 5 17
-8.4830284 16.969793 -0.55213839 3 15
-2.9235184 5.196888 -1.6692107 1 1
-3.7128091 7.4272532 -1.6607213 8 2
-6.6716809 15.155368 -0.19277635 1 18
-4.672205 8.305378 -1.4825474 1 3
-5.0867009 10.175642 -1.4480441 4 4
-5.7571034 9.156292 0.062861666 5 21
-9.2412271 18.486525 -0.12012064 2 19
-6.2864861 11.174947 -1.3811237 1 5
-4.139997 9.4044037 -0.95918286 1 6
-8.9758625 15.95562 0.4259946 2 24
-9.8205853 22.308407 0.28376305 5 22
-7.5634613 13.444916 -1.0787141 1 8
-9.2507057 18.505486 0.3611252 4 23
-5.7794099 9.1917686 -0.69585806 6 9
-6.7139406 15.251365 -0.97045666 2 10
-8.9865999 15.974708 1.0674325 2 27
-7.6700487 15.343475 0.69886267 3 26
-7.3484263 13.062667 -0.69815296 3 12
-8.5071383 17.018024 -0.9971047 7 11
-7.8816376 14.01051 1.9737961 20 29
-4.7756104 9.5533247 0.87190175 3 28
-5.7885938 9.2063751 -0.4430581 8 13
-6.7228303 15.271559 -0.58268201 2 14
-8.0794306 14.36211 4.4154534 24 31
-7.0064592 14.016004 2.8569872 20 30
-7.4151835 13.181335 -0.35192478 2 16
-0.21408199 0.43202206 -0.22483292 10 0
-5.7603226 9.2327728 -0.189952 10 17
-8.4201946 16.992134 -0.55190557 5 15
-2.9016078 5.2003336 -1.6670542 1 1
-3.6851208 7.4366531 -1.6599369 8 2
-8.9322748 16.008644 0 2 20
-4.6354833 8.3078279 -1.4800879 2 3
-5.0493908 10.189779 -1.447539 3 4
-4.1039624 9.4114943 -0.95843929 1 6
-8.9571362 16.053202 0.42776263 2 24
-8.4302864 15.10897 -1.2098564 2 8
-7.0558252 14.238807 -1.2972753 4 7
-5.7735767 9.2540169 0.31743592 9 25
-9.1931601 18.551996 0.36140442 4 23
-5.778986 9.2626877 -0.69969553 6 9
-8.9560795 16.051308 1.0704557 2 27
-7.6040254 15.345087 0.69772285 3 26
-7.2891588 13.063811 -0.69685012 4 12
-8.426403 17.004663 -0.99459267 7 11
-7.8230138 14.020599 1.9713587 10 29
-4.7563972 9.5985126 0.8745054 3 28
-5.7839265 9.270606 -0.44517487 8 13
-8.0123081 14.359857 4.4061356 22 31
-6.9452643 14.015693 2.851965 20 30
-8.5362663 15.298907 -0.40766326 1 16
-0.22384006 0.45550492 -0.23666623 10 0
-5.7654676 9.3096266 -0.19113876 10 17
-8.3479252 16.987669 -0.55085838 3 15
-2.8880765 5.2166672 -1.6692107 1 1
-3.6535175 7.4347515 -1.656799 8 2
-8.9062576 16.087172 0 2 20
-6.6000977 15.27386 -0.19370764 3 18
-4.5983343 8.3058672 -1.4770133 2 3
-5.0050693 10.185102 -1.4445086 3 4
-9.1398773 18.599258 -0.12044611 4 19
-6.2064219 11.21052 -1.3802669 3 5
-4.0711479 9.4213972 -0.95806754 0 6
-8.9232178 16.117805 0.42869318 2 24
-7.0120811 14.269284 -1.2979262 4 7
-5.7849569 9.3410969 0.31976315 9 25
-9.1351118 18.589561 0.36154407 4 23
-5.7797608 9.3327065 -0.70353305 3 9
-6.5909634 15.252722 -0.96766597 8 10
-7.5407543 15.345111 0.69658309 3 26
-7.2593408 13.112383 -0.69815296 7 12
-8.3611536 17.014589 -0.99354589 7 11
-7.7803178 14.053411 1.9723336 7 29
-4.7368474 9.6392813 0.87678367 3 28
-5.7889218 9.3474998 -0.44794297 5 13
-6.5981092 15.269259 -0.58086723 12 14
-7.9496689 14.359307 4.3978534 20 31
-6.8865957 14.013927 2.8469427 17 30
-8.46805 15.295647 -0.40682581 1 16
-0.21264742 0.43676567 -0.2265234 10 0
-5.7606101 9.3784075 -0.1921161 9 17
-8.2733498 16.99299 -0.55004382 3 15
-2.8652294 5.2204652 -1.6670542 1 1
-3.6193738 7.4339876 -1.6536611 8 2
-8.6047363 15.677882 0 2 20
-6.4874363 15.165564 -0.19203131 1 18
-4.5754652 8.336525 -1.479473 2 3
-4.9555445 10.178406 -1.440973 3 4
-5.7697644 9.3933105 0.064070538 8 21
-9.721242 19.966877 -0.12907098 2 19
-6.1595483 11.222733 -1.3789817 1 5
-4.0318875 9.425272 -0.95695221 0 6
-11.650097 21.226547 0.56343329 3 24
-7.2494612 13.208562 -1.0536019 4 8
-6.9597306 14.29489 -1.2979262 4 7
-5.7799759 9.409935 0.32139221 8 25
-9.0826674 18.655283 0.36217234 2 23
-5.7831202 9.4150543 -0.70813793 5 9
-6.5381522 15.284122 -0.96813101 8 10
-11.79685 21.493931 1.4278945 3 27
-7.4739594 15.351088 0.69560611 1 26
-7.2016177 13.12139 -0.69722241 10 12
-8.2812462 17.009207 -0.9914524 5 11
-7.7478566 14.116641 1.9772084 7 29
-4.6892667 9.6314869 0.8745054 3 28
-5.7901816 9.4265499 -0.45071104 7 13
-7.2794776 17.017105 -0.6463387 2 14
-7.8839693 14.36464 4.3906064 20 31
-6.8231244 14.014309 2.8419204 20 30
-8.3888397 15.284515 -0.40570918 1 16
-0.20797053 0.43097529 -0.22314245 10 0
-5.7694678 9.4667597 -0.19351228 9 17
-8.2000856 16.992956 -0.54911292 3 15
-2.8469903 5.2304344 -1.6670542 1 1
-3.58829 7.4359779 -1.6513077 8 2
-8.5423126 15.693768 0 2 20
-6.4235406 15.162334 -0.19170536 1 18
-4.5482287 8.355916 -1.4800879 2 3
-4.9199872 10.195641 -1.440973 3 4
-5.7723312 9.4714584 0.064465754 11 21
-8.9283228 18.502075 -0.11939996 2 19
-6.1184373 11.240672 -1.3785533 1 5
-4.00984 9.4649572 -0.95955461 0 6
-8.3354387 15.313704 0.40570918 1 24
-7.167068 13.167195 -1.0483003 11 8
-6.9063277 14.311915 -1.2972753 4 7
-5.7845507 9.4915094 0.32348675 9 25
-8.9705677 18.589619 0.36028749 2 23
-5.7813845 9.4863138 -0.7119754 6 9
-6.4785337 15.292142 -0.96720088 8 10
-11.96039 21.973392 1.456964 3 27
-7.3977513 15.330288 0.69348931 1 26
-7.1595945 13.153466 -0.69759458 3 12
-8.2131472 17.020023 -0.9904058 5 11
-7.6947403 14.136624 1.9762335 7 29
-4.6434917 9.6226625 0.87222719 3 28
-5.792603 9.5047216 -0.45347914 9 13
-7.2153587 17.031368 -0.64591992 2 14
-7.8245473 14.375104 4.3854299 22 31
-6.765615 14.020318 2.8383329 20 30
-8.1557293 14.983545 -0.39696223 1 16
-0.19551606 0.40880546 -0.21130913 10 0
-5.7694993 9.5415983 -0.19462924 11 17
-7.338553 15.344215 -0.49500453 3 15
-2.8287165 5.2403393 -1.6670542 1 1
-3.5538518 7.4307652 -1.6473854 8 2
-6.434021 15.335883 -0.1936145 1 18
-4.5209136 8.3752193 -1.4807029 2 3
-4.8569775 10.155477 -1.4328918 1 4
-5.7806296 9.5600052 0.064930707 10 21
-6.0697193 11.244461 -1.3764113 1 5
-3.9875643 9.5046043 -0.96215707 0 6
-8.2705393 15.321589 0.40515086 1 24
-7.1210647 13.192131 -1.0483003 4 8
-6.8528905 14.328741 -1.2966243 4 7
-5.7886248 9.5732288 0.32558125 9 25
-5.7916117 9.5781679 -0.7173478 11 9
-6.4173937 15.296251 -0.96603805 8 10
-11.959494 22.155563 1.4662663 3 27
-7.2730703 13.473728 -0.71322906 1 12
-8.1485176 17.037775 -0.98977768 5 11
-7.6378069 14.149422 1.9742836 7 29
-4.6201963 9.6603909 0.87417996 2 28
-5.7966156 9.5864429 -0.45641008 10 13
-6.5465283 15.604052 -0.5909183 5 14
-7.7596416 14.375127 4.3771477 26 31
-6.7098455 14.029647 2.835463 20 30
-8.0330982 14.881719 -0.39351928 4 16
-5.7728109 9.6189766 -0.195816 11 17
-2.8167768 5.2598786 -1.6702889 1 1
-3.5241473 7.4318781 -1.6450319 8 2
-5.2401905 9.7852144 0 2 20
-6.3754506 15.338671 -0.1933817 1 18
-4.4837832 8.3727455 -1.4776282 2 3
-4.779068 10.078311 -1.41976 1 4
-5.7715349 9.6168499 0.065186426 8 21
-7.2905879 15.374716 -0.098895527 4 19
-6.0399051 11.278553 -1.378125 1 5
-3.959079 9.5251312 -0.96290064 0 6
-8.2159052 15.341884 0.40496475 1 24
-6.3954077 15.386684 0.19398703 2 22
-7.1262527 13.307133 -1.055555 1 8
-6.8019166 14.344183 -1.2959734 4 7
-5.775362 9.6232271 0.32662854 6 25
-5.7762485 9.6247044 -0.71939445 5 9
-6.3574338 15.295324 -0.9646427 8 10
-11.959472 22.332394 1.475336 3 27
-7.2812433 15.355009 0.69234949 4 26
-7.6002111 14.192174 1.9767209 7 29
-4.5813012 9.6612511 0.87287813 3 28
-5.7750745 9.6227484 -0.45722422 10 13
-6.3812046 15.352514 -0.58058804 2 14
-7.6955099 14.37013 4.3678308 22 31
-6.6514788 14.026934 2.8304405 20 30
-7.9799247 14.901228 -0.3933332 3 16
-5.7514777 9.6596861 -0.19623485 10 17
-2.7965939 5.2662764 -1.6692107 1 1
-3.4931808 7.4334841 -1.6426785 8 2
-5.1928716 9.7787161 0 3 20
-6.3066502 15.323841 -0.19291604 1 18
-4.4526777 8.3848543 -1.4770133 2 3
-4.691545 9.9836016 -1.4041028 1 4
-5.7461176 9.6506834 0.065279417 7 21
-8.0619574 17.155836 -0.11017065 1 19
-5.9930401 11.285517 -1.3764113 1 5
-3.9273233 9.5425739 -0.96327239 0 6
-8.1397991 15.328086 0.40384811 1 24
-6.3249168 15.368226 0.19347481 2 22
-7.0872474 13.346023 -1.056671 1 8
-6.7501116 14.364229 -1.295648 4 7
-5.7499189 9.6570683 0.32709396 3 25
-8.0744734 17.18247 0.3313863 1 23
-5.7609982 9.6756763 -0.72169691 3 9
-6.2964091 15.298957 -0.96347994 5 10
-11.88145 22.374002 1.475336 3 27
-9.3438692 19.883741 0.89507174 2 26
-7.5301456 14.180045 1.9713587 22 29
-4.5373774 9.6555328 0.87092537 3 28
-7.7779493 13.063173 -0.61940205 5 13
-6.3199716 15.356209 -0.57989007 2 14
-7.6308074 14.369602 4.3595481 20 31
-6.5890884 14.021572 2.8247008 22 30
-7.9203615 14.914863 -0.39296097 3 16
-7.7009287 13.037124 -0.26429924 7 17
-4.5487866 9.7682457 -0.31359598 1 15
-2.7835793 5.2862306 -1.6724457 1 1
-3.4655573 7.4420762 -1.6418941 8 2
-5.1568441 9.7932425 0 3 20
-6.251615 15.342057 -0.19286948 1 18
-4.4215417 8.3968468 -1.4763983 2 3
-4.598042 9.8740187 -1.3864251 1 4
-7.7365551 13.097437 0.088410839 4 21
-8.0189123 17.220131 -0.11040312 1 19
-5.9610238 11.320441 -1.378125 1 5
-3.890986 9.5488491 -0.96252888 0 6
-6.2787833 15.408731 0.19370764 2 22
-7.0369024 13.363617 -1.056113 1 8
-6.6915183 14.369633 -1.2940207 4 7
-8.9575806 15.164546 0.51257521 9 25
-9.2688713 19.904343 0.38325486 2 23
-8.9653578 15.177712 -1.1297461 6 9
-6.2294083 15.28756 -0.96138692 5 10
-9.2575378 19.880005 0.89344352 2 26
-7.0818167 13.448913 -0.70801759 116 12
-8.0131168 17.207685 -0.994802 2 11
-4.4935498 9.6496277 0.8689726 4 28
-7.7160444 13.062714 -0.61809939 10 13
-6.2633157 15.370772 -0.57961088 2 14
-7.6040068 14.440592 4.3730063 9 31
-6.5301404 14.023083 2.8203959 20 30
-7.6290841 13.01907 -0.26339173 7 17
-2.7597601 5.2856717 -1.6692107 1 1
-3.4362698 7.4470048 -1.6403252 8 2
-5.113369 9.7934561 0 3 20
-6.1830549 15.326695 -0.19240382 1 18
-4.394032 8.4157352 -1.4770133 2 3
-7.6644964 13.079501 0.088108622 5 21
-4.5097909 9.7735147 -0.062559448 0 19
-5.9085841 11.316504 -1.3751261 1 5
-3.8531575 9.5512934 -0.96141356 0 6
-3.9579337 9.8110142 0.12316267 1 22
-6.6363034 14.382044 -1.2930443 2 7
-8.9146957 15.212972 0.51315707 10 25
-8.9183731 15.219248 -1.1305135 12 9
-6.1670389 15.286994 -0.95999157 5 10
-7.954639 15.235241 1.0009215 12 27
-4.5220957 9.8001814 -0.56564707 1 11
-7.4125915 14.197076 1.966484 27 29
-4.4631772 9.6724949 0.86962354 3 28
-7.674438 13.096466 -0.61842507 10 13
-6.1961584 15.359177 -0.57835448 2 14
-7.5982566 14.552674 4.3988886 14 31
-6.4712543 14.024354 2.8160911 20 30
-7.965961 15.256926 -0.40049824 12 16
-7.5413795 12.973012 -0.26192573 13 17
-4.4522133 9.7379503 -0.31161782 12 15
-2.7430625 5.2986946 -1.6702889 1 1
-3.4037285 7.4446874 -1.6371872 7 2
-5.0681157 9.7899332 0 3 20
-6.1295137 15.348187 -0.19240382 1 18
-4.3628092 8.4275131 -1.4763983 2 3
-4.4844446 9.8084459 -1.3727882 19 4
-7.5926571 13.061223 0.087806396 5 21
-5.8672152 11.33353 -1.3746978 1 5
-3.8124061 9.5461931 -0.95955461 0 6
-7.9089751 15.277539 0.40031213 8 24
-7.9046855 15.269253 -1.2023225 10 8
-8.8615341 15.243999 0.51315707 3 25
-7.7297072 13.296983 -0.98571366 6 9
-6.1077123 15.293597 -0.95906132 2 10
-7.8922267 15.245187 0.99975872 12 27
-7.3483829 14.194659 1.962584 32 29
-4.4426455 9.7170238 0.87222719 2 28
-7.6427326 13.147365 -0.61956483 5 13
-6.1425037 15.380713 -0.57835448 2 14
-7.5491838 14.582541 4.3999238 18 31
-6.4140759 14.028966 2.8125036 20 30
-7.9144907 15.288193 -0.40059128 7 16
-7.4897895 12.993636 -0.2617861 13 17
-2.7271411 5.315567 -1.6724457 1 1
-3.3748033 7.4535384 -1.6364028 6 2
-5.0248981 9.7942066 0 3 20
-6.0614634 15.340789 -0.19203131 1 18
-4.3264804 8.4328957 -1.4745536 3 3
-4.4304633 9.7850523 -1.3672323 24 4
-7.5667105 13.127082 0.088062122 5 21
-5.8201923 11.344342 -1.3734126 1 5
-3.774467 9.5526934 -0.9588111 0 6
-7.8876123 15.374023 0.40208012 3 24
-3.8861563 9.8353643 0.1231161 52 22
-7.8814578 15.362027 -1.207345 8 8
-4.4185138 9.7586622 -0.8745054 22 7
-8.8854752 15.414937 0.51781154 1 25
-4.4308882 9.7859907 0.18750866 15 23
-7.668962 13.304473 -0.98417866 6 9
-6.048686 15.308451 -0.95859623 2 10
-4.4311867 9.7866507 0.43768474 18 26
-7.2818122 14.193236 1.9586842 32 29
-4.4070034 9.7332401 0.87222719 2 28
-7.6064725 13.196063 -0.62054181 5 13
-6.0758095 15.377097 -0.57737726 2 14
-6.3528786 14.03087 2.8081989 17 30
-7.9496765 15.494995 -0.4052439 1 16
-7.4546051 13.032286 -0.26206535 13 17
-4.3906736 9.7833824 -0.31208324 20 15
-2.7007656 5.3074155 -1.6670542 0 1
-3.3452516 7.4539533 -1.6340494 7 2
-4.9905801 9.8072491 0 2 20
-6.0149336 15.371978 -0.19217102 1 18
-4.2913241 8.4331055 -1.4720941 2 3
-4.4012418 9.8069305 -1.3682425 16 4
-7.5549169 13.207653 0.088434085 6 21
-5.7753286 11.349401 -1.3716991 1 5
-3.7384167 9.5540304 -0.95769578 0 6
-7.9182024 15.560473 0.40626749 1 24
-3.8433194 9.8221235 0.12279015 44 22
-7.8214264 15.370294 -1.2059499 8 8
-9.0070267 15.746259 0.52793503 1 25
-7.6347132 13.347154 -0.9854579 9 9
-5.9964356 15.324704 -0.95836371 2 10
-7.7638769 15.2572 0.99696797 3 27
-8.6565533 17.011446 -0.88911676 4 12
-7.2239051 14.196074 1.9557593 32 29
-4.368175 9.7332506 0.87092537 2 28
-7.570611 13.235089 -0.62119317 8 13
-6.01896 15.382268 -0.57681888 2 14
-7.8151808 15.358021 4.617332 6 31
-6.2998729 14.037497 2.8053288 20 30
-8.6508999 17.000336 -0.44386074 3 16
-7.4781427 13.179976 -0.26450869 7 17
-4.3564944 9.7986507 -0.31208324 7 15
-2.6961007 5.3443236 -1.6756804 1 1
-3.3160229 7.4584165 -1.6324805 7 2
-9.3397045 18.513554 0 2 20
-5.9525685 15.370503 -0.19189163 1 18
-4.2618589 8.4480343 -1.4720941 2 3
-4.3653679 9.8186092 -1.3677375 8 4
-7.5442948 13.296566 0.088852547 2 21
-5.7285089 11.35529 -1.3699856 1 5
-3.7021649 9.5595942 -0.95695221 0 6
-3.8061194 9.828022 0.12269703 45 22
-7.7515478 15.365441 -1.2034386 6 8
-6.4202743 14.440515 -1.2901152 2 7
-9.0250092 15.906275 0.53224045 1 25
-7.5939827 13.384139 -0.98622537 2 9
-5.9328074 15.319478 -0.95673585 2 10
-7.6961803 15.25569 0.99510759 5 27
-7.1599984 14.192848 1.9518596 30 29
-4.3244529 9.7265825 0.8689726 2 28
-7.5204177 13.254483 -0.62086749 3 13
-5.9580078 15.384549 -0.57612091 2 14
-7.8154683 15.492147 4.6494255 4 31
-6.24124 14.037829 2.8010242 20 30
-8.5680847 16.984016 -0.44265106 5 16
-0.18265107 0.4147132 -0.21130913 21 0
-7.4928994 13.314044 -0.26667276 5 17
-2.6739843 5.3468118 -1.6735239 1 1
-3.2883885 7.4663568 -1.631696 7 2
-9.2660818 18.528154 0 5 20
-5.8845677 15.353839 -0.19142598 1 18
-4.2358809 8.4699297 -1.4733239 2 3
-8.9907351 15.975531 0.10654401 2 21
-6.7294822 15.279434 -0.097035721 3 19
-5.688839 11.375217 -1.3699856 1 5
-3.6659241 9.5650196 -0.95620859 0 6
-9.2474756 18.49095 0.48108172 5 24
-3.7660661 9.8263073 0.12251076 46 22
-7.6835895 15.363855 -1.2012066 8 8
-6.3698306 14.462837 -1.2901152 2 7
-9.0086536 16.007368 0.53456765 1 25
-8.387105 14.902947 -1.0959766 2 9
-5.8750119 15.328906 -0.95603812 2 10
-7.6232357 15.243175 0.99254942 5 27
-8.5071974 17.010715 -0.88595259 4 12
-6.733253 15.287996 -0.87547594 2 11
-7.0979848 14.192899 1.9484472 27 29
-7.3525782 13.064709 -0.61077207 3 13
-5.888535 15.36419 -0.57458532 2 14
-7.8183765 15.63337 4.6835895 4 31
-6.1826859 14.037922 2.7967193 19 30
-8.4998074 16.995937 -0.44218579 3 16
-8.4782696 15.182506 -0.30353224 2 17
-2.65624 5.355649 -1.6735239 1 1
-3.2557673 7.4592447 -1.6277736 8 2
-9.1672697 18.483524 0 7 20
-5.8322053 15.369528 -0.19137941 1 18
-4.2042599 8.4768467 -1.4720941 2 3
-4.420661 10.128117 -1.406628 1 4
-8.9611149 16.047163 0.10682298 2 21
-5.6369519 11.365514 -1.3665584 1 5
-3.6440787 9.6031895 -0.9588111 1 6
-9.1967716 18.543007 0.48164004 5 24
-3.7277865 9.8237829 0.1223245 45 22
-7.6184192 15.360651 -1.1989744 12 8
-6.3330016 14.509455 -1.2923934 2 7
-8.9691706 16.061588 0.53538221 1 25
-6.6634769 15.266603 0.29075709 8 23
-5.824151 15.348304 -0.95603812 2 10
-7.5584545 15.239748 0.99068898 5 27
-8.4365416 17.010193 -0.88446361 6 12
-7.0385351 14.191459 1.9450349 26 29
-4.2453918 9.7265606 0.86636901 2 28
-5.8375573 15.383632 -0.57458532 2 14
-7.8197131 15.76651 4.7156835 4 31
-6.129807 14.043919 2.7938495 21 30
-8.4327431 17.002533 -0.44162747 5 16
-8.4542847 15.264492 -0.30457941 2 17
-6.590898 15.245258 -0.48336834 4 15
-2.6341288 5.357975 -1.6713673 1 1
-3.2265952 7.4633651 -1.6262047 8 2
-9.0797472 18.468748 0 7 20
-4.1746421 8.4914713 -1.4720941 2 3
-4.410471 10.201762 -1.4147092 1 4
-8.7674437 15.829912 0.1051724 2 21
-6.6142125 15.299186 -0.096872985 7 19
-5.6007509 11.392262 -1.3674152 1 5
-9.1460972 18.603706 0.48238447 5 24
-3.6878455 9.8217583 0.12213825 42 22
-7.5506654 15.358503 -1.1967421 12 8
-6.2918043 14.553432 -1.2943461 2 7
-11.702611 21.129454 0.70294368 2 25
-6.6085544 15.286099 0.29068726 3 23
-7.2720275 13.129888 -0.96192151 6 9
-7.4963989 15.248123 0.98952621 7 27
-6.6024971 15.272088 0.6778577 5 26
-8.364769 17.014439 -0.88316077 6 12
-6.6052589 15.278477 -0.87233585 6 11
-6.9819446 14.201692 1.9430851 26 29
-4.1987548 9.7120457 0.8637653 3 28
-7.2634792 13.114453 -0.61077207 10 13
-7.8294024 15.925471 4.755024 4 31
-6.0682511 14.036336 2.7881095 21 30
-8.3609877 17.006746 -0.44097611 3 16
-8.4163494 15.321953 -0.30513787 2 17
-6.5502281 15.297578 -0.48429921 1 15
-2.6204708 5.3775263 -1.6746023 1 1
-3.1958897 7.4637661 -1.6238513 8 2
-9.0222282 18.514715 0 2 20
-4.1397796 8.4953337 -1.4702493 2 3
-4.3576508 10.176973 -1.4091535 1 4
